X,Y,Z
-0.47632452845573425,2.2190957069396973,-0.4222973883152008
-0.4497685730457306,2.1691932678222656,-0.4152136743068695
-0.4345134198665619,2.171741485595703,-0.4181266725063324
-0.411043256521225,2.1327624320983887,-0.41305190324783325
-0.3946816921234131,2.127535343170166,-0.4142211377620697
-0.37570643424987793,2.107111692428589,-0.412264883518219
-0.35575878620147705,2.0789732933044434,-0.40876641869544983
-0.3399456739425659,2.0733721256256104,-0.40968284010887146
-0.32339712977409363,2.063918352127075,-0.40975263714790344
-0.3066544532775879,2.0505733489990234,-0.40874189138412476
-0.2901298701763153,2.037097930908203,-0.4076991081237793
-0.27282679080963135,2.0158987045288086,-0.40509435534477234
-0.25877249240875244,2.0173590183258057,-0.40704160928726196
-0.2428382784128189,2.003591299057007,-0.4055366814136505
-0.2273181825876236,1.9935284852981567,-0.40480536222457886
-0.21341344714164734,1.994749903678894,-0.4063556492328644
-0.19496318697929382,1.950163722038269,-0.398561030626297
-0.17925280332565308,1.928354263305664,-0.3951168954372406
-0.16451005637645721,1.9140759706497192,-0.3930976688861847
-0.15155047178268433,1.9225916862487793,-0.3957914113998413
-0.13924440741539001,1.9386372566223145,-0.40005090832710266
-0.12398380041122437,1.9126399755477905,-0.39548417925834656
-0.11129893362522125,1.924768090248108,-0.39856797456741333
-0.09749431908130646,1.9177088737487793,-0.3976982831954956
-0.08341092616319656,1.9067375659942627,-0.3960407078266144
-0.06985699385404587,1.8994899988174438,-0.39511531591415405
-0.05642731115221977,1.8922213315963745,-0.3938266634941101
-0.04343748092651367,1.9001516103744507,-0.39572080969810486
-0.030340028926730156,1.9079920053482056,-0.3976173400878906
-0.016756098717451096,1.900446891784668,-0.39633211493492126
-0.003550774184986949,1.908169150352478,-0.3979092240333557
0.009697622619569302,1.900519847869873,-0.3962176442146301
0.02313346043229103,1.9195457696914673,-0.40010619163513184
0.03732795640826225,1.965240240097046,-0.40957069396972656
0.050770729780197144,1.9573496580123901,-0.40768203139305115
0.06509856134653091,1.9723392724990845,-0.41034677624702454
0.08001252263784409,2.002518653869629,-0.41618937253952026
0.0925106480717659,1.9714564085006714,-0.4093227982521057
0.107859306037426,2.001443386077881,-0.4150770604610443
0.12294816970825195,2.0199310779571533,-0.418087363243103
0.13724742829799652,2.019209861755371,-0.4171205163002014
0.1512998640537262,2.018401861190796,-0.4161699414253235
0.16786354780197144,2.048004627227783,-0.42149755358695984
0.1834900677204132,2.062305450439453,-0.4233027696609497
0.19784553349018097,2.0612621307373047,-0.4219155013561249
0.21520763635635376,2.086751937866211,-0.42594337463378906
0.2305905967950821,2.0930988788604736,-0.4260856509208679
0.24517662823200226,2.0917751789093018,-0.4244399070739746
0.26351460814476013,2.120791435241699,-0.42876753211021423
0.2743046283721924,2.0888917446136475,-0.42079848051071167
0.29018259048461914,2.0948545932769775,-0.4204663038253784
0.31584182381629944,2.169005870819092,-0.43369260430336
0.3350193500518799,2.193730354309082,-0.43667006492614746
0.35395175218582153,2.214514970779419,-0.4388405382633209
0.3788730800151825,2.269185781478882,-0.4476774036884308
0.3986707925796509,2.289628505706787,-0.4497114419937134
0.41765567660331726,2.302401065826416,-0.44978731870651245
0.44294339418411255,2.3490054607391357,-0.45645707845687866
0.4733785390853882,2.417976140975952,-0.4673626720905304
0.4933622479438782,2.4302306175231934,-0.46723660826683044
0.5182483792304993,2.464930534362793,-0.47110727429389954
0.5390275716781616,2.476872205734253,-0.47040602564811707
0.5723655819892883,2.5449182987213135,-0.4803285300731659
0.6032626032829285,2.597665309906006,-0.48722729086875916
0.6339797973632812,2.646430253982544,-0.49311065673828125
0.6570681929588318,2.6613736152648926,-0.49238860607147217
0.689267635345459,2.709599018096924,-0.49769067764282227
0.73655104637146,2.8133983612060547,-0.5130591988563538
0.7773016691207886,2.887009859085083,-0.5226378440856934
0.8210674524307251,2.9677300453186035,-0.532965362071991
0.8554737567901611,3.0109846591949463,-0.5363978147506714
0.9017859101295471,3.0907750129699707,-0.5460749268531799
0.951134204864502,3.1775691509246826,-0.5568294525146484
1.003859281539917,3.2713429927825928,-0.5681619644165039
1.0579016208648682,3.3645989894866943,-0.5791011452674866
1.1110546588897705,3.449932813644409,-0.5883781313896179
1.158725619316101,3.512604236602783,-0.593450665473938
1.2609896659851074,3.735884428024292,-0.6250070929527283
1.3285701274871826,3.8486385345458984,-0.6374150514602661
1.417195439338684,4.015252590179443,-0.6582439541816711
1.4730439186096191,4.082765579223633,-0.6623854637145996
1.5243393182754517,4.135341167449951,-0.6636792421340942
1.5536333322525024,4.125868320465088,-0.6546445488929749
1.5824766159057617,4.1163010597229,-0.6457266807556152
1.6086971759796143,4.09922456741333,-0.6356073617935181
1.6244585514068604,4.056943416595459,-0.62152498960495
1.643841028213501,4.025472164154053,-0.6090559363365173
1.3985856771469116,3.3578410148620605,-0.50152587890625
1.4192708730697632,3.3419008255004883,-0.4926697015762329
1.4457402229309082,3.3401310443878174,-0.4858245849609375
1.4688572883605957,3.331188678741455,-0.4778141677379608
1.4888302087783813,3.314965009689331,-0.46876972913742065
1.5126926898956299,3.3053138256073,-0.46045055985450745
1.532504677772522,3.2887637615203857,-0.45125168561935425
1.5651715993881226,3.300243616104126,-0.4457915723323822
1.5847314596176147,3.2834134101867676,-0.43645045161247253
1.597703218460083,3.252333402633667,-0.425166517496109
1.6311472654342651,3.2628750801086426,-0.41912949085235596
1.6236692667007446,3.193845510482788,-0.40305399894714355
1.6351929903030396,3.1628339290618896,-0.3918862044811249
1.6539350748062134,3.1453676223754883,-0.3823629915714264
1.7176753282546997,3.2137560844421387,-0.38303855061531067
1.7285025119781494,3.1824941635131836,-0.3716975152492523
1.7267627716064453,3.1269092559814453,-0.35735997557640076
1.7411295175552368,3.102139711380005,-0.3467515707015991
1.783387303352356,3.1283833980560303,-0.3417516350746155
1.3487021923065186,2.329407215118408,-0.24849462509155273
0.9765406250953674,1.6599241495132446,-0.17264193296432495
0.9602006673812866,1.6068072319030762,-0.16270814836025238
0.9448083639144897,1.557504415512085,-0.15348586440086365
0.9679293632507324,1.5712337493896484,-0.15040142834186554
0.9871310591697693,1.5781302452087402,-0.1465146541595459
0.9997871518135071,1.5752297639846802,-0.14166346192359924
1.0107738971710205,1.568678855895996,-0.13628771901130676
1.0218178033828735,1.5619738101959229,-0.13083675503730774
1.0321972370147705,1.5555806159973145,-0.12541702389717102
1.0427371263504028,1.5489734411239624,-0.11988627910614014
1.0536633729934692,1.5420000553131104,-0.11411058157682419
2.5389366149902344,3.6635892391204834,-0.2583520710468292
2.572690963745117,3.6600239276885986,-0.24512304365634918
2.5980522632598877,3.6430256366729736,-0.23040945827960968
2.6170923709869385,3.6206462383270264,-0.21541377902030945
2.6234803199768066,3.578270435333252,-0.19854377210140228
2.6752755641937256,3.599087715148926,-0.18475976586341858
2.645789623260498,3.72158145904541,0.502161979675293
2.615598201751709,3.740821123123169,0.5171483755111694
2.5985467433929443,3.77432918548584,0.533252477645874
1.0469292402267456,1.5442395210266113,0.22260379791259766
1.051862120628357,1.5775171518325806,0.2317807674407959
1.0399264097213745,1.584640622138977,0.2369895875453949
1.0325170755386353,1.59795343875885,0.24301683902740479
1.0074775218963623,1.5856460332870483,0.244877427816391
1.0114656686782837,1.6189980506896973,0.25380346179008484
0.9917579889297485,1.612292766571045,0.25617364048957825
0.9838809370994568,1.6254639625549316,0.26162755489349365
0.9829387068748474,1.6523820161819458,0.26930204033851624
0.9508368372917175,1.625709891319275,0.26812055706977844
1.3422664403915405,2.3321011066436768,0.3888799548149109
1.8448163270950317,3.259202241897583,0.5492362380027771
1.772836685180664,3.187530994415283,0.5425428152084351
1.7684506177902222,3.237170457839966,0.5565125346183777
1.7728452682495117,3.2994563579559326,0.5723659992218018
1.7635687589645386,3.3381576538085938,0.5842233896255493
2.379929542541504,4.58680534362793,0.809294581413269
2.3416595458984375,4.59613561630249,0.8175019025802612
2.3075687885284424,4.611703395843506,0.8267151117324829
2.274777412414551,4.626379489898682,0.8355468511581421
2.2441866397857666,4.648303508758545,0.8454018831253052
2.219142436981201,4.684377670288086,0.8576406836509705
2.1839334964752197,4.69934606552124,0.8660889863967896
2.1439521312713623,4.6993088722229,0.8715226650238037
2.1163294315338135,4.727191925048828,0.8822339177131653
2.0831921100616455,4.744668006896973,0.8905211687088013
2.0372331142425537,4.733865261077881,0.8933108448982239
1.7687290906906128,4.194377899169922,0.7957987189292908
1.7256031036376953,4.173672199249268,0.7959764003753662
1.6956233978271484,4.184741973876953,0.802256166934967
1.6682207584381104,4.202879428863525,0.8095588684082031
1.642795205116272,4.228281021118164,0.8180463910102844
1.6116200685501099,4.239151477813721,0.8237790465354919
1.5810792446136475,4.249547481536865,0.8293806314468384
1.5545789003372192,4.270492076873779,0.8370731472969055
1.5243638753890991,4.280303955078125,0.8425093293190002
1.4980785846710205,4.304856300354004,0.8503733277320862
1.4616291522979736,4.3001604080200195,0.852505087852478
1.4349983930587769,4.324309349060059,0.8604009747505188
1.4087985754013062,4.348078727722168,0.868217408657074
1.3782354593276978,4.356897354125977,0.8730493783950806
1.3471471071243286,4.365692138671875,0.8776270747184753
1.3220720291137695,4.396526336669922,0.8863469362258911
1.2923541069030762,4.412480354309082,0.8921265602111816
1.2584075927734375,4.413442611694336,0.8949105739593506
1.2330375909805298,4.443613529205322,0.9036452770233154
1.2018697261810303,4.451295852661133,0.9078183770179749
1.1710537672042847,4.462679386138916,0.9124187231063843
1.1407651901245117,4.477688789367676,0.9175476431846619
1.1103204488754272,4.492486953735352,0.9226879477500916
1.0775474309921265,4.49970817565918,0.9263495206832886
1.053017497062683,4.536246299743652,0.9360166788101196
1.019629716873169,4.535289287567139,0.9380031824111938
0.9924241900444031,4.564167499542236,0.9458584785461426
0.9550238847732544,4.5480637550354,0.9441327452659607
0.7837426662445068,3.871500015258789,0.8051158785820007
0.7531425952911377,3.861457109451294,0.80446857213974
0.7247760891914368,3.8585917949676514,0.8053142428398132
0.8372284173965454,4.634914398193359,0.9691169261932373
0.8047024011611938,4.640108108520508,0.9718132019042969
0.774865984916687,4.667969226837158,0.9788617491722107
0.7429027557373047,4.6804327964782715,0.9827166795730591
0.7096033096313477,4.685119152069092,0.9849923253059387
0.6811712384223938,4.719778537750244,0.9936061501502991
0.6493294835090637,4.731510639190674,0.9974461793899536
0.6172642111778259,4.746886253356934,1.0021336078643799
0.5865188837051392,4.773551940917969,1.0085662603378296
0.5528294444084167,4.7772321701049805,1.010170340538025
0.5191172361373901,4.780673980712891,1.0117743015289307
0.4885801076889038,4.814289093017578,1.0198173522949219
0.4564889371395111,4.832456588745117,1.0246376991271973
0.4235614836215973,4.850454330444336,1.0294967889785767
0.39056146144866943,4.864455699920654,1.0331906080245972
0.35640278458595276,4.866880893707275,1.034118413925171
0.3237433135509491,4.891942501068115,1.0399093627929688
0.2907494604587555,4.916783332824707,1.0457090139389038
0.2570260465145111,4.941416263580322,1.0515280961990356
0.22319196164608002,4.954335689544678,1.0548977851867676
0.18962694704532623,4.978475570678711,1.0607118606567383
0.15459823608398438,4.971984386444092,1.0593544244766235
0.12082516402006149,5.0110859870910645,1.0677279233932495
0.08548462390899658,5.027046203613281,1.0712254047393799
0.050485458225011826,5.035109996795654,1.073091745376587
0.01552925817668438,5.054390907287598,1.0774009227752686
-0.01964816451072693,5.061966419219971,1.079268455505371
-0.05500109866261482,5.076992988586426,1.0825053453445435
-0.09140275418758392,5.107140064239502,1.0885311365127563
-0.1274522840976715,5.129401206970215,1.0929313898086548
-0.16284403204917908,5.1208577156066895,1.0908198356628418
-0.19871507585048676,5.1273417472839355,1.0919620990753174
-0.2356157749891281,5.152655124664307,1.097165584564209
-0.274628221988678,5.2120466232299805,1.1096758842468262
-0.31049081683158875,5.194948673248291,1.1053639650344849
-0.29221484065055847,4.380825519561768,0.9314755201339722
-0.3172014355659485,4.30650520324707,0.9150645732879639
-0.3522283434867859,4.369176864624023,0.9278078675270081
-0.3786163032054901,4.321153163909912,0.9170835614204407
-0.40520259737968445,4.276732444763184,0.9071711897850037
-0.4290893077850342,4.217015266418457,0.8939574360847473
-0.453946977853775,4.176297187805176,0.8843366503715515
-0.47699427604675293,4.124035358428955,0.8723317384719849
-0.4997623860836029,4.0754475593566895,0.8611680269241333
-0.522077202796936,4.022863864898682,0.8492006063461304
-0.5438793301582336,3.973989725112915,0.8380869626998901
-0.5671606659889221,3.9401464462280273,0.8302002549171448
-0.5943430066108704,3.9365270137786865,0.8283540606498718
-0.6075932383537292,3.845893144607544,0.8080745339393616
-0.6300614476203918,3.8155629634857178,0.8005185723304749
-0.6484675407409668,3.7663166522979736,0.7890724539756775
-0.668626606464386,3.7282254695892334,0.7800083756446838
-0.6875845789909363,3.6862680912017822,0.7701937556266785
-0.7072991132736206,3.651782751083374,0.7618861198425293
-0.7284744381904602,3.6286041736602783,0.7555670738220215
-0.7412266135215759,3.563995599746704,0.740663468837738
-0.7583287358283997,3.525650978088379,0.7313156723976135
-0.774415910243988,3.4834306240081787,0.7212086915969849
-0.795285165309906,3.4635002613067627,0.715761125087738
-0.8150306344032288,3.439716339111328,0.7095646858215332
-0.8298288583755493,3.397331476211548,0.6991260647773743
-0.8529525995254517,3.392167329788208,0.6963663697242737
-0.8635702133178711,3.3386192321777344,0.6837301850318909
-0.8845080733299255,3.3257644176483154,0.6794742941856384
-0.8976128101348877,3.2831006050109863,0.669154942035675
-0.9188421964645386,3.269829750061035,0.6648544669151306
-0.9327072501182556,3.2346057891845703,0.655849277973175
-0.9513360857963562,3.21781325340271,0.6504988074302673
-0.9709248542785645,3.204571485519409,0.6459041833877563
-0.972314178943634,3.1325488090515137,0.629523754119873
-0.9992802739143372,3.140803575515747,0.6292552947998047
-1.008154034614563,3.094228982925415,0.6180843710899353
-1.0244680643081665,3.0733563899993896,0.6118255257606506
-1.0353147983551025,3.0379769802093506,0.6025997400283813
-1.0507811307907104,3.0170812606811523,0.5963058471679688
-1.0688575506210327,3.0032551288604736,0.591423749923706
-1.0863499641418457,2.9854185581207275,0.5857030153274536
-1.0912325382232666,2.935184955596924,0.5737320780754089
-1.108396291732788,2.9212586879730225,0.5685866475105286
-1.1391931772232056,2.9431264400482178,0.5703467130661011
-1.1293927431106567,2.861008644104004,0.5520203709602356
-1.1409211158752441,2.832322120666504,0.544005274772644
-1.1462510824203491,2.7893686294555664,0.5333267450332642
-1.1180884838104248,2.6685009002685547,0.5078260898590088
-1.120938777923584,2.6262624263763428,0.49717459082603455
-1.1477967500686646,2.640575408935547,0.49726930260658264
-1.1566553115844727,2.6122193336486816,0.4892839193344116
-1.1877273321151733,2.632840394973755,0.4904322326183319
-1.2030856609344482,2.618150472640991,0.48500198125839233
-1.2419325113296509,2.6561532020568848,0.48901909589767456
-1.254741907119751,2.6381447315216064,0.48266521096229553
-1.2660056352615356,2.6164610385894775,0.4756335914134979
-1.270806908607483,2.580630302429199,0.46600064635276794
-1.2821190357208252,2.558612108230591,0.45892763137817383
-1.2994109392166138,2.5507259368896484,0.454168438911438
-1.3057833909988403,2.522277593612671,0.4457247257232666
-1.3136065006256104,2.4972641468048096,0.4379625916481018
-1.3243231773376465,2.474989891052246,0.43047085404396057
-1.3381893634796143,2.4595999717712402,0.4242856800556183
-1.3433514833450317,2.4312260150909424,0.41562655568122864
-1.3595021963119507,2.4231109619140625,0.41047143936157227
-1.3625963926315308,2.3911683559417725,0.4012438952922821
-1.3760100603103638,2.375471353530884,0.39457228779792786
-1.3844867944717407,2.3535213470458984,0.3868637681007385
-1.4000362157821655,2.3452181816101074,0.3812866806983948
-1.4075101613998413,2.32356333732605,0.3735792934894562
-1.4159144163131714,2.3012454509735107,0.36551278829574585
-1.4199165105819702,2.272386074066162,0.35634735226631165
-1.4679491519927979,2.316319227218628,0.3584297001361847
-1.430738925933838,2.226109027862549,0.33982613682746887
-1.4698985815048218,2.252521276473999,0.33871591091156006
-1.4812140464782715,2.2367942333221436,0.33112195134162903
-1.4679274559020996,2.18605637550354,0.31823623180389404
-1.4781837463378906,2.170727014541626,0.31058457493782043
-1.484842300415039,2.148350954055786,0.30162692070007324
-1.4944859743118286,2.133179187774658,0.29358264803886414
-1.4992033243179321,2.111823558807373,0.28470665216445923
-1.5076502561569214,2.092525005340576,0.2754414975643158
-1.5216734409332275,2.0833868980407715,0.26748666167259216
-1.5303318500518799,2.068385362625122,0.2587265372276306
-1.494729995727539,2.09611177444458,-0.13720983266830444
-1.4883371591567993,2.119114637374878,-0.14745861291885376
-1.4748073816299438,2.132638931274414,-0.1568830907344818
-1.4891890287399292,2.1882619857788086,-0.16956521570682526
-1.4866158962249756,2.217527151107788,-0.17986704409122467
-1.4656037092208862,2.2214088439941406,-0.1881656050682068
-1.4571490287780762,2.244799852371216,-0.19815705716609955
-1.4516470432281494,2.270761728286743,-0.20795908570289612
-1.4283018112182617,2.2709484100341797,-0.2154390811920166
-1.4216318130493164,2.2972540855407715,-0.22531776130199432
-1.3870402574539185,2.2766010761260986,-0.23024359345436096
-1.3658090829849243,2.279515027999878,-0.23755663633346558
-1.3488132953643799,2.288788318634033,-0.24537408351898193
-1.324666976928711,2.284074068069458,-0.2513761818408966
-1.3002042770385742,2.2793755531311035,-0.2572973966598511
-1.2794052362442017,2.2813632488250732,-0.2639184892177582
-1.266456961631775,2.296607255935669,-0.2719695568084717
-1.2611418962478638,2.325234889984131,-0.28148671984672546
-1.251315712928772,2.34728741645813,-0.2902694344520569
-1.2413619756698608,2.3692281246185303,-0.2990765869617462
-1.233371615409851,2.3943629264831543,-0.30822432041168213
-1.222654104232788,2.416339874267578,-0.3171130120754242
-1.2083442211151123,2.4312713146209717,-0.3250076472759247
-1.1907973289489746,2.438990592956543,-0.33186426758766174
-1.190203070640564,2.481412172317505,-0.34346088767051697
-1.1770423650741577,2.4995925426483154,-0.35171669721603394
-1.1847820281982422,2.5634100437164307,-0.3665612041950226
-1.1757382154464722,2.592108726501465,-0.3765520453453064
-1.1446176767349243,2.5711445808410645,-0.37918248772621155
-1.1491689682006836,2.631598472595215,-0.39375078678131104
-1.3264939785003662,3.0976338386535645,-0.4701285660266876
-1.3044933080673218,3.1057825088500977,-0.47786495089530945
-1.2893059253692627,3.131824493408203,-0.48846080899238586
-1.2565280199050903,3.1147778034210205,-0.4920770823955536
-1.2170015573501587,3.07944393157959,-0.4926805794239044
-1.1715055704116821,3.0255680084228516,-0.49001333117485046
-1.1240205764770508,2.9640564918518066,-0.4857957065105438
-1.063448429107666,2.8661015033721924,-0.4752141237258911
-1.0152552127838135,2.7963974475860596,-0.4689009487628937
-0.9657062888145447,2.7188756465911865,-0.46095502376556396
-0.9222919940948486,2.6554532051086426,-0.45507457852363586
-0.8883622288703918,2.617225170135498,-0.45312249660491943
-0.846199095249176,2.55316162109375,-0.4466043710708618
-0.8186677098274231,2.5288188457489014,-0.4467308819293976
-0.7740864753723145,2.449165105819702,-0.43686261773109436
-0.7509508728981018,2.4353649616241455,-0.43834173679351807
-0.715876579284668,2.3808200359344482,-0.43238013982772827
-0.6828166246414185,2.329598903656006,-0.42683127522468567
-0.6555380821228027,2.2966156005859375,-0.42454859614372253
-0.6299809217453003,2.2671008110046387,-0.42245134711265564
-0.6038539409637451,2.233649730682373,-0.4195409119129181
-0.5841744542121887,2.2222416400909424,-0.4206971228122711
-0.554275393486023,2.16972279548645,-0.41397610306739807
-0.5386803150177002,2.1729519367218018,-0.4176085293292999
-0.5134551525115967,2.1349661350250244,-0.4131755530834198
-0.4931800067424774,2.1154370307922363,-0.4122436046600342
-0.46818041801452637,2.073275089263916,-0.4068218469619751
-0.4503064751625061,2.0609161853790283,-0.40697914361953735
-0.4331609308719635,2.0522351264953613,-0.4077617824077606
-0.41260847449302673,2.0245914459228516,-0.40470054745674133
-0.39395827054977417,2.004293441772461,-0.40306174755096436
-0.37989678978919983,2.0064573287963867,-0.4057854413986206
-0.360306978225708,1.9784189462661743,-0.40216976404190063
-0.34419357776641846,1.9691120386123657,-0.40237361192703247
-0.3266094923019409,1.9483152627944946,-0.4001722037792206
-0.31175804138183594,1.9425075054168701,-0.40097737312316895
-0.2958373725414276,1.9290870428085327,-0.39989304542541504
-0.2812267541885376,1.923115611076355,-0.40035250782966614
-0.26386627554893494,1.8981153964996338,-0.3968670964241028
-0.24462489783763885,1.8539947271347046,-0.38930606842041016
-0.23546995222568512,1.8856710195541382,-0.3973120152950287
-0.219621941447258,1.864150047302246,-0.3940995931625366
-0.20830760896205902,1.880496621131897,-0.3989052176475525
-0.19281864166259766,1.8587579727172852,-0.3956471085548401
-0.1818501055240631,1.8826093673706055,-0.4018676280975342
-0.16531410813331604,1.845521330833435,-0.3949316740036011
-0.15183228254318237,1.8387606143951416,-0.3944793939590454
-0.13756197690963745,1.8204792737960815,-0.39156219363212585
-0.12564541399478912,1.8326064348220825,-0.3950388431549072
-0.10960200428962708,1.7837328910827637,-0.3851306140422821
-0.09923957288265228,1.8224161863327026,-0.394131600856781
-0.08657333999872208,1.8228952884674072,-0.39490076899528503
-0.07203736156225204,1.7775251865386963,-0.38568398356437683
-0.05993345007300377,1.7855358123779297,-0.38769999146461487
-0.04811498150229454,1.8163623809814453,-0.3947004973888397
-0.035859379917383194,1.835654854774475,-0.3992171883583069
-0.022940147668123245,1.8243293762207031,-0.39709603786468506
-0.010439163073897362,1.8587939739227295,-0.4045834243297577
0.002459894632920623,1.843562364578247,-0.4012223184108734
0.015216992236673832,1.8091561794281006,-0.39370816946029663
0.02831859141588211,1.8433632850646973,-0.4011456072330475
0.04147261381149292,1.8584500551223755,-0.40417182445526123
0.05394565686583519,1.842952013015747,-0.40040677785873413
0.06703450530767441,1.8502590656280518,-0.4016175866127014
0.08022754639387131,1.8574734926223755,-0.40282464027404785
0.09374768286943436,1.8646175861358643,-0.40386801958084106
0.10584459453821182,1.8488584756851196,-0.3997097909450531
0.11968479305505753,1.8635053634643555,-0.40214455127716064
0.13320524990558624,1.8704313039779663,-0.4029230773448944
0.14623284339904785,1.8696531057357788,-0.40201666951179504
0.16370634734630585,1.9183273315429688,-0.41133514046669006
0.17848095297813416,1.9326362609863281,-0.41328591108322144
0.19195149838924408,1.9316256046295166,-0.41197189688682556
0.21026882529258728,1.9761230945587158,-0.42035824060440063
0.22620174288749695,1.9939582347869873,-0.4226906895637512
0.24309132993221283,2.015458345413208,-0.4256974756717682
0.2561802268028259,2.006505250930786,-0.42230719327926636
0.27324169874191284,2.027785539627075,-0.4252895414829254
0.2884649336338043,2.0338315963745117,-0.42482829093933105
0.30716827511787415,2.062504291534424,-0.42891204357147217
0.3159213960170746,2.022930860519409,-0.41879767179489136
0.3312784731388092,2.028686046600342,-0.4181500971317291
0.3525174558162689,2.068321943283081,-0.4243244528770447
0.3790072202682495,2.134223461151123,-0.43553251028060913
0.40017014741897583,2.1659820079803467,-0.4396842122077942
0.4196765124797821,2.186265468597412,-0.44145992398262024
0.4442419707775116,2.2289066314697266,-0.44761914014816284
0.4637337028980255,2.245164394378662,-0.44809916615486145
0.4922764301300049,2.3025169372558594,-0.45670878887176514
0.5158651471138,2.333385944366455,-0.45996949076652527
0.5339471101760864,2.3378632068634033,-0.4579966962337494
0.5743724703788757,2.4356086254119873,-0.4737918972969055
0.6022987365722656,2.4770655632019043,-0.4784570336341858
0.6280695796012878,2.507087230682373,-0.48082229495048523
0.6476112008094788,2.510835886001587,-0.47810909152030945
0.6898552775382996,2.599912405014038,-0.4912849962711334
0.7316640615463257,2.6811115741729736,-0.5025138258934021
0.7764118313789368,2.7693729400634766,-0.5148893594741821
0.8096845149993896,2.8128280639648438,-0.518743634223938
0.8522850275039673,2.8855316638946533,-0.5276670455932617
0.8969749212265015,2.9615626335144043,-0.5367560982704163
0.9420035481452942,3.033377170562744,-0.5447619557380676
0.996109127998352,3.1304736137390137,-0.5570759177207947
1.0503865480422974,3.223381519317627,-0.5682486295700073
1.1131786108016968,3.337769031524658,-0.5825685262680054
1.1701496839523315,3.429612636566162,-0.5925983190536499
1.2349634170532227,3.539033889770508,-0.6052793860435486
1.2265911102294922,3.4369335174560547,-0.5816333293914795
1.419756293296814,3.893617630004883,-0.6516754031181335
1.4832743406295776,3.982724666595459,-0.6591811180114746
1.553882360458374,4.085525035858154,-0.6685165166854858
1.5925689935684204,4.10113000869751,-0.663327693939209
1.6245040893554688,4.098479270935059,-0.6546616554260254
1.6501761674880981,4.0814104080200195,-0.6438602805137634
1.6715483665466309,4.053330898284912,-0.6313210725784302
1.6852444410324097,4.007241725921631,-0.6160750389099121
1.4357008934020996,3.3497440814971924,-0.5080153346061707
1.4562979936599731,3.333674192428589,-0.4984784722328186
1.4766151905059814,3.317502975463867,-0.4890165328979492
1.500105381011963,3.3081865310668945,-0.4805625081062317
1.5197722911834717,3.29190731048584,-0.4709591269493103
1.5491533279418945,3.296539068222046,-0.4643504023551941
1.5694355964660645,3.2795886993408203,-0.45445123314857483
1.5925965309143066,3.2696173191070557,-0.4456372857093811
1.615133285522461,3.259751558303833,-0.4367142617702484
1.637578010559082,3.249720335006714,-0.42779719829559326
1.6499325037002563,3.2185170650482178,-0.41595861315727234
1.6384323835372925,3.1426055431365967,-0.39852771162986755
1.6840102672576904,3.17682147026062,-0.39491844177246094
1.7280433177947998,3.2072646617889404,-0.39073342084884644
1.7321275472640991,3.161985397338867,-0.3771043121814728
1.7294930219650269,3.1068484783172607,-0.3624703586101532
1.7870944738388062,3.1602976322174072,-0.3604283034801483
1.8172520399093628,3.162126302719116,-0.3520025908946991
1.3237947225570679,2.2669951915740967,-0.24614380300045013
0.9701347351074219,1.6363251209259033,-0.17313440144062042
0.9009824395179749,1.4968773126602173,-0.15419510006904602
0.9379892349243164,1.5341131687164307,-0.15352444350719452
0.9836245775222778,1.5842443704605103,-0.1537666618824005
0.9942975640296936,1.5780760049819946,-0.14845864474773407
1.0053131580352783,1.571591854095459,-0.14295439422130585
1.0140619277954102,1.561815857887268,-0.13710759580135345
1.0244535207748413,1.5554966926574707,-0.13158360123634338
1.0353715419769287,1.548735499382019,-0.12575048208236694
1.0461244583129883,1.5419602394104004,-0.11987973749637604
1.0629465579986572,1.5450778007507324,-0.11475000530481339
2.5600697994232178,3.667908191680908,-0.2590181231498718
2.598795175552368,3.6703219413757324,-0.24529573321342468
2.6140711307525635,3.6412572860717773,-0.22923283278942108
2.6072425842285156,3.579756259918213,-0.2106786072254181
2.658742904663086,3.600963592529297,-0.19683918356895447
2.6274783611297607,3.7296314239501953,0.537350594997406
2.6049060821533203,3.752814769744873,0.5524721741676331
2.553915023803711,3.738762140274048,0.5617684125900269
1.0434843301773071,1.5537447929382324,0.23817048966884613
1.0492866039276123,1.586311936378479,0.24741804599761963
1.0415908098220825,1.5998038053512573,0.2536733150482178
1.0122461318969727,1.5810582637786865,0.2546791732311249
1.0250661373138428,1.6271286010742188,0.26598867774009705
1.0049880743026733,1.6206320524215698,0.2686710059642792
0.9964838027954102,1.6341651678085327,0.2744253873825073
0.9717990159988403,1.6212024688720703,0.27569228410720825
0.9756342768669128,1.6541496515274048,0.2845788300037384
1.3496978282928467,2.3251419067382812,0.40451568365097046
1.3946865797042847,2.445235013961792,0.4299080967903137
1.8175088167190552,3.242755889892578,0.5759552121162415
1.763914942741394,3.2005348205566406,0.5739350318908691
1.7906571626663208,3.303293228149414,0.5978678464889526
1.7622698545455933,3.3084542751312256,0.6039832830429077
2.3922994136810303,4.574430465698242,0.8421953320503235
2.3579423427581787,4.590418815612793,0.8520364165306091
2.325294017791748,4.605309963226318,0.8613549470901489
2.2921741008758545,4.620150566101074,0.8706044554710388
2.2640748023986816,4.649446964263916,0.8821030259132385
2.2317543029785156,4.6718621253967285,0.8924728035926819
2.1992146968841553,4.6898651123046875,0.9017847180366516
2.169140577316284,4.710705280303955,0.9115297794342041
2.1319727897644043,4.717607021331787,0.9184070825576782
2.0998430252075195,4.738870143890381,0.9276715517044067
2.067509412765503,4.75990104675293,0.9369571208953857
2.0096960067749023,4.720466613769531,0.9342969059944153
1.7438958883285522,4.176447868347168,0.8309542536735535
1.714076042175293,4.187490463256836,0.8374049067497253
1.6859238147735596,4.205966472625732,0.8448927402496338
1.6562278270721436,4.22065544128418,0.851670503616333
1.627488613128662,4.2388081550598145,0.8592396378517151
1.5948764085769653,4.2418131828308105,0.8635720610618591
1.5702089071273804,4.266180038452148,0.8723083734512329
1.5417578220367432,4.283592224121094,0.8791930079460144
1.5077383518218994,4.286465644836426,0.8830122351646423
1.4782146215438843,4.303733825683594,0.889899492263794
1.4523621797561646,4.327632904052734,0.8980754017829895
1.4243416786193848,4.343944072723389,0.9046867489814758
1.393632411956787,4.352844715118408,0.9097176790237427
1.366511344909668,4.376538276672363,0.9173269867897034
1.3363325595855713,4.392880916595459,0.9235047698020935
1.3065423965454102,4.408860206604004,0.929617702960968
1.275490641593933,4.417010307312012,0.9340434670448303
1.247589111328125,4.435966968536377,0.9407992362976074
1.2162082195281982,4.443768501281738,0.9450644254684448
1.1860747337341309,4.459008693695068,0.9504756927490234
1.1571632623672485,4.481570243835449,0.9575452208518982
1.124801754951477,4.488978385925293,0.9613979458808899
1.0968835353851318,4.51082181930542,0.9683365225791931
1.0670074224472046,4.5250325202941895,0.9736919403076172
1.0351791381835938,4.531638145446777,0.9773226976394653
1.005385160446167,4.553310871124268,0.9837391376495361
0.9727484583854675,4.559715270996094,0.9868818521499634
0.9323155879974365,4.528468608856201,0.9819138646125793
0.7665163278579712,3.859729051589966,0.8384473323822021
0.743857741355896,3.8869357109069824,0.8459329605102539
0.8497113585472107,4.616506099700928,1.0066593885421753
0.8195245265960693,4.63693904876709,1.0123965740203857
0.787797212600708,4.649647235870361,1.016485571861267
0.7584275603294373,4.67720365524292,1.023878574371338
0.7254109978675842,4.681903839111328,1.0263172388076782
0.6955005526542664,4.7090559005737305,1.0337451696395874
0.6664136052131653,4.739710807800293,1.041980266571045
0.6330654621124268,4.743831157684326,1.044021725654602
0.5985370874404907,4.740231037139893,1.044114589691162
0.5667988061904907,4.759115219116211,1.0492137670516968
0.5382740497589111,4.808113098144531,1.0610153675079346
0.504147469997406,4.811417579650879,1.0628010034561157
0.47214677929878235,4.829608917236328,1.0679101943969727
0.4394904673099518,4.843804836273193,1.0721346139907837
0.40610450506210327,4.8541364669799805,1.0748910903930664
0.3737039268016815,4.879452705383301,1.0810229778289795
0.3393445909023285,4.889365196228027,1.0838091373443604
0.30654779076576233,4.914220809936523,1.0899524688720703
0.2727469801902771,4.923612594604492,1.0927201509475708
0.2397524118423462,4.951817035675049,1.0997207164764404
0.20519693195819855,4.953208923339844,1.1004396677017212
0.17070960998535156,4.977331161499023,1.1058807373046875
0.13652712106704712,5.001194953918457,1.1113187074661255
0.10186439752578735,5.017198085784912,1.115065336227417
0.06715963780879974,5.032958030700684,1.1188122034072876
0.03226486220955849,5.052289009094238,1.1234092712402344
-0.003470573341473937,5.052309036254883,1.1237742900848389
-0.038791973143815994,5.075105667114258,1.1285721063613892
-0.07426023483276367,5.090047836303711,1.1315889358520508
-0.10983280837535858,5.097115993499756,1.1329081058502197
-0.14588265120983124,5.119184494018555,1.1376150846481323
-0.18270930647850037,5.15242862701416,1.144858479499817
-0.21973641216754913,5.166335582733154,1.1478585004806519
-0.2570830285549164,5.1952805519104,1.1540735960006714
-0.29170313477516174,5.170785903930664,1.1478638648986816
-0.2784958779811859,4.3962273597717285,0.9753121733665466
-0.3027324080467224,4.3069024085998535,0.9549456834793091
-0.3375636637210846,4.361914157867432,0.9666215777397156
-0.36599209904670715,4.336866855621338,0.960606575012207
-0.39021971821784973,4.269850730895996,0.9453514814376831
-0.4167729318141937,4.236965656280518,0.937321662902832
-0.4451688826084137,4.226747989654541,0.9340890645980835
-0.46753278374671936,4.159416198730469,0.9182799458503723
-0.4857933223247528,4.069286346435547,0.8975298404693604
-0.5092836022377014,4.028284072875977,0.8876771330833435
-0.535853922367096,4.01361608505249,0.8836777806282043
-0.5552901029586792,3.949643135070801,0.8688791394233704
-0.5767083764076233,3.904585123062134,0.8576998114585876
-0.5976733565330505,3.8632447719573975,0.8474236130714417
-0.6187071800231934,3.825561761856079,0.8380113840103149
-0.6374732255935669,3.7764503955841064,0.8261532187461853
-0.6564626693725586,3.730980634689331,0.8151475191116333
-0.6769139766693115,3.6966912746429443,0.8066440224647522
-0.6971261501312256,3.662315845489502,0.797881007194519
-0.7235975861549377,3.6654934883117676,0.7970892190933228
-0.7340700030326843,3.5898704528808594,0.7792239785194397
-0.7522444725036621,3.5553808212280273,0.7703632116317749
-0.7663646340370178,3.5020415782928467,0.7574587464332581
-0.7844926118850708,3.4672036170959473,0.7485960721969604
-0.8051645159721375,3.447280168533325,0.7429773211479187
-0.8224356174468994,3.416283369064331,0.7345647811889648
-0.8402040004730225,3.3889214992523193,0.726995050907135
-0.8595280647277832,3.368879795074463,0.7210478186607361
-0.8744473457336426,3.330061674118042,0.7110911011695862
-0.8937076926231384,3.3096916675567627,0.7051423788070679
-0.9086682796478271,3.2744503021240234,0.6960783004760742
-0.9225846529006958,3.239393949508667,0.6867097020149231
-0.9370390176773071,3.2080039978027344,0.6781100630760193
-0.9624635577201843,3.2131357192993164,0.6772381663322449
-0.9721664786338806,3.1668431758880615,0.6655858755111694
-0.9897512197494507,3.1460070610046387,0.6593115329742432
-1.0011824369430542,3.106848955154419,0.6492608785629272
-1.0151928663253784,3.07882022857666,0.6412561535835266
-1.033931016921997,3.065235137939453,0.6361640691757202
-1.0471892356872559,3.037139654159546,0.6281477808952332
-1.0654863119125366,3.0233712196350098,0.6231153607368469
-1.0723719596862793,2.9768733978271484,0.6113566756248474
-1.0958834886550903,2.9772064685821533,0.6092696189880371
-1.0971505641937256,2.920212507247925,0.5951524972915649
-1.1144121885299683,2.9062466621398926,0.5897808074951172
-1.1242293119430542,2.8744072914123535,0.5808761119842529
-1.1540602445602417,2.89231014251709,0.581990659236908
-1.1440131664276123,2.8102073669433594,0.5630084276199341
-1.1326749324798584,2.7284367084503174,0.544181227684021
-1.1288869380950928,2.6683595180511475,0.5294699668884277
-1.137723684310913,2.640308380126953,0.5212582349777222
-1.1555496454238892,2.6333463191986084,0.5172476768493652
-1.167838215827942,2.6119000911712646,0.5103148818016052
-1.1926590204238892,2.618391990661621,0.5088627338409424
-1.2269036769866943,2.6458637714385986,0.5111387968063354
-1.2495604753494263,2.6488819122314453,0.5086329579353333
-1.2589870691299438,2.623948574066162,0.5007908344268799
-1.2638719081878662,2.5882551670074463,0.4908311367034912
-1.2993746995925903,2.6145949363708496,0.49261534214019775
-1.2897453308105469,2.5514070987701416,0.4773041307926178
-1.3032927513122559,2.5367705821990967,0.47110024094581604
-1.3131088018417358,2.515230178833008,0.46366772055625916
-1.3253564834594727,2.496652126312256,0.45666012167930603
-1.3284494876861572,2.4609375,0.4465525150299072
-1.3376812934875488,2.439295530319214,0.43885135650634766
-1.3466931581497192,2.4176385402679443,0.43106576800346375
-1.3553168773651123,2.396028995513916,0.4233876168727875
-1.376150131225586,2.3940203189849854,0.41898852586746216
-1.3831663131713867,2.36860990524292,0.4104796350002289
-1.3869595527648926,2.3404629230499268,0.4013430178165436
-1.3986583948135376,2.3254573345184326,0.3944554626941681
-1.410870909690857,2.3100228309631348,0.38735535740852356
-1.4436885118484497,2.327178716659546,0.3855966627597809
-1.426140546798706,2.266183376312256,0.3707032799720764
-1.4369055032730103,2.2512032985687256,0.36345022916793823
-1.4464905261993408,2.2322916984558105,0.35526716709136963
-1.453965187072754,2.2099668979644775,0.34653836488723755
-1.496347188949585,2.243358850479126,0.3462468385696411
-1.4914631843566895,2.2056775093078613,0.33496206998825073
-1.5070810317993164,2.196150064468384,0.3275774121284485
-1.4869823455810547,2.1357333660125732,0.3125058114528656
-1.5276000499725342,2.1651837825775146,0.3106018900871277
-1.5061836242675781,2.1053483486175537,0.29561126232147217
-1.5096938610076904,2.080026626586914,0.28528255224227905
-1.5229684114456177,2.0714330673217773,0.2771374583244324
-1.5322540998458862,2.0560262203216553,0.2677338719367981
-1.4913430213928223,2.1075339317321777,-0.14584076404571533
-1.48274564743042,2.127187967300415,-0.15605849027633667
-1.49716317653656,2.182844638824463,-0.16917133331298828
-1.4853218793869019,2.199583053588867,-0.17912055552005768
-1.4518451690673828,2.1837334632873535,-0.1860167384147644
-1.4757297039031982,2.2558557987213135,-0.20055101811885834
-1.4532418251037598,2.25573468208313,-0.2083674520254135
-1.4428728818893433,2.275409698486328,-0.21797481179237366
-1.4377652406692505,2.3053457736968994,-0.22881260514259338
-1.437522292137146,2.34126353263855,-0.23988525569438934
-1.3821725845336914,2.2875516414642334,-0.24162353575229645
-1.3451541662216187,2.26351261138916,-0.24620378017425537
-1.3209137916564941,2.2588865756988525,-0.25251951813697815
-1.2927085161209106,2.247401475906372,-0.25798898935317993
-1.2721562385559082,2.2492942810058594,-0.2647853195667267
-1.278295636177063,2.2984097003936768,-0.27716389298439026
-1.2655584812164307,2.313401699066162,-0.28541499376296997
-1.263190746307373,2.3490939140319824,-0.2962800860404968
-1.2454229593276978,2.357590436935425,-0.3039146065711975
-1.237480640411377,2.382709264755249,-0.31340497732162476
-1.227394938468933,2.404392719268799,-0.3224892318248749
-1.2097207307815552,2.4123547077178955,-0.3297289311885834
-1.2024095058441162,2.440969467163086,-0.3398113250732422
-1.2336512804031372,2.5497522354125977,-0.3613440990447998
-1.215203881263733,2.5575530529022217,-0.36865007877349854
-1.2030842304229736,2.5793230533599854,-0.3779686987400055
-1.1844714879989624,2.5868587493896484,-0.3851853609085083
-1.1565526723861694,2.572962760925293,-0.38909414410591125
-1.151963233947754,2.6120553016662598,-0.4009423851966858
-1.1863713264465332,2.743610382080078,-0.4274290204048157
-1.3055877685546875,3.07828950881958,-0.4863966703414917
-1.277786135673523,3.0719246864318848,-0.492140531539917
-1.2249889373779297,3.0046794414520264,-0.4877537190914154
-1.1760811805725098,2.9440598487854004,-0.4841419458389282
-1.125148892402649,2.875793933868408,-0.47903650999069214
-1.0674185752868652,2.7852330207824707,-0.469747394323349
-1.0189067125320435,2.7158684730529785,-0.46345824003219604
-0.9634618163108826,2.624288558959961,-0.45304882526397705
-0.931719183921814,2.5937371253967285,-0.4528807997703552
-0.8861702084541321,2.5229671001434326,-0.44555723667144775
-0.8518165946006775,2.480889081954956,-0.44275227189064026
-0.8132169246673584,2.4238762855529785,-0.43708303570747375
-0.7767936587333679,2.370105028152466,-0.4317651689052582
-0.744792640209198,2.326944589614868,-0.4281795918941498
-0.711887538433075,2.2799620628356934,-0.42356076836586
-0.6810803413391113,2.2362797260284424,-0.41929343342781067
-0.6542754769325256,2.203343391418457,-0.41690072417259216
-0.6312212944030762,2.1812219619750977,-0.41645607352256775
-0.6032223701477051,2.140475034713745,-0.41214224696159363
-0.5859808325767517,2.1365132331848145,-0.41476622223854065
-0.559719443321228,2.0990796089172363,-0.4108816683292389
-0.5333816409111023,2.057624340057373,-0.40602168440818787
-0.5132575631141663,2.0382864475250244,-0.4052526652812958
-0.4979458153247833,2.037435531616211,-0.4080110490322113
-0.46765661239624023,1.9730578660964966,-0.39796286821365356
-0.45351922512054443,1.9756615161895752,-0.40139302611351013
-0.43626850843429565,1.9631893634796143,-0.4015735983848572
-0.4183979034423828,1.9468756914138794,-0.4007423222064972
-0.4015706181526184,1.9341623783111572,-0.40062588453292847
-0.3834667205810547,1.9138050079345703,-0.39889204502105713
-0.3632529675960541,1.882081151008606,-0.39470139145851135
-0.3500252664089203,1.8840545415878296,-0.39723044633865356
-0.3260313868522644,1.8257025480270386,-0.3869920074939728
-0.31195536255836487,1.8198853731155396,-0.3878253102302551
-0.3004676401615143,1.8290456533432007,-0.3918667733669281
-0.2821176052093506,1.7967100143432617,-0.38667625188827515
-0.2638976275920868,1.7604187726974487,-0.38055384159088135
-0.2483578324317932,1.7391016483306885,-0.37762880325317383
-0.2326022833585739,1.7138813734054565,-0.37382861971855164
-0.22598311305046082,1.7567476034164429,-0.38461121916770935
-0.21371102333068848,1.7579256296157837,-0.38624027371406555
-0.2003585249185562,1.7514519691467285,-0.38622453808784485
-0.18812869489192963,1.7524497509002686,-0.387845903635025
-0.17437921464443207,1.7382280826568604,-0.38587450981140137
-0.16225937008857727,1.7391281127929688,-0.38710451126098633
-0.1484963297843933,1.7209476232528687,-0.38409483432769775
-0.13568413257598877,1.714079737663269,-0.3836315870285034
-0.12373188138008118,1.7147458791732788,-0.3846946358680725
-0.11502071470022202,1.7648268938064575,-0.3966260552406311
-0.09807775914669037,1.685496211051941,-0.3794805705547333
-0.08870240300893784,1.7316253185272217,-0.39058518409729004
-0.07611648738384247,1.7244218587875366,-0.38963648676872253
-0.06355605274438858,1.7095823287963867,-0.38662105798721313
-0.05144835636019707,1.702270269393921,-0.38532158732414246
-0.03979988396167755,1.7101081609725952,-0.38747018575668335
-0.028169365599751472,1.7254832983016968,-0.3913503587245941
-0.015834182500839233,1.710391879081726,-0.3879380524158478
-0.00399102084338665,1.7180746793746948,-0.38968729972839355
0.00806161854416132,1.7371032238006592,-0.3940291106700897
0.020025428384542465,1.7255723476409912,-0.3914582133293152
0.03205638751387596,1.7254540920257568,-0.39117953181266785
0.04408770054578781,1.7252753973007202,-0.3907964825630188
0.05605941638350487,1.7173919677734375,-0.3886837363243103
0.06828621029853821,1.7246617078781128,-0.39002591371536255
0.08257023245096207,1.7737632989883423,-0.40060412883758545
0.09326762706041336,1.7428843975067139,-0.3929375410079956
0.10492029786109924,1.7347631454467773,-0.3904357850551605
0.1187492087483406,1.756974220275879,-0.3947616219520569
0.13155823945999146,1.7639161348342896,-0.39553555846214294
0.1450842171907425,1.778425931930542,-0.39773425459861755
0.15815883874893188,1.7852383852005005,-0.398216187953949
0.17386303842067719,1.8185325860977173,-0.4046016335487366
0.18560658395290375,1.806160807609558,-0.4007605016231537
0.1990382820367813,1.8127669095993042,-0.40081021189689636
0.2138996124267578,1.8306453227996826,-0.4033511281013489
0.22948920726776123,1.852197527885437,-0.40668925642967224
0.24638132750988007,1.8811978101730347,-0.41164249181747437
0.26445984840393066,1.91389799118042,-0.41695836186408997
0.2800268232822418,1.9275864362716675,-0.4180988073348999
0.2969342768192291,1.9487096071243286,-0.4208383560180664
0.31596997380256653,1.9810163974761963,-0.42595845460891724
0.33107781410217285,1.986831545829773,-0.42508333921432495
0.3462837040424347,1.9925575256347656,-0.4240724742412567
0.35911068320274353,1.9830809831619263,-0.4198073446750641
0.3758179843425751,1.9961072206497192,-0.4203583300113678
0.4000493884086609,2.046593427658081,-0.42855304479599
0.41969719529151917,2.070643424987793,-0.4309345483779907
0.44835278391838074,2.1357452869415283,-0.4417611360549927
0.46930229663848877,2.1593616008758545,-0.4438544511795044
0.4928474426269531,2.1940841674804688,-0.44810935854911804
0.5099565386772156,2.1987931728363037,-0.44592347741127014
0.535181999206543,2.2369227409362793,-0.45046812295913696
0.5674605369567871,2.3008744716644287,-0.4600677490234375
0.5999945402145386,2.3607518672943115,-0.4685964584350586
0.6291952133178711,2.405604600906372,-0.47371500730514526
0.6560623049736023,2.439068555831909,-0.47648000717163086
0.6947010159492493,2.51299786567688,-0.486989825963974
0.7302130460739136,2.5717685222625732,-0.49436628818511963
0.7668502330780029,2.630199670791626,-0.5010844469070435
0.8105995059013367,2.7104666233062744,-0.5117849111557007
0.8522282242774963,2.779245138168335,-0.5200486183166504
0.9006493091583252,2.8659558296203613,-0.5314078330993652
0.9384499788284302,2.91562557220459,-0.5353999733924866
0.9941877722740173,3.0160436630249023,-0.5482561588287354
1.0486211776733398,3.108673334121704,-0.5594277381896973
1.105798363685608,3.204346179962158,-0.5707728266716003
1.162925362586975,3.295886278152466,-0.5808326601982117
1.2134730815887451,3.36513090133667,-0.5865160226821899
1.2530938386917114,3.401289939880371,-0.5862160325050354
1.4420157670974731,3.8303921222686768,-0.6525536179542542
1.5132505893707275,3.9369590282440186,-0.6628157496452332
1.5731539726257324,4.010542392730713,-0.6669959425926208
1.637107253074646,4.090664386749268,-0.6719171404838562
1.6602039337158203,4.066313743591309,-0.6594710350036621
1.6862982511520386,4.048871040344238,-0.6479165554046631
1.7099510431289673,4.02799129486084,-0.6358699202537537
1.976127028465271,4.567648410797119,-0.71112459897995
1.4732120037078857,3.3413047790527344,-0.5128216743469238
1.483978509902954,3.3039803504943848,-0.49968641996383667
