X,Y,Z
2.237173080444336,3.720782995223999,-0.34776437282562256
2.2539939880371094,3.6933505535125732,-0.33602994680404663
2.2920260429382324,3.698376417160034,-0.32688239216804504
2.3098323345184326,3.6698498725891113,-0.31463325023651123
2.326061964035034,3.642035484313965,-0.30250483751296997
2.3632218837738037,3.6468400955200195,-0.2929983139038086
2.3846449851989746,3.624464988708496,-0.28078100085258484
2.3921194076538086,3.5829920768737793,-0.26700839400291443
2.428976058959961,3.587251901626587,-0.25679680705070496
2.4542689323425293,3.570866584777832,-0.2443755865097046
2.457986354827881,3.5264248847961426,-0.230140820145607
2.5016283988952637,3.539480686187744,-0.2194867879152298
2.526939868927002,3.5222725868225098,-0.20595166087150574
2.5725302696228027,3.5382308959960938,-0.19450034201145172
2.1610260009765625,2.930873155593872,-0.15019626915454865
2.7774620056152344,3.9331154823303223,0.4501109719276428
2.7492692470550537,3.951334238052368,0.46342945098876953
2.7056047916412354,3.9515607357025146,0.47436997294425964
2.6739768981933594,3.9714314937591553,0.48758217692375183
2.6499645709991455,3.9953651428222656,0.5001566410064697
2.628357410430908,4.0267014503479,0.5135194063186646
2.611515522003174,4.068481922149658,0.5281525254249573
2.5861127376556396,4.092442512512207,0.5398983955383301
2.5418004989624023,4.086714267730713,0.5476588606834412
2.5324134826660156,4.141242980957031,0.5630366206169128
2.4928088188171387,4.145692825317383,0.5715667009353638
2.4751312732696533,4.181997776031494,0.5840031504631042
2.4485440254211426,4.205250263214111,0.5945387482643127
2.4118542671203613,4.216109275817871,0.6031695604324341
2.3762574195861816,4.226057529449463,0.6114416718482971
2.3500044345855713,4.248307704925537,0.621126115322113
2.258298873901367,4.151538848876953,0.6131794452667236
2.2414112091064453,4.194628715515137,0.625441312789917
2.209017515182495,4.21052360534668,0.6338304281234741
2.179107666015625,4.224915981292725,0.6415473818778992
2.156167984008789,4.252861022949219,0.6513598561286926
2.12453031539917,4.267610549926758,0.658806324005127
2.0958476066589355,4.28924036026001,0.6672716736793518
2.0704848766326904,4.317558765411377,0.6768102645874023
2.0432705879211426,4.337958812713623,0.6848897933959961
2.0059335231781006,4.337220191955566,0.6895964741706848
1.9832218885421753,4.372084617614746,0.6995466947555542
2.0166397094726562,4.533951282501221,0.7300274968147278
1.9837985038757324,4.547346115112305,0.7366678714752197
1.957274317741394,4.574570655822754,0.7455558776855469
1.9292914867401123,4.597962379455566,0.7537305951118469
1.910004734992981,4.646790981292725,0.7656750082969666
1.8511722087860107,4.598855972290039,0.761695146560669
1.860337734222412,4.718880653381348,0.7855376601219177
1.8195748329162598,4.713072299957275,0.7885071635246277
1.7837063074111938,4.71753454208374,0.7931405901908875
1.3584935665130615,3.6728615760803223,0.6201364994049072
1.3224232196807861,3.656599998474121,0.6199837923049927
1.3020867109298706,3.6836507320404053,0.6272029876708984
1.2782676219940186,3.6994547843933105,0.6324973702430725
1.6334894895553589,4.836391448974609,0.8302530646324158
1.5917444229125977,4.825085163116455,0.8314515948295593
1.568422794342041,4.872421741485596,0.8424453735351562
1.5329517126083374,4.882887363433838,0.8471300601959229
1.501920223236084,4.9078288078308105,0.8543795943260193
1.4565404653549194,4.880507946014404,0.8524507284164429
1.4309824705123901,4.9193806648254395,0.8621209859848022
0.5761598348617554,2.0345022678375244,0.35756707191467285
1.3919405937194824,5.053092002868652,0.8904712200164795
1.308729887008667,4.887448787689209,0.8636179566383362
1.279292106628418,4.918418884277344,0.871482253074646
1.248681902885437,4.941489219665527,0.8779346942901611
1.2214792966842651,4.9793171882629395,0.8870735764503479
1.1912633180618286,5.009768486022949,0.8944644927978516
1.1562308073043823,5.021334171295166,0.898408830165863
1.1196058988571167,5.0290303230285645,0.901743471622467
1.0906014442443848,5.066309452056885,0.9103760719299316
1.058322787284851,5.088290214538574,0.9163039922714233
1.0227067470550537,5.094986438751221,0.9195330739021301
0.9909498691558838,5.124264240264893,0.926398754119873
1.7100627422332764,9.199201583862305,1.6657209396362305
1.6518974304199219,9.251948356628418,1.6779502630233765
1.56911301612854,9.160191535949707,1.6640088558197021
1.5021034479141235,9.151111602783203,1.6651023626327515
1.4300298690795898,9.107349395751953,1.6599396467208862
1.3684133291244507,9.139405250549316,1.6680934429168701
1.2982611656188965,9.11019229888916,1.6645220518112183
1.2323002815246582,9.107098579406738,1.665794014930725
1.1694806814193726,9.12639045715332,1.6712404489517212
1.100799560546875,9.091740608215332,1.6668598651885986
1.0400588512420654,9.121490478515625,1.6743632555007935
0.5968310236930847,5.586116313934326,1.0265982151031494
0.911728024482727,9.141953468322754,1.681104063987732
0.40258413553237915,4.346231937408447,0.7997503280639648
0.36837342381477356,4.306658744812012,0.7930288910865784
0.3409946858882904,4.343411445617676,0.8003955483436584
0.31245163083076477,4.376180171966553,0.8070849776268005
0.2847498655319214,4.42022705078125,0.8158934712409973
0.3256019353866577,5.672275066375732,1.047370195388794
0.2841918170452118,5.639770984649658,1.0416018962860107
0.24618467688560486,5.676051139831543,1.048588752746582
0.20807401835918427,5.7389631271362305,1.0605578422546387
0.16944101452827454,5.782392501831055,1.0689771175384521
0.1305774599313736,5.844760417938232,1.0809575319290161
0.08965511620044708,5.830084800720215,1.0785479545593262
0.04915260523557663,5.83827018737793,1.0798567533493042
0.007732762489467859,5.8384928703308105,1.0797423124313354
-0.05020240321755409,8.911282539367676,1.6478561162948608
-0.11089961975812912,8.807045936584473,1.6285091638565063
-0.1706501990556717,8.733126640319824,1.6148473024368286
-0.2282564789056778,8.612724304199219,1.5926674604415894
-0.2864084839820862,8.565049171447754,1.5831618309020996
-0.33466836810112,8.263675689697266,1.5265628099441528
-0.1687767505645752,3.557037115097046,0.6567508578300476
-0.19595545530319214,3.6019086837768555,0.6647166609764099
-0.22051145136356354,3.592890501022339,0.6627652049064636
-0.5357496738433838,7.838155269622803,1.4453142881393433
-0.5890654921531677,7.80762243270874,1.4389445781707764
-0.5533190369606018,6.716294288635254,1.236584186553955
-0.5932177901268005,6.6399359703063965,1.2213659286499023
-0.625384509563446,6.494502544403076,1.1935378313064575
-0.6598076820373535,6.387129783630371,1.1727945804595947
-0.7083852291107178,6.413186073303223,1.1766016483306885
-0.7529073357582092,6.4084367752075195,1.174828290939331
-0.7889947295188904,6.338691711425781,1.1605910062789917
-0.8275384902954102,6.295473098754883,1.151097059249878
-0.8649983406066895,6.248210906982422,1.14093816280365
-0.9077980518341064,6.234832763671875,1.1369996070861816
-0.9563514590263367,6.263032913208008,1.140709400177002
-1.009657859802246,6.317426681518555,1.1492215394973755
-1.0590784549713135,6.344930171966553,1.1525977849960327
-1.111730933189392,6.39117431640625,1.1588726043701172
-1.160271406173706,6.410511016845703,1.1602963209152222
-1.214881181716919,6.455808639526367,1.166412591934204
-1.2709153890609741,6.504436492919922,1.1731524467468262
-1.3261581659317017,6.545063495635986,1.1784732341766357
-1.3843753337860107,6.596545219421387,1.1857528686523438
-1.4350639581680298,6.614047527313232,1.18612802028656
-1.4717519283294678,6.563404083251953,1.1742931604385376
-1.505232334136963,6.505239963531494,1.1612558364868164
-1.5412893295288086,6.458006381988525,1.150222659111023
-0.6869086027145386,2.792217493057251,0.4962051808834076
-0.7082640528678894,2.7951574325561523,0.49563419818878174
-0.7179362177848816,2.753304958343506,0.48685145378112793
-0.7366018891334534,2.74875545501709,0.48467138409614563
-0.7613990902900696,2.7663497924804688,0.48640504479408264
-1.7305973768234253,6.123330593109131,1.0736290216445923
-1.77769136428833,6.126751899719238,1.0711910724639893
-1.810160517692566,6.077940464019775,1.0596400499343872
-1.8391950130462646,6.025872707366943,1.0470895767211914
-1.8707817792892456,5.984818935394287,1.036388635635376
-1.9018956422805786,5.943601131439209,1.025741696357727
-1.9321722984313965,5.898305416107178,1.0144031047821045
-1.9618717432022095,5.8488359451293945,1.0023361444473267
-1.9940131902694702,5.810394763946533,0.9923071265220642
-2.025639295578003,5.775984287261963,0.9823952913284302
-2.054164171218872,5.734189033508301,0.9712488055229187
-2.08089017868042,5.688632488250732,0.9595529437065125
-2.112412452697754,5.653365612030029,0.9495441317558289
-2.139024019241333,5.603148460388184,0.9370118975639343
-2.1779818534851074,5.589205741882324,0.9305204153060913
-2.238394260406494,5.63295841217041,0.9331449270248413
-2.303893566131592,5.686881065368652,0.9373862743377686
-2.348480701446533,5.686503887176514,0.9326068162918091
-2.3769819736480713,5.642355442047119,0.920486330986023
-2.4073362350463867,5.605442523956299,0.90971839427948
-2.4744765758514404,5.657603740692139,0.9129033088684082
-3.9208621978759766,8.805789947509766,1.4124882221221924
-2.545125722885132,5.615976333618164,0.8954799175262451
-4.13303804397583,8.951363563537598,1.418227195739746
-2.594888925552368,5.518975257873535,0.8689011931419373
-2.632446050643921,5.5024871826171875,0.8604606986045837
-2.65385103225708,5.454843521118164,0.8469809889793396
-2.6867430210113525,5.431413650512695,0.8373409509658813
-2.7045512199401855,5.37202787399292,0.8218348026275635
-2.712369441986084,5.295619964599609,0.8039591312408447
-2.7482032775878906,5.278496742248535,0.7948206067085266
-2.790433406829834,5.2752180099487305,0.787597119808197
-2.814650058746338,5.237360000610352,0.7752060890197754
-1.1796414852142334,2.1589179039001465,0.3166133463382721
-1.1744410991668701,2.1137211322784424,0.30704566836357117
-2.5100955963134766,4.4493231773376465,0.6398042440414429
-2.5221195220947266,4.403604030609131,0.6267617344856262
-6.019357681274414,10.346734046936035,1.456748366355896
-6.092564582824707,10.30687427520752,1.4348064661026
-1.2458192110061646,2.0755386352539062,0.28544721007347107
-2.9043121337890625,4.768860340118408,0.6477957963943481
-2.9692718982696533,4.803319454193115,0.6440403461456299
-3.0095574855804443,4.793471813201904,0.633859395980835
-3.0064473152160645,4.718860626220703,0.614991307258606
-3.041947841644287,4.7068305015563965,0.6040697693824768
-3.0484468936920166,4.648516654968262,0.5870426297187805
-3.0662097930908203,4.605739593505859,0.5717786550521851
-3.0831096172332764,4.567875385284424,0.5569241046905518
-3.0992493629455566,4.530215740203857,0.5421426296234131
-3.1229991912841797,4.496606826782227,0.5266914963722229
-3.15348219871521,4.476880073547363,0.5129303932189941
-2.858903169631958,4.005380153656006,0.44843778014183044
-2.8682894706726074,3.961777448654175,0.4322829246520996
-2.934319496154785,3.9969937801361084,0.42424651980400085
-2.950063705444336,3.967454433441162,0.4090605676174164
-2.449735641479492,3.4572672843933105,-0.20555329322814941
-2.432356595993042,3.4877371788024902,-0.21977384388446808
-2.8869476318359375,4.201635837554932,-0.27855992317199707
-2.262535810470581,3.3472132682800293,-0.23301197588443756
-2.242231607437134,3.3694007396698,-0.24500711262226105
-2.2309534549713135,3.40405535697937,-0.2575983703136444
-2.1777608394622803,3.377333402633667,-0.2654728591442108
-2.1573643684387207,3.3987817764282227,-0.27667030692100525
-1.2634443044662476,2.0223331451416016,-0.17019213736057281
-1.2645691633224487,2.057769536972046,-0.1786838322877884
-2.1464266777038574,3.5495104789733887,-0.3173788785934448
-2.0993309020996094,3.5268919467926025,-0.32415661215782166
-2.098601818084717,3.5851590633392334,-0.3383316993713379
-1.1863528490066528,2.0613481998443604,-0.1995905041694641
-1.1966888904571533,2.1131632328033447,-0.2094837874174118
-2.5859696865081787,4.643621444702148,-0.4709210693836212
-2.5553243160247803,4.668163776397705,-0.48396602272987366
-2.529418706893921,4.698683261871338,-0.497310072183609
-2.499051809310913,4.7224202156066895,-0.5100841522216797
-2.482308864593506,4.773823261260986,-0.5256341695785522
-2.4475057125091553,4.790456295013428,-0.5373836755752563
-2.425774574279785,4.83066463470459,-0.5515747666358948
-2.3944759368896484,4.853610038757324,-0.5637866854667664
-2.371872901916504,4.897894859313965,-0.5786280632019043
-2.3482823371887207,4.938032627105713,-0.5927915573120117
-2.3232316970825195,4.9742536544799805,-0.6064308285713196
-2.29384446144104,5.003612518310547,-0.6191537976264954
-2.2638118267059326,5.032937526702881,-0.6318631172180176
-2.2184739112854004,5.026292324066162,-0.6399101614952087
-2.0636658668518066,4.766600608825684,-0.6153110861778259
-2.000610589981079,4.712185859680176,-0.6162580847740173
-1.9233473539352417,4.621426105499268,-0.6121193766593933
-0.9781714677810669,2.3976333141326904,-0.3215179741382599
-0.9785111546516418,2.4470126628875732,-0.33212924003601074
-0.9465722441673279,2.417327642440796,-0.3319610059261322
-0.9291673898696899,2.4234378337860107,-0.33655229210853577
-0.903768002986908,2.4075872898101807,-0.3380318582057953
-0.8788139224052429,2.3914453983306885,-0.3393831253051758
-0.8670557141304016,2.4115841388702393,-0.3457592725753784
-0.8546292185783386,2.4318106174468994,-0.35218361020088196
-0.8474018573760986,2.466477155685425,-0.3606967031955719
-0.8300385475158691,2.471752166748047,-0.364937961101532
-0.8222073316574097,2.5063390731811523,-0.3734569847583771
-0.807867169380188,2.522575855255127,-0.37916597723960876
-0.7919138073921204,2.535108804702759,-0.3844108581542969
-0.7740667462348938,2.5400028228759766,-0.3884352445602417
-0.7627810835838318,2.5670011043548584,-0.39583948254585266
-0.7509783506393433,2.5940356254577637,-0.40307506918907166
-0.7482401132583618,2.6544806957244873,-0.41561827063560486
-0.7398179769515991,2.696302890777588,-0.42533552646636963
-0.7146058082580566,2.678499221801758,-0.4257369637489319
-0.7082756161689758,2.7314815521240234,-0.43709856271743774
-0.6766981482505798,2.6871886253356934,-0.43286100029945374
-0.6669548749923706,2.728794574737549,-0.44245442748069763
-0.6504935622215271,2.7440836429595947,-0.4478446841239929
-0.6377621293067932,2.7781741619110107,-0.4562382102012634
-0.6181597113609314,2.782069206237793,-0.4594717025756836
-0.6034144759178162,2.808436870574951,-0.4664578437805176
-0.5837581157684326,2.8120503425598145,-0.46969133615493774
-0.5655656456947327,2.823090076446533,-0.4741734266281128
-0.5592195391654968,2.898472785949707,-0.4891977310180664
-0.8828057050704956,4.754321575164795,-0.8062625527381897
-0.8440966010093689,4.729236125946045,-0.8058410286903381
-0.7935328483581543,4.63170051574707,-0.7929925918579102
-0.7480363845825195,4.556615352630615,-0.7834213972091675
-0.7066026926040649,4.504097938537598,-0.7774566411972046
-0.6665118932723999,4.451166152954102,-0.7713277339935303
-0.6250909566879272,4.382658004760742,-0.7624426484107971
-0.5871948003768921,4.3329081535339355,-0.7566476464271545
-0.5475350618362427,4.26387882232666,-0.7468380928039551
-0.5111878514289856,4.213625907897949,-0.7402871251106262
-0.47648853063583374,4.174592971801758,-0.735723078250885
-0.44332921504974365,4.139066219329834,-0.7317256927490234
-0.4110269844532013,4.107206344604492,-0.7278718948364258
-0.3830592632293701,4.117276191711426,-0.7312600016593933
-0.275259792804718,3.199784994125366,-0.5695761442184448
-0.25652655959129333,3.2512104511260986,-0.5800694227218628
-0.2344546765089035,3.260324001312256,-0.582918643951416
-0.21272286772727966,3.277043104171753,-0.586699903011322
-0.19168472290039062,3.3089685440063477,-0.5932425260543823
-0.17079928517341614,3.352274179458618,-0.6018728613853455
-0.14706693589687347,3.353205442428589,-0.6029506325721741
-0.13195396959781647,3.5768656730651855,-0.6436939835548401
-0.1161418929696083,3.8811841011047363,-0.6988635063171387
-0.08736369013786316,3.8049323558807373,-0.6855627298355103
-0.060942310839891434,3.8053503036499023,-0.6860995292663574
-0.03441315516829491,3.8440535068511963,-0.6934394240379333
-0.007729643024504185,3.8365375995635986,-0.6919071078300476
0.018764322623610497,3.8057711124420166,-0.6862162351608276
0.04531708359718323,3.813262701034546,-0.6874576807022095
0.07171521335840225,3.8051936626434326,-0.6859268546104431
0.09773068875074387,3.7854959964752197,-0.6818566918373108
0.12451986223459244,3.784860134124756,-0.6810200214385986
0.1548406034708023,3.8839333057403564,-0.698151707649231
0.1829177439212799,3.905958652496338,-0.7014464139938354
0.2100958675146103,3.9047653675079346,-0.7004752159118652
0.24118243157863617,3.9687371253967285,-0.7106208205223083
0.26794618368148804,3.948033094406128,-0.7056004405021667
0.2979851961135864,3.980868339538574,-0.7102004289627075
0.3281799852848053,4.009645462036133,-0.7140903472900391
0.3587636351585388,4.0382819175720215,-0.7174965739250183
0.3886476159095764,4.055243015289307,-0.7186099886894226
0.42126622796058655,4.091075420379639,-0.7230420112609863
0.4480352997779846,4.073155879974365,-0.7180302739143372
0.48172032833099365,4.1162309646606445,-0.7236701250076294
0.5155290365219116,4.155325889587402,-0.7280102968215942
0.5538736581802368,4.224689960479736,-0.7376223206520081
0.5869890451431274,4.244087219238281,-0.7384348511695862
0.6132248044013977,4.2175774574279785,-0.7313414216041565
0.6436997056007385,4.221441745758057,-0.7290928363800049
0.7476957440376282,4.685281753540039,-0.8057553768157959
0.7752050161361694,4.650294303894043,-0.7963480949401855
0.8115730285644531,4.6682634353637695,-0.7960461378097534
0.8528693318367004,4.708642959594727,-0.7993465662002563
0.8905467391014099,4.729951858520508,-0.7988772988319397
0.9233851432800293,4.724490165710449,-0.7939019203186035
0.9609306454658508,4.741436958312988,-0.7926932573318481
0.9853283166885376,4.693939685821533,-0.7807604670524597
1.0169105529785156,4.680229187011719,-0.7739565372467041
1.0460278987884521,4.658923625946045,-0.7658653259277344
1.0750043392181396,4.637405872344971,-0.7577906847000122
1.103873372077942,4.615668773651123,-0.7497263550758362
1.1305323839187622,4.586304187774658,-0.7403138279914856
1.1648701429367065,4.5866780281066895,-0.7352445721626282
0.9624761939048767,3.682983160018921,-0.586351215839386
0.9882200360298157,3.6769518852233887,-0.5813598036766052
1.002640962600708,3.6297762393951416,-0.5699319839477539
1.029930830001831,3.6309926509857178,-0.5657658576965332
1.0533850193023682,3.617058753967285,-0.5591537356376648
1.0830543041229248,3.6252548694610596,-0.5560294985771179
1.1062320470809937,3.6109979152679443,-0.5494557619094849
1.126773715019226,3.589290142059326,-0.5415858626365662
1.154035210609436,3.5896127223968506,-0.5369081497192383
1.1746082305908203,3.567528486251831,-0.5288179516792297
0.7066789865493774,2.097169876098633,-0.30808213353157043
1.219478726387024,3.537801504135132,-0.5149341225624084
1.2465308904647827,3.537458658218384,-0.5098580121994019
1.2618019580841064,3.5041301250457764,-0.5000831484794617
1.2877529859542847,3.499683380126953,-0.49440550804138184
1.3086565732955933,3.4803965091705322,-0.48657748103141785
1.3271417617797852,3.4576916694641113,-0.47814232110977173
1.3538256883621216,3.456537961959839,-0.4727267622947693
1.3722748756408691,3.433450698852539,-0.46426790952682495
1.7052690982818604,4.182007789611816,-0.5589977502822876
1.7287490367889404,4.156669616699219,-0.5487868189811707
1.760393738746643,4.152868747711182,-0.5415327548980713
1.7893706560134888,4.141544818878174,-0.5332208275794983
1.8122507333755493,4.1157050132751465,-0.5230339765548706
1.8374691009521484,4.097075939178467,-0.5136537551879883
1.8692833185195923,4.092279434204102,-0.5058384537696838
1.8912312984466553,4.066127777099609,-0.4954349398612976
1.9232099056243896,4.060758113861084,-0.4875141382217407
1.9478095769882202,4.041452884674072,-0.47780781984329224
1.9634876251220703,4.004638671875,-0.46605417132377625
1.9918845891952515,3.991652250289917,-0.45687052607536316
2.0235178470611572,3.985466957092285,-0.4485263228416443
2.047201633453369,3.9656355381011963,-0.4385424852371216
2.0597236156463623,3.925060749053955,-0.4263320565223694
2.0945370197296143,3.925252914428711,-0.41836628317832947
2.122091293334961,3.9114317893981934,-0.4088466763496399
2.122748374938965,3.8499960899353027,-0.39422863721847534
2.128021478652954,3.7990567684173584,-0.3809893727302551
2.1547412872314453,3.7849323749542236,-0.3712652325630188
2.192523956298828,3.7911252975463867,-0.3634689152240753
2.1903774738311768,3.730212926864624,-0.34928715229034424
2.2205886840820312,3.722317695617676,-0.3397809863090515
2.246814012527466,3.7074644565582275,-0.32961827516555786
2.2675135135650635,3.686586856842041,-0.31890997290611267
2.2923672199249268,3.6720569133758545,-0.30869796872138977
2.3265621662139893,3.669843912124634,-0.29910194873809814
2.343346118927002,3.6414945125579834,-0.28721317648887634
2.3759729862213135,3.6397528648376465,-0.27759990096092224
2.410179376602173,3.636767864227295,-0.2672373056411743
2.4173731803894043,3.595273494720459,-0.25408267974853516
2.43216872215271,3.567192792892456,-0.2419874668121338
2.466500997543335,3.5633435249328613,-0.23064611852169037
2.4857845306396484,3.541146993637085,-0.21828317642211914
2.5044820308685303,3.5191001892089844,-0.20584774017333984
2.574903964996338,3.565377950668335,-0.19641776382923126
2.2198104858398438,3.0328893661499023,-0.15668804943561554
2.175107002258301,2.930652141571045,-0.1407236009836197
2.78222918510437,3.9048595428466797,0.41404178738594055
2.7686805725097656,3.9510443210601807,0.4307788014411926
2.744537353515625,3.975919485092163,0.44411563873291016
2.7103054523468018,3.988532781600952,0.45581212639808655
2.683081865310669,4.014827251434326,0.46892601251602173
2.6497232913970947,4.026284694671631,0.4794892370700836
2.611121416091919,4.031564235687256,0.4892122149467468
2.592085361480713,4.070149898529053,0.5026233792304993
2.5680150985717773,4.097835540771484,0.5143426060676575
2.542999267578125,4.1212687492370605,0.5252158045768738
2.5116968154907227,4.139153003692627,0.5351108312606812
2.469332456588745,4.140684127807617,0.5429456830024719
2.4533884525299072,4.180474758148193,0.5551941990852356
2.427647829055786,4.203227519989014,0.5651749968528748
2.407123565673828,4.240604400634766,0.5767709612846375
2.378598690032959,4.264340877532959,0.5865854024887085
2.2823216915130615,4.161328315734863,0.5785360336303711
2.2491726875305176,4.169410228729248,0.5856168866157532
2.2179715633392334,4.184998035430908,0.5933807492256165
2.1970882415771484,4.221127986907959,0.604063093662262
2.1663360595703125,4.235917568206787,0.6115541458129883
2.139338254928589,4.257217884063721,0.619959831237793
2.1084561347961426,4.271555423736572,0.6270977258682251
2.079833984375,4.293148517608643,0.6350765824317932
2.057650566101074,4.328525066375732,0.6451613306999207
2.023752212524414,4.334949493408203,0.650712788105011
1.9963501691818237,4.355162143707275,0.6583607792854309
1.9781689643859863,4.4006805419921875,0.6696357727050781
1.9969314336776733,4.5311055183410645,0.693792998790741
1.9603835344314575,4.537631511688232,0.6990949511528015
1.9435149431228638,4.585970878601074,0.7106999754905701
1.9141886234283447,4.605712413787842,0.7179467678070068
1.8800753355026245,4.6188154220581055,0.723886251449585
1.8560736179351807,4.6567535400390625,0.733559250831604
1.8245896100997925,4.676570415496826,0.7404433488845825
1.8206737041473389,4.764189720153809,0.7579951882362366
1.758749008178711,4.699984550476074,0.7514281272888184
1.3421458005905151,3.667158365249634,0.5890008211135864
1.3179665803909302,3.6834943294525146,0.5940788388252258
1.279563546180725,3.6595826148986816,0.5926834940910339
1.6392822265625,4.796871185302734,0.78003990650177
1.6068609952926636,4.811105728149414,0.7855086922645569
1.571347713470459,4.8179521560668945,0.7898597121238708
1.546957015991211,4.861583709716797,0.7996692061424255
1.5162479877471924,4.886686325073242,0.8065031170845032
1.4830713272094727,4.904191493988037,0.8121337890625
1.473831057548523,4.998838424682617,0.830537736415863
1.4207366704940796,4.945279598236084,0.8243702054023743
1.387230396270752,4.962092876434326,0.8298062682151794
1.3474317789077759,4.956439018249512,0.8310503363609314
1.293014645576477,4.894555568695068,0.8228708505630493
1.260838270187378,4.91426944732666,0.8284124732017517
1.2395236492156982,4.974720478057861,0.8408386707305908
1.2041171789169312,4.982787132263184,0.8445164561271667
1.1741923093795776,5.013103485107422,0.8517132997512817
1.1408401727676392,5.032133102416992,0.8566914796829224
1.1080464124679565,5.054712772369385,0.8623297214508057
1.0688730478286743,5.046868324279785,0.8628079891204834
1.0407764911651611,5.091543674468994,0.8723114728927612
1.003763198852539,5.090601921081543,0.874022364616394
1.817399263381958,9.56973648071289,1.6462048292160034
1.7451595067977905,9.558906555175781,1.6468091011047363
1.6731650829315186,9.547536849975586,1.647391438484192
1.6003775596618652,9.535792350769043,1.6480209827423096
1.5198572874069214,9.458511352539062,1.6372828483581543
1.4510103464126587,9.449088096618652,1.638340711593628
1.3781867027282715,9.412574768066406,1.6345582008361816
1.307375192642212,9.39101791381836,1.6324764490127563
1.2383109331130981,9.38815975189209,1.6337493658065796
1.177065372467041,9.438145637512207,1.6442800760269165
1.1120741367340088,9.45322036743164,1.6487929821014404
1.0415350198745728,9.418106079101562,1.6446219682693481
0.9695572257041931,9.363332748413086,1.6370759010314941
0.9088842868804932,9.423168182373047,1.6486082077026367
0.3884882628917694,4.354244232177734,0.7622595429420471
0.3543674945831299,4.314520835876465,0.7558026313781738
0.3230340778827667,4.301384449005127,0.7540302276611328
0.2981084883213043,4.3763041496276855,0.7677348852157593
0.34424707293510437,5.630092620849609,0.9884688854217529
0.3038996458053589,5.624555587768555,0.9879885911941528
0.2667587101459503,5.67257022857666,0.9966049194335938
0.22742274403572083,5.681893348693848,0.99847412109375
0.18885855376720428,5.717859268188477,1.0050760507583618
0.15093471109867096,5.792017936706543,1.0184452533721924
0.11066888272762299,5.83131217956543,1.0257467031478882
0.07030221819877625,5.84724235534668,1.02894127368927
0.02948591485619545,5.82454252243042,1.0246784687042236
-0.017106782644987106,8.960100173950195,1.5759620666503906
-0.07769650965929031,8.759771347045898,1.5404726266860962
-0.1388559341430664,8.709049224853516,1.5313719511032104
-0.19832508265972137,8.657922744750977,1.5222795009613037
-0.2549252212047577,8.537176132202148,1.5010206699371338
-0.22541217505931854,6.124696254730225,1.0764466524124146
-0.26622113585472107,6.084710597991943,1.0687618255615234
-0.18252629041671753,3.6005442142486572,0.632067084312439
-0.20746657252311707,3.591583013534546,0.6301612854003906
-0.23416422307491302,3.6170289516448975,0.6343262195587158
-0.564015805721283,7.864093780517578,1.3785581588745117
-0.6134742498397827,7.795005798339844,1.3658080101013184
-0.5670556426048279,6.621555328369141,1.158980131149292
-0.6105926632881165,6.587088584899902,1.1517682075500488
-0.6384419798851013,6.406878471374512,1.119181752204895
-0.6792168021202087,6.368160724639893,1.1113938093185425
-0.7283225655555725,6.405653476715088,1.1169558763504028
-0.770138680934906,6.377810001373291,1.1111762523651123
-0.808580219745636,6.3230133056640625,1.1001938581466675
-0.8458160758018494,6.271965026855469,1.089736819267273
-0.8862425684928894,6.247371673583984,1.0839412212371826
-0.9282088279724121,6.233921527862549,1.0801321268081665
-0.9792770743370056,6.277202606201172,1.0861836671829224
-1.0310685634613037,6.316171646118164,1.0914980173110962
-1.0831387042999268,6.3587236404418945,1.0972144603729248
-1.1319230794906616,6.382081031799316,1.0991544723510742
-1.1874321699142456,6.439148902893066,1.1069176197052002
-1.2400821447372437,6.476858615875244,1.1113733053207397
-1.2934696674346924,6.5102057456970215,1.1150645017623901
-1.3513431549072266,6.5580549240112305,1.1212272644042969
-1.4082120656967163,6.601850509643555,1.1266874074935913
-1.4516348838806152,6.585272789001465,1.1211498975753784
-1.4845646619796753,6.52332878112793,1.1079695224761963
-1.5194275379180908,6.472472190856934,1.096757411956787
-0.6813750267028809,2.813450336456299,0.475602388381958
-0.6953798532485962,2.7865028381347656,0.4699554443359375
-0.7128503322601318,2.774435043334961,0.4668542444705963
-0.7297398447990417,2.762423038482666,0.46347591280937195
-0.7484912872314453,2.7577600479125977,0.46133750677108765
-0.7716690301895142,2.767746925354004,0.4616416394710541
-1.755751609802246,6.133561134338379,1.0200377702713013
-1.7898375988006592,6.092357158660889,1.01022207736969
-1.824546217918396,6.054659843444824,1.0010640621185303
-1.8541512489318848,6.006185531616211,0.9895492792129517
-1.883833408355713,5.957388877868652,0.9779738187789917
-1.913407564163208,5.912341594696045,0.9671617150306702
-1.944730281829834,5.870490550994873,0.9568638205528259
-1.9808127880096436,5.843009948730469,0.9489558935165405
-2.005026340484619,5.782548904418945,0.9356867671012878
-2.0336856842041016,5.740740776062012,0.924952507019043
-2.063901901245117,5.702186107635498,0.9147496223449707
-2.0970969200134277,5.674552917480469,0.9064306020736694
-2.1231343746185303,5.624570846557617,0.894487202167511
-2.1541316509246826,5.5889081954956055,0.8849056363105774
-2.2008321285247803,5.596620082855225,0.8819215893745422
-2.266390562057495,5.650674819946289,0.885822057723999
-2.330583095550537,5.700814247131348,0.889129638671875
-2.3638851642608643,5.67142391204834,0.8799086809158325
-2.3945446014404297,5.634443283081055,0.8695013523101807
-2.430788040161133,5.611574649810791,0.8612620830535889
-2.5173346996307373,5.705803871154785,0.8703250288963318
-2.5190482139587402,5.608797073364258,0.8503133654594421
-4.047301292419434,8.851893424987793,1.3336429595947266
-2.6111772060394287,5.607330322265625,0.8393471240997314
-2.619067430496216,5.5235466957092285,0.8214383721351624
-2.6347029209136963,5.461524486541748,0.8062713742256165
-2.6608948707580566,5.424160003662109,0.7949298620223999
-2.733978271484375,5.479983806610107,0.7971292734146118
-2.728661298751831,5.375507354736328,0.7758453488349915
-4.935291290283203,9.558073043823242,1.3686003684997559
-2.764002561569214,5.268221378326416,0.7478435635566711
-2.79219126701355,5.237054824829102,0.7368385195732117
-2.831820011138916,5.2258501052856445,0.7285613417625427
-1.1751443147659302,2.1330928802490234,0.2945723235607147
-1.1537327766418457,2.0612294673919678,0.2818317711353302
-2.5454540252685547,4.479227066040039,0.6060914993286133
-2.534943103790283,4.392514228820801,0.5879564881324768
-6.040765285491943,10.301459312438965,1.3631575107574463
-1.243565320968628,2.0877139568328857,0.2730375826358795
-1.2531890869140625,2.0734527111053467,0.2678013741970062
-2.929293632507324,4.777101993560791,0.6092078685760498
-2.988077402114868,4.796963691711426,0.6031362414360046
-2.9884278774261475,4.7247314453125,0.5855804085731506
-3.0191214084625244,4.706543445587158,0.5745010375976562
-3.0541083812713623,4.694545269012451,0.5641381144523621
-3.0594193935394287,4.632076740264893,0.5470824241638184
-3.0611557960510254,4.566967964172363,0.5296122431755066
-3.090461492538452,4.5485639572143555,0.5176635384559631
-3.1124167442321777,4.516107559204102,0.5036249160766602
-3.1532273292541504,4.508170127868652,0.4918549060821533
-2.8713223934173584,4.05129337310791,0.4318857192993164
-2.8553085327148438,3.973194122314453,0.41300854086875916
-2.9087331295013428,3.988740921020508,0.40331706404685974
-2.9338226318359375,3.971651792526245,0.3900146782398224
-2.4540939331054688,3.435781240463257,-0.19146621227264404
-2.445467472076416,3.479398727416992,-0.20600993931293488
-2.875271797180176,4.153899669647217,-0.2594200372695923
-2.3154211044311523,3.3971214294433594,-0.22276122868061066
-2.2264764308929443,3.319955348968506,-0.2279573380947113
-2.2524421215057373,3.4096720218658447,-0.24378268420696259
-2.21828031539917,3.412616491317749,-0.25374338030815125
-2.161182165145874,3.379056692123413,-0.260574609041214
-2.128950834274292,3.3802738189697266,-0.2694101631641388
-1.2808880805969238,2.0668394565582275,-0.17001959681510925
-1.2187652587890625,1.9993399381637573,-0.16953065991401672
-2.0961005687713623,3.4940502643585205,-0.3047292232513428
-2.0924315452575684,3.5452449321746826,-0.31754547357559204
-2.0933797359466553,3.6069846153259277,-0.33148446679115295
-1.2123503684997559,2.1232259273529053,-0.19985349476337433
-2.5908203125,4.612105846405029,-0.44418656826019287
-2.5655367374420166,4.64730167388916,-0.4577391445636749
-2.539134979248047,4.678348541259766,-0.4706469774246216
-2.520693302154541,4.722477436065674,-0.48470377922058105
-2.493648052215576,4.753227233886719,-0.4973848760128021
-2.4622960090637207,4.777110576629639,-0.5093491077423096
-2.443394422531128,4.82486629486084,-0.5238578915596008
-2.4162583351135254,4.8546977043151855,-0.5362683534622192
-2.394477605819702,4.898911476135254,-0.5501618385314941
-2.3587164878845215,4.9150071144104,-0.5609771609306335
-2.3355822563171387,4.954920768737793,-0.5742958784103394
-2.3102149963378906,4.991269111633301,-0.5872541069984436
-2.2861390113830566,5.035233974456787,-0.6011594533920288
-2.2496793270111084,5.050384998321533,-0.6115226149559021
-2.0912108421325684,4.783893585205078,-0.5871350765228271
-2.040411949157715,4.758198261260986,-0.591724157333374
-1.987918496131897,4.728749752044678,-0.5955222845077515
-1.9059607982635498,4.627225875854492,-0.5901211500167847
-1.8414218425750732,4.560285568237305,-0.58856600522995
-1.829129934310913,4.622568607330322,-0.6035956740379333
-1.3252124786376953,3.4198362827301025,-0.4515165388584137
-1.3116565942764282,3.4574334621429443,-0.46149659156799316
-0.9145607948303223,2.4631969928741455,-0.3323555290699005
-1.9980956315994263,5.498824596405029,-0.7497352957725525
-0.9534016847610474,2.6828653812408447,-0.36937448382377625
-0.8680865168571472,2.4987640380859375,-0.3473641872406006
-0.8629367351531982,2.5409095287323,-0.3565618693828583
-0.828944981098175,2.4986445903778076,-0.3539627492427826
-0.8111703991889954,2.5039286613464355,-0.3577815890312195
-0.7933121919631958,2.5090994834899902,-0.3615786135196686
-0.7836145758628845,2.539959669113159,-0.3690910339355469
-0.7747126817703247,2.5744733810424805,-0.3772062063217163
-0.763076901435852,2.6016006469726562,-0.3841511309146881
-0.755987823009491,2.6473944187164307,-0.3938746452331543
-0.7455427050590515,2.681929588317871,-0.4019647240638733
-0.7267172932624817,2.6865456104278564,-0.4056006371974945
-0.7156612277030945,2.7209532260894775,-0.4137115180492401
-0.6925519108772278,2.7104647159576416,-0.41478076577186584
-0.6729880571365356,2.7148663997650146,-0.41818490624427795
-0.6575574278831482,2.734027624130249,-0.4238218069076538
-0.6463176608085632,2.7718923091888428,-0.4324209690093994
-0.6284791827201843,2.783430814743042,-0.43665993213653564
-0.6104873418807983,2.794862985610962,-0.44086045026779175
-0.5952893495559692,2.8213303089141846,-0.4475134015083313
-0.5793957114219666,2.843853235244751,-0.4535476565361023
-0.5668827891349792,2.885249614715576,-0.4624945819377899
-0.5494608879089355,2.903895854949951,-0.46761953830718994
-0.5345438718795776,2.9376168251037598,-0.4752312898635864
-0.513705849647522,2.9408867359161377,-0.47798022627830505
-0.49192050099372864,2.9363489151000977,-0.47944098711013794
-0.48175767064094543,3.00406813621521,-0.492343008518219
-0.46071457862854004,3.006985902786255,-0.49466538429260254
-0.4430452287197113,3.0326366424560547,-0.5007615685462952
-0.42149659991264343,3.0353143215179443,-0.5031353235244751
-0.6550492644309998,4.9713454246521,-0.8268468976020813
-0.61927729845047,4.967652320861816,-0.8286236524581909
-0.538179874420166,4.5771660804748535,-0.7657232284545898
-0.49865540862083435,4.511402130126953,-0.7569498419761658
-0.5025498270988464,4.855364799499512,-0.8170937895774841
-0.4673260748386383,4.85075569152832,-0.8180904984474182
-0.4262521266937256,4.772960186004639,-0.8066503405570984
-0.38727235794067383,4.706357002258301,-0.7970858216285706
-0.3518814146518707,4.674017429351807,-0.7933237552642822
-0.3171665370464325,4.645315170288086,-0.7898962497711182
-0.2802085876464844,4.581877708435059,-0.7800935506820679
-0.24904204905033112,4.598884582519531,-0.7839993834495544
-0.2156566083431244,4.569513320922852,-0.7800272107124329
-0.18327412009239197,4.555294513702393,-0.778670072555542
-0.15107573568820953,4.54095458984375,-0.7766880393028259
-0.11854086816310883,4.52642297744751,-0.7745834589004517
-0.08708925545215607,4.5270490646362305,-0.7751020789146423
-0.05601315200328827,4.558255195617676,-0.7808972001075745
-0.02438153699040413,4.566180229187012,-0.7825312614440918
0.00729109812527895,4.527779579162598,-0.7756904363632202
0.03625724837183952,4.173452854156494,-0.7147793769836426
0.06411769986152649,4.099992752075195,-0.7020311951637268
0.09165451675653458,4.057143688201904,-0.6945626139640808
0.12177369743585587,4.121956825256348,-0.70505291223526
0.15367045998573303,4.20966911315918,-0.7192632555961609
0.18057265877723694,4.154799938201904,-0.7091407775878906
0.21560102701187134,4.265109539031982,-0.7272225618362427
0.24661915004253387,4.286752223968506,-0.7300944924354553
0.2682174742221832,4.15839147567749,-0.7068729996681213
0.2982040345668793,4.172068119049072,-0.707866907119751
0.323271781206131,4.120250701904297,-0.6977932453155518
0.3593513071537018,4.19873046875,-0.7097868323326111
0.406986266374588,4.395942211151123,-0.7413949370384216
0.42181476950645447,4.236236095428467,-0.7125574946403503
0.4639156758785248,4.35236120223999,-0.7301644086837769
0.4785056710243225,4.2115960121154785,-0.7047172784805298
0.5268266797065735,4.361535549163818,-0.7278627157211304
0.5570616126060486,4.35828971862793,-0.7247850894927979
0.6542850732803345,4.851431846618652,-0.8040031790733337
0.6901651620864868,4.8626017570495605,-0.8030875325202942
0.7263088226318359,4.87349796295166,-0.8021419048309326
0.7607277035713196,4.868885040283203,-0.7982404828071594
0.7932727932929993,4.856558799743652,-0.7928103804588318
0.8217942714691162,4.821197032928467,-0.7836846113204956
0.8425925374031067,4.74385929107666,-0.7678295373916626
0.8771119117736816,4.746110439300537,-0.7649351358413696
0.9143984913825989,4.763412952423096,-0.7638110518455505
0.942006528377533,4.7273335456848145,-0.7540983557701111
0.9648051857948303,4.672269821166992,-0.7415116429328918
0.9957935810089111,4.658619403839111,-0.7355755567550659
0.8349143266677856,3.777689218521118,-0.5931841135025024
0.8576922416687012,3.7574195861816406,-0.5864946842193604
0.8789218664169312,3.7293896675109863,-0.5785953402519226
0.9104558825492859,3.746344804763794,-0.5777428150177002
0.9309660196304321,3.718079090118408,-0.569926381111145
0.9509370923042297,3.6898093223571777,-0.561747133731842
0.9784823656082153,3.691317319869995,-0.5581439733505249
1.001636266708374,3.6738150119781494,-0.5516042113304138
1.0190068483352661,3.637636423110962,-0.5423855781555176
1.0485745668411255,3.6460635662078857,-0.5396045446395874
1.067258358001709,3.6172068119049072,-0.5311892032623291
1.0923676490783691,3.6104540824890137,-0.5260619521141052
1.120388150215149,3.6107258796691895,-0.5218664407730103
1.1385564804077148,3.581437587738037,-0.5134254097938538
1.1728894710540771,3.6037068367004395,-0.5121273398399353
1.1855590343475342,3.5595548152923584,-0.5014234185218811
1.205512523651123,3.537264823913574,-0.4938249886035919
1.2328851222991943,3.5367932319641113,-0.4893013834953308
1.2512632608413696,3.5105912685394287,-0.4808798134326935
1.2768384218215942,3.5062882900238037,-0.47555601596832275
1.317509412765503,3.541670322418213,-0.47552743554115295
1.328576922416687,3.4968960285186768,-0.46472427248954773
1.6443984508514404,4.240303039550781,-0.557490885257721
1.6683722734451294,4.21524715423584,-0.547988772392273
1.6947306394577026,4.197329521179199,-0.5395249128341675
1.7242367267608643,4.186270713806152,-0.5319021940231323
1.753368854522705,4.175133228302002,-0.5241557359695435
1.7789970636367798,4.156817436218262,-0.5154109001159668
1.8051588535308838,4.1380462646484375,-0.5064964890480042
1.827895998954773,4.112037181854248,-0.49677520990371704
1.8596550226211548,4.1072678565979,-0.4895648956298828
1.8812170028686523,4.081304550170898,-0.47972890734672546
1.9060018062591553,4.062166690826416,-0.4707051217556
1.9317002296447754,4.042379379272461,-0.4613867402076721
1.9546388387680054,4.019330024719238,-0.4517991244792938
1.9820326566696167,4.006838321685791,-0.44332876801490784
2.009608268737793,3.9940199851989746,-0.43477338552474976
2.0377094745635986,3.9807024002075195,-0.42602431774139404
2.054405689239502,3.9467549324035645,-0.41505369544029236
2.074381113052368,3.9196293354034424,-0.40468722581863403
2.105156660079956,3.91294002532959,-0.39645636081695557
2.128941297531128,3.8920962810516357,-0.3866764008998871
2.1157350540161133,3.806939125061035,-0.37059494853019714
2.149059295654297,3.8069841861724854,-0.3629281520843506
2.1606132984161377,3.7654623985290527,-0.35092905163764954
2.1829090118408203,3.7444281578063965,-0.34099912643432617
2.2198984622955322,3.7506401538848877,-0.33348348736763
2.2333784103393555,3.7162206172943115,-0.3222423493862152
2.2514140605926514,3.687912702560425,-0.31133657693862915
2.293139696121216,3.6996686458587646,-0.3036218583583832
2.30116605758667,3.658691644668579,-0.2917269766330719
2.3268775939941406,3.6432015895843506,-0.2814585864543915
2.3686625957489014,3.6541807651519775,-0.2731739580631256
2.3756306171417236,3.613135576248169,-0.2610110342502594
2.3968608379364014,3.5904905796051025,-0.24960677325725555
2.4344217777252197,3.5941717624664307,-0.24007295072078705
2.4446427822113037,3.559580087661743,-0.22798484563827515
2.47385573387146,3.549577236175537,-0.21687373518943787
2.515664577484131,3.5590593814849854,-0.20676705241203308
2.5165212154388428,3.5112264156341553,-0.1930740922689438
2.568680763244629,3.532001495361328,-0.1824948489665985
2.169844627380371,2.9441936016082764,-0.14227472245693207
2.774104118347168,3.9221816062927246,0.3952829837799072
2.7516801357269287,3.9555983543395996,0.4096199870109558
2.722476005554199,3.9744930267333984,0.4216892719268799
2.701533555984497,4.006274223327637,0.4349045157432556
2.6807496547698975,4.042299747467041,0.4482722878456116
2.655189275741577,4.067209720611572,0.45989173650741577
2.5987942218780518,4.042323112487793,0.4654926657676697
2.5798912048339844,4.080845355987549,0.4780389964580536
2.536048650741577,4.079598903656006,0.4859209358692169
2.537489652633667,4.146065711975098,0.5013023614883423
2.4947500228881836,4.143599510192871,0.5082436203956604
2.482682466506958,4.1948933601379395,0.5216604471206665
2.440098762512207,4.191754341125488,0.5280574560165405
2.4137799739837646,4.214814186096191,0.5376163125038147
2.3710527420043945,4.211215972900391,0.5433909893035889
2.3334310054779053,4.217806816101074,0.5503304600715637
2.2562155723571777,4.148477077484131,0.5470407009124756
2.2305684089660645,4.170129776000977,0.5554692149162292
2.2086331844329834,4.202704906463623,0.5652950406074524
2.1877143383026123,4.238852500915527,0.5753732919692993
2.1491899490356445,4.240151405334473,0.5807051658630371
2.1261448860168457,4.268144607543945,0.5894681215286255
2.095916509628296,4.282120227813721,0.5963217616081238
2.0734364986419678,4.317927837371826,0.6059296131134033
2.037879705429077,4.325332164764404,0.6115221977233887
2.0099105834960938,4.346037864685059,0.6188753843307495
1.963243007659912,4.323928356170654,0.6200346946716309
2.0173630714416504,4.528020858764648,0.6536628007888794
1.983831524848938,4.54193639755249,0.6597137451171875
1.9556341171264648,4.570099830627441,0.6679630279541016
1.9320305585861206,4.604468822479248,0.6769567728042603
1.8967560529708862,4.609891891479492,0.6816802620887756
1.8610382080078125,4.615248203277588,0.6862561702728271
1.821494460105896,4.613565921783447,0.6894584894180298
1.8023722171783447,4.665903091430664,0.7008533477783203
1.7881433963775635,4.728521347045898,0.7137478590011597
1.7293888330459595,4.671263694763184,0.7085101008415222
1.3250343799591064,3.657329797744751,0.5573750138282776
1.304804801940918,3.684551477432251,0.5638203024864197
1.2761561870574951,3.689908266067505,0.5670026540756226
1.6193515062332153,4.793367862701416,0.7395764589309692
1.576071858406067,4.774519443511963,0.7395989298820496
1.5604057312011719,4.839893817901611,0.7527204155921936
1.5512768030166626,4.93133544921875,0.76969313621521
1.522889256477356,4.967802047729492,0.7779988050460815
1.4570204019546509,4.878110408782959,0.7665098905563354
1.4418740272521973,4.95442008972168,0.7810690999031067
0.5845853090286255,2.0620319843292236,0.3261484205722809
1.372501254081726,4.972810745239258,0.7891440391540527
1.3077789545059204,4.873821258544922,0.7754946351051331
1.2779285907745361,4.905117034912109,0.7825647592544556
1.2350577116012573,4.8836894035339355,0.7812252044677734
1.2164268493652344,4.955416679382324,0.7947893738746643
1.1925371885299683,5.008297443389893,0.8054060935974121
1.1540495157241821,5.000922203063965,0.806360125541687
1.124435544013977,5.038829326629639,0.8141239881515503
1.0867927074432373,5.03872537612915,0.8157688975334167
1.0523544549942017,5.05344820022583,0.8198559880256653
1.0237845182418823,5.094274520874023,0.8281995058059692
0.9910807609558105,5.115994930267334,0.8334916234016418
1.8181817531585693,9.755781173706055,1.5928436517715454
1.7378679513931274,9.707027435302734,1.587197184562683
1.6791181564331055,9.779274940490723,1.6014201641082764
1.6107758283615112,9.79787826538086,1.6069527864456177
1.530251383781433,9.73202896118164,1.5986543893814087
1.4561771154403687,9.707605361938477,1.5972425937652588
1.3896830081939697,9.724453926086426,1.6026484966278076
1.31294846534729,9.672341346740723,1.5957592725753784
1.2495710849761963,9.719098091125488,1.605117678642273
1.178165316581726,9.70421028137207,1.6043779850006104
1.108441710472107,9.696402549743652,1.6048673391342163
1.0367987155914307,9.67668342590332,1.6034799814224243
0.9678139090538025,9.667837142944336,1.6039321422576904
0.4056191146373749,4.359243392944336,0.7237941026687622
0.36867281794548035,4.288896083831787,0.7125109434127808
0.3397064507007599,4.306613922119141,0.7158879041671753
0.3095245659351349,4.316475868225098,0.7180038690567017
0.2847183644771576,4.399142265319824,0.732263445854187
0.32341551780700684,5.60111665725708,0.9330317974090576
0.2863503396511078,5.641567230224609,0.9403397440910339
0.24892064929008484,5.68955659866333,0.9484524726867676
0.2089223861694336,5.702662467956543,0.9508007168769836
0.16973227262496948,5.727023124694824,0.9550707340240479
0.13075405359268188,5.76651668548584,0.9619125127792358
0.09165824949741364,5.832709789276123,0.9732595682144165
0.05113937705755234,5.833134651184082,0.9736825823783875
0.009854203090071678,5.817966461181641,0.9709452390670776
-0.04676533490419388,8.87717056274414,1.4810994863510132
-0.0744289979338646,6.091170787811279,1.0160562992095947
