X,Y,Z
-0.34088945388793945,2.570411205291748,-0.5394460558891296
-0.3181804418563843,2.53425669670105,-0.5339871048927307
-0.3013704717159271,2.5435233116149902,-0.5378997325897217
-0.280211478471756,2.5147557258605957,-0.5334388017654419
-0.2610747814178467,2.5010294914245605,-0.5321630835533142
-0.24223218858242035,2.4909865856170654,-0.5317064523696899
-0.22079111635684967,2.4465463161468506,-0.52382493019104
-0.20377133786678314,2.447727680206299,-0.5252023339271545
-0.1850031614303589,2.4259395599365234,-0.5216659307479858
-0.16756722331047058,2.419255495071411,-0.5213909149169922
-0.1482672393321991,2.385784149169922,-0.5153692364692688
-0.130792036652565,2.3713066577911377,-0.5130102634429932
-0.11428049206733704,2.371983766555786,-0.5138229727745056
-0.09808019548654556,2.380174398422241,-0.5162904262542725
-0.08048279583454132,2.3501014709472656,-0.5104752779006958
-0.06406701356172562,2.358119249343872,-0.5127050280570984
-0.04738118499517441,2.343181610107422,-0.5096641778945923
-0.03129352629184723,2.3586602210998535,-0.5132642388343811
-0.01464877836406231,2.316775321960449,-0.5044029355049133
0.0014661519089713693,2.332045555114746,-0.5079251527786255
0.017354782670736313,2.2556967735290527,-0.49105504155158997
0.03314905986189842,2.263207197189331,-0.4924757480621338
0.04937834292650223,2.2858712673187256,-0.497215211391449
0.0659416988492012,2.3084187507629395,-0.5019494891166687
0.08281685411930084,2.3309426307678223,-0.50623619556427
0.09903544932603836,2.330476999282837,-0.5054647326469421
0.11572050303220749,2.3337008953094482,-0.5055059790611267
0.1332535445690155,2.355879068374634,-0.5096815228462219
0.15013842284679413,2.362746000289917,-0.5102617740631104
0.1676681637763977,2.3771626949310303,-0.5122409462928772
0.1865869015455246,2.406683921813965,-0.517478346824646
0.2035859376192093,2.405595302581787,-0.5161296725273132
0.21750229597091675,2.3739986419677734,-0.5081627368927002
0.23099341988563538,2.342397451400757,-0.49985471367836
0.2548937499523163,2.41332745552063,-0.5134235620498657
0.27687007188796997,2.457463026046753,-0.5212339758872986
0.2961365878582001,2.4710254669189453,-0.5225194692611694
0.31772008538246155,2.503539800643921,-0.5273252725601196
0.3352010250091553,2.5017738342285156,-0.5248773097991943
0.35906553268432617,2.5453381538391113,-0.5319302082061768
0.38241294026374817,2.5811386108398438,-0.5373206734657288
0.4013199210166931,2.5827407836914062,-0.5352099537849426
0.42670902609825134,2.6258413791656494,-0.5415276288986206
0.4437539279460907,2.6158838272094727,-0.5368918180465698
0.46736663579940796,2.643517255783081,-0.5399724841117859
0.4934605062007904,2.68229341506958,-0.5451152920722961
0.5222660899162292,2.732208251953125,-0.5521028637886047
0.5483967661857605,2.763023853302002,-0.5551037192344666
0.5770134329795837,2.804931879043579,-0.5603174567222595
0.6022471189498901,2.8278439044952393,-0.561660885810852
0.6335597038269043,2.8768694400787354,-0.5676485300064087
0.6596276164054871,2.8994295597076416,-0.5683394074440002
0.6943806409835815,2.955315113067627,-0.5753976702690125
0.7268665432929993,2.999762535095215,-0.5801859498023987
0.7571853399276733,3.0328195095062256,-0.5823134779930115
0.8023285269737244,3.1214444637298584,-0.594840943813324
0.8468072414398193,3.2021982669830322,-0.6056363582611084
0.8868454694747925,3.2601704597473145,-0.6118504405021667
0.9376128911972046,3.354952812194824,-0.6246107816696167
0.97910076379776,3.412321090698242,-0.6299473643302917
1.0236326456069946,3.4766769409179688,-0.6363910436630249
1.0893235206604004,3.606879711151123,-0.6545543670654297
1.1436222791671753,3.6921958923339844,-0.6640187501907349
1.2090511322021484,3.8102383613586426,-0.6787996292114258
1.309545636177063,4.030194282531738,-0.7111672163009644
1.3720102310180664,4.124685764312744,-0.7208279967308044
1.4259148836135864,4.189363956451416,-0.7249929308891296
1.4868427515029907,4.271900653839111,-0.7315546870231628
1.5314220190048218,4.302793502807617,-0.7289323210716248
1.5670517683029175,4.307962417602539,-0.7219460606575012
1.5894402265548706,4.2766337394714355,-0.7088760733604431
1.6165733337402344,4.259800910949707,-0.6979414820671082
1.6379142999649048,4.228391647338867,-0.6846625804901123
1.6667834520339966,4.214550971984863,-0.6740919947624207
1.3711740970611572,3.397770881652832,-0.5368140935897827
1.4037370681762695,3.4108309745788574,-0.5319982767105103
1.4274494647979736,3.4022574424743652,-0.5237380862236023
1.4513448476791382,3.3934109210968018,-0.5153906345367432
1.4726402759552002,3.3770720958709717,-0.505783200263977
1.4961496591567993,3.3679914474487305,-0.49726346135139465
1.5130802392959595,3.3446834087371826,-0.48663803935050964
1.5365359783172607,3.3352243900299072,-0.4779873788356781
1.5601567029953003,3.3254852294921875,-0.4692479074001312
1.5803215503692627,3.3086209297180176,-0.4592868685722351
1.599761724472046,3.2918663024902344,-0.44948288798332214
1.6297751665115356,3.2956478595733643,-0.4423481822013855
1.6461621522903442,3.271345376968384,-0.4313994348049164
2.0329246520996094,3.9727041721343994,-0.5143791437149048
2.0495076179504395,3.9393742084503174,-0.5005753040313721
2.081380844116211,3.9328773021698,-0.48983705043792725
2.0797219276428223,3.8647425174713135,-0.47166627645492554
2.089393377304077,3.821092367172241,-0.45662665367126465
2.1477155685424805,3.8657174110412598,-0.4520515203475952
2.1349759101867676,3.780665397644043,-0.43205228447914124
2.157892942428589,3.760011672973633,-0.4194275736808777
2.1991465091705322,3.773378610610962,-0.41069480776786804
2.2015891075134277,3.719095230102539,-0.3944363594055176
2.2279460430145264,3.7046360969543457,-0.3823234438896179
2.2692759037017822,3.717228889465332,-0.3729042112827301
2.274435043334961,3.669581651687622,-0.3572273254394531
2.3045711517333984,3.661153793334961,-0.34517917037010193
2.3422656059265137,3.6660940647125244,-0.3343198597431183
2.341392993927002,3.612203598022461,-0.31815823912620544
2.36668062210083,3.5968260765075684,-0.30500826239585876
2.4178683757781982,3.620122194290161,-0.2947056293487549
2.4155869483947754,3.5663461685180664,-0.2783486843109131
2.4447875022888184,3.556919574737549,-0.2649577260017395
2.4915261268615723,3.57301664352417,-0.25312721729278564
2.4969303607940674,3.532074451446533,-0.23723970353603363
2.5083539485931396,3.4961977005004883,-0.2207765430212021
2.5685038566589355,3.5306766033172607,-0.20874080061912537
2.2488455772399902,3.04978084564209,-0.1677611619234085
2.7821145057678223,3.9435551166534424,0.5672180652618408
2.764202833175659,3.9775381088256836,0.5848926305770874
2.7321200370788574,3.9973793029785156,0.6001707911491394
2.6967058181762695,4.009793758392334,0.6139096617698669
2.663564920425415,4.0204997062683105,0.6265023350715637
2.6256778240203857,4.029388904571533,0.6383587121963501
2.6044673919677734,4.064024925231934,0.6542201042175293
2.591794013977051,4.106800079345703,0.6706468462944031
2.5731582641601562,4.143815040588379,0.686277449131012
2.516602039337158,4.122137069702148,0.6916821002960205
2.513103723526001,4.185555934906006,0.7111818194389343
2.475193977355957,4.188252925872803,0.7199777364730835
2.4325389862060547,4.184503078460693,0.7274106740951538
2.426391124725342,4.248539447784424,0.7465295791625977
2.3865885734558105,4.251461505889893,0.7547286748886108
2.3525192737579346,4.259827613830566,0.763441801071167
2.2647459506988525,4.16977596282959,0.7542654871940613
2.2093539237976074,4.1409687995910645,0.7554855346679688
2.2147934436798096,4.227959632873535,0.7780357599258423
2.1877827644348145,4.249037742614746,0.7881636619567871
2.1505684852600098,4.24910306930542,0.7943365573883057
2.1346237659454346,4.294292449951172,0.8086652755737305
2.108905553817749,4.322545051574707,0.8196636438369751
2.075798749923706,4.336925029754639,0.8281710743904114
2.0515546798706055,4.363952159881592,0.8387354612350464
2.0141255855560303,4.362887382507324,0.8439425230026245
1.9819272756576538,4.376142978668213,0.8515051603317261
2.0241072177886963,4.558060646057129,0.891933023929596
2.0022997856140137,4.599732398986816,0.9051838517189026
1.9435235261917114,4.55245304107666,0.9007580876350403
1.9395010471343994,4.631974220275879,0.9213908910751343
1.8970869779586792,4.623199939727783,0.9241901636123657
1.874282956123352,4.664259910583496,0.9366899132728577
1.8425384759902954,4.683772563934326,0.9449465870857239
3.299541473388672,8.567597389221191,1.7363642454147339
3.2160439491271973,8.527200698852539,1.7358050346374512
1.748543381690979,4.736141681671143,0.968288004398346
1.342603087425232,3.7194573879241943,0.7632505297660828
1.3025188446044922,3.6920900344848633,0.7604615688323975
1.2725971937179565,3.6934404373168945,0.7636274695396423
1.6221392154693604,4.816529273986816,0.9994361996650696
1.5930534601211548,4.841175079345703,1.0082050561904907
1.567845106124878,4.88045072555542,1.019813060760498
1.5563009977340698,4.967421531677246,1.0410667657852173
1.5172629356384277,4.970358848571777,1.0448576211929321
1.4770861864089966,4.965381145477295,1.0469391345977783
1.4379546642303467,4.959853172302246,1.0488598346710205
1.4093198776245117,4.990868091583252,1.0585697889328003
1.3737907409667969,4.9997639656066895,1.0632853507995605
1.3110026121139526,4.908822059631348,1.046372890472412
1.2787270545959473,4.932209014892578,1.053889274597168
1.2498990297317505,4.9662957191467285,1.0637036561965942
1.2187448740005493,4.988884449005127,1.0710710287094116
1.190860629081726,5.026152610778809,1.081665277481079
1.1570229530334473,5.041037559509277,1.0872504711151123
1.1235498189926147,5.063492774963379,1.094056248664856
1.0928399562835693,5.096808910369873,1.1032484769821167
1.056288719177246,5.10374116897583,1.1067965030670166
1.023659348487854,5.125220775604248,1.1135056018829346
0.993669867515564,5.1614909172058105,1.1235005855560303
1.5050212144851685,8.12704086303711,1.772413969039917
1.448545217514038,8.144108772277832,1.7783918380737305
1.3893338441848755,8.145723342895508,1.7810850143432617
1.3222668170928955,8.097908020019531,1.773037075996399
1.2582653760910034,8.060802459716797,1.7673685550689697
0.32934626936912537,2.212538003921509,0.485812783241272
1.1512205600738525,8.121190071105957,1.7858102321624756
0.5737935304641724,4.262726783752441,0.9383783340454102
0.5479966998100281,4.3003950119018555,0.9474762678146362
0.5148118138313293,4.28108024597168,0.9440702795982361
0.2495901733636856,2.20658016204834,0.4870583713054657
0.4522094428539276,4.268258094787598,0.9430724382400513
0.42324015498161316,4.2785491943359375,0.9463165402412415
0.39519137144088745,4.3000407218933105,0.9520778656005859
0.3675400912761688,4.3329081535339355,0.9597612023353577
0.33648940920829773,4.327567100524902,0.9590305685997009
0.3020237982273102,4.280189037322998,0.9490345120429993
0.27378249168395996,4.308631896972656,0.9558828473091125
0.2427755743265152,4.2911834716796875,0.9525935649871826
0.2831992506980896,5.70944881439209,1.2682682275772095
0.2446163296699524,5.737741470336914,1.2751352787017822
0.20438523590564728,5.754487037658691,1.2789337635040283
0.16569232940673828,5.809048175811768,1.291200041770935
0.12590491771697998,5.844283580780029,1.2992355823516846
0.08564731478691101,5.875429153442383,1.3064273595809937
0.04467173293232918,5.868165493011475,1.305143117904663
0.0031772225629538298,5.978819370269775,1.3301624059677124
-0.038502734154462814,5.986358642578125,1.3316969871520996
-0.08021607249975204,5.993672847747803,1.3329408168792725
-0.12264630198478699,6.02738094329834,1.340116024017334
-0.16523747146129608,6.049353122711182,1.3447442054748535
-0.20806936919689178,6.071025848388672,1.3493694067001343
-0.2506643533706665,6.061887741088867,1.3472094535827637
-0.17336060106754303,3.588066816329956,0.7973850965499878
-0.19771967828273773,3.5793380737304688,0.7949292063713074
-0.22436773777008057,3.6085126399993896,0.8008934855461121
-0.43184730410575867,6.247657775878906,1.38581383228302
-0.47991684079170227,6.298017501831055,1.3962042331695557
-0.5231383442878723,6.287231922149658,1.3931105136871338
-0.5702720880508423,6.321744918823242,1.400119662284851
-0.6181814670562744,6.359761714935303,1.4077390432357788
-0.6702660322189331,6.435558319091797,1.4230082035064697
-0.7162368297576904,6.438818454742432,1.4222590923309326
-0.758779764175415,6.419101238250732,1.416530966758728
-0.7980614304542542,6.372562408447266,1.404954433441162
-0.8363799452781677,6.321980953216553,1.3925673961639404
-0.8767402172088623,6.2900590896606445,1.38437020778656
-0.9197317361831665,6.276846885681152,1.379777431488037
-0.9691175818443298,6.31261682510376,1.385622262954712
-1.0184316635131836,6.344240665435791,1.3905972242355347
-1.072713851928711,6.401839733123779,1.4012969732284546
-1.1271828413009644,6.451374530792236,1.4102344512939453
-1.1803432703018188,6.48919677734375,1.416650652885437
-1.2355304956436157,6.53022575378418,1.4237711429595947
-1.28751802444458,6.560064315795898,1.4275472164154053
-1.3452999591827393,6.6157121658325195,1.436964988708496
-1.4015413522720337,6.659671306610107,1.443864345550537
-1.4458914995193481,6.643343448638916,1.4377175569534302
-1.4828755855560303,6.589183330535889,1.423407793045044
-1.5192986726760864,6.538696765899658,1.4100353717803955
-0.6734310388565063,2.8109652996063232,0.6049060821533203
-0.6879462599754333,2.788257598876953,0.5986002087593079
-0.7031550407409668,2.7691750526428223,0.593114972114563
-0.724297821521759,2.772129774093628,0.5923550724983215
-0.743680477142334,2.767498731613159,0.5899884104728699
-0.7722018361091614,2.7959272861480713,0.5946822166442871
-1.7492992877960205,6.167486190795898,1.3086280822753906
-1.786885380744934,6.1420488357543945,1.2994199991226196
-1.8172550201416016,6.090501308441162,1.2847180366516113
-1.8496507406234741,6.049986362457275,1.272510290145874
-1.8804980516433716,6.001643657684326,1.2586491107940674
-1.9166754484176636,5.9713664054870605,1.2486664056777954
-1.944068193435669,5.915424346923828,1.2333271503448486
-1.971368670463562,5.863369941711426,1.2180665731430054
-2.003556728363037,5.82954216003418,1.206773281097412
-1.3290040493011475,3.784085750579834,0.7805948257446289
-1.3580142259597778,3.7828593254089355,0.7775362730026245
-1.3845829963684082,3.774156332015991,0.7729575037956238
-1.4189956188201904,3.786900520324707,0.7727017402648926
-1.4490571022033691,3.788877248764038,0.7697466611862183
-1.480194091796875,3.7943387031555176,0.7675661444664001
-1.4987324476242065,3.7674317359924316,0.7588708400726318
-1.4935222864151,3.6795332431793213,0.737870454788208
-1.5003340244293213,3.6238059997558594,0.7234739661216736
-1.5197819471359253,3.6000938415527344,0.7152512669563293
-1.5409501791000366,3.583810567855835,0.7083495855331421
-1.5589145421981812,3.560338258743286,0.7000756859779358
-1.5818930864334106,3.5470802783966064,0.6937749981880188
-1.6085071563720703,3.540438175201416,0.6887165307998657
-1.6338701248168945,3.5299437046051025,0.6828570365905762
-1.680482268333435,3.568821430206299,0.6861185431480408
-4.1669840812683105,8.700493812561035,1.6623477935791016
-4.25797176361084,8.740708351135254,1.659521222114563
-2.718458890914917,5.483395099639893,1.034213662147522
-4.4415507316589355,8.802023887634277,1.6489112377166748
-4.528897762298584,8.829950332641602,1.6420629024505615
-4.6180925369262695,8.860809326171875,1.6355159282684326
-4.719388008117676,8.91100788116455,1.6322821378707886
-1.1595431566238403,2.1530845165252686,0.3912137448787689
-1.1878212690353394,2.1692824363708496,0.39094752073287964
-2.5232040882110596,4.536586284637451,0.8101586103439331
-5.167391777038574,9.150543212890625,1.6193591356277466
-2.522881507873535,4.398439407348633,0.7710258960723877
-5.322360038757324,9.131454467773438,1.5848277807235718
-1.2538398504257202,2.1182639598846436,0.36385002732276917
-2.918379306793213,4.8575439453125,0.8251354098320007
-2.924483060836792,4.797137260437012,0.8058341145515442
-2.9973063468933105,4.840792179107666,0.8033601641654968
-3.014880657196045,4.795499801635742,0.7859901189804077
-3.0379390716552734,4.764736175537109,0.7706173062324524
-3.0338828563690186,4.691281318664551,0.7483547925949097
-3.035633087158203,4.623069763183594,0.7263864278793335
-3.072369337081909,4.610281467437744,0.7131257653236389
-3.059070348739624,4.528077602386475,0.6889144778251648
-3.0980961322784424,4.522484302520752,0.6762398481369019
-3.168616771697998,4.556276798248291,0.6682516932487488
-2.8479533195495605,4.039564609527588,0.5807329416275024
-2.8693668842315674,4.016878128051758,0.5655955672264099
-2.911515474319458,4.017437934875488,0.5524568557739258
-2.929713010787964,3.987109422683716,0.5347101092338562
-2.9458131790161133,3.958000421524048,0.5170289874076843
-2.4617409706115723,3.4753451347351074,-0.23950551450252533
-2.4444282054901123,3.5054328441619873,-0.2565365135669708
-2.8716955184936523,4.180464744567871,-0.32268112897872925
-2.223576545715332,3.2906503677368164,-0.2673160135746002
-1.3101887702941895,1.969133734703064,-0.1673441380262375
-2.818084239959717,4.301171779632568,-0.3810971975326538
-2.7854154109954834,4.320842742919922,-0.39836546778678894
-2.1573216915130615,3.399172782897949,-0.32498106360435486
-1.3218485116958618,2.1162188053131104,-0.20947697758674622
-1.2712796926498413,2.0689303874969482,-0.211618110537529
-2.685546636581421,4.440990447998047,-0.4683105945587158
-2.6716721057891846,4.488469123840332,-0.48714888095855713
-2.642075300216675,4.513241291046143,-0.5036109685897827
-2.612121343612671,4.537833213806152,-0.520167350769043
-1.198892593383789,2.1166818141937256,-0.2487337440252304
-2.572735548019409,4.619100570678711,-0.5559812784194946
-2.5476930141448975,4.65325927734375,-0.5732942223548889
-2.5216872692108154,4.683218479156494,-0.5897271037101746
-2.501988172531128,4.727032661437988,-0.608181893825531
-1.75636625289917,3.376836061477661,-0.44341546297073364
-1.7175343036651611,3.3605709075927734,-0.4500860273838043
-1.690086841583252,3.3644299507141113,-0.4591616094112396
-1.665706753730774,3.375197172164917,-0.46912339329719543
-1.6827317476272583,3.473292112350464,-0.4915448725223541
-1.0734899044036865,2.2561404705047607,-0.32478824257850647
-1.032849907875061,2.21016001701355,-0.3234610855579376
-1.0103915929794312,2.202587127685547,-0.3275246024131775
-1.0086462497711182,2.2407217025756836,-0.3384135663509369
-0.9925796985626221,2.2469608783721924,-0.34449630975723267
-0.9824456572532654,2.267328977584839,-0.35285115242004395
-0.9660398364067078,2.273435354232788,-0.3588072657585144
-0.9554774761199951,2.2937045097351074,-0.36703363060951233
-0.9420095086097717,2.306668758392334,-0.37407755851745605
-0.9256288409233093,2.3123347759246826,-0.37994229793548584
-0.9199485778808594,2.346839189529419,-0.3905450105667114
-0.9099226593971252,2.3704569339752197,-0.39935043454170227
-0.8957356810569763,2.3831253051757812,-0.40632447600364685
-0.8814617395401001,2.395677328109741,-0.41331374645233154
-0.86687171459198,2.4082250595092773,-0.42014843225479126
-0.8671578168869019,2.46439266204834,-0.4347742795944214
-0.9210478067398071,2.6771128177642822,-0.47740650177001953
-0.9450343251228333,2.8102176189422607,-0.5064815282821655
-0.9429875016212463,2.8706326484680176,-0.5225813984870911
-0.9295219779014587,2.89815092086792,-0.532771646976471
-0.9188934564590454,2.9366722106933594,-0.5451756715774536
-0.8880283832550049,2.9088363647460938,-0.5451697707176208
-0.7982850074768066,2.681868076324463,-0.5071876049041748
-0.7749121785163879,2.6717092990875244,-0.5096778273582458
-0.751800537109375,2.6613383293151855,-0.5120858550071716
-0.7370955944061279,2.680375814437866,-0.520159900188446
-0.7098833918571472,2.654935598373413,-0.5195126533508301
-0.7026833295822144,2.7035109996795654,-0.5330835580825806
-0.7333266735076904,2.904555320739746,-0.5771095752716064
-0.7183523178100586,2.930953025817871,-0.5867757201194763
-0.6888673305511475,2.89760684967041,-0.5843875408172607
-0.6534622311592102,2.8380227088928223,-0.5762729644775391
-0.6242785453796387,2.8004934787750244,-0.572457492351532
-0.5916808247566223,2.743988275527954,-0.5646419525146484
-0.5591455698013306,2.683448314666748,-0.5558515191078186
-0.5327267646789551,2.6489903926849365,-0.5518897771835327
-0.5014111995697021,2.5880696773529053,-0.5423555970191956
-0.47904813289642334,2.5681865215301514,-0.5412837862968445
-0.45361247658729553,2.5293076038360596,-0.5361574292182922
-0.4333004653453827,2.516662359237671,-0.5361891984939575
-0.4106779992580414,2.48880934715271,-0.5328230857849121
-0.38283252716064453,2.4268412590026855,-0.522122323513031
-0.362412691116333,2.4061577320098877,-0.5201975107192993
-0.3439503610134125,2.396704912185669,-0.5204470157623291
-0.32201170921325684,2.3606903553009033,-0.5146410465240479
-0.3025694489479065,2.339643955230713,-0.5120693445205688
-0.28528928756713867,2.3336033821105957,-0.5127807855606079
-0.2647634446620941,2.300950527191162,-0.5075549483299255
-0.24132825434207916,2.2340633869171143,-0.49428361654281616
-0.22458812594413757,2.2239129543304443,-0.4935363233089447
-0.20837455987930298,2.2174367904663086,-0.49361398816108704
-0.19158494472503662,2.2032482624053955,-0.49198460578918457
-0.17597335577011108,2.2042596340179443,-0.4932846128940582
-0.1578507125377655,2.167130947113037,-0.4860115349292755
-0.14277435839176178,2.167900323867798,-0.4872419238090515
-0.12724685668945312,2.1609549522399902,-0.48675820231437683
-0.11222366988658905,2.161588430404663,-0.48763957619667053
-0.09607396274805069,2.14312744140625,-0.48408427834510803
-0.08146858960390091,2.1511945724487305,-0.486530601978302
-0.06628478318452835,2.143928050994873,-0.48553237318992615
-0.05157461389899254,2.1518406867980957,-0.48775896430015564
-0.03650255873799324,2.144479990005493,-0.48624756932258606
-0.021417340263724327,2.1522531509399414,-0.4881947636604309
-0.006395967211574316,2.137063503265381,-0.4849533438682556
0.008443714119493961,2.1294105052948,-0.4833434224128723
0.02342912368476391,2.1446032524108887,-0.4865100085735321
0.03849014267325401,2.1520724296569824,-0.4879451394081116
0.05390794202685356,2.1708619594573975,-0.49196815490722656
0.06864971667528152,2.1514551639556885,-0.4873547852039337
0.08405544608831406,2.162522315979004,-0.48916566371917725
0.09944433718919754,2.1696813106536865,-0.4900764226913452
0.11574061214923859,2.19195294380188,-0.49441489577293396
0.13009358942508698,2.1760616302490234,-0.49016594886779785
0.14551116526126862,2.175349473953247,-0.48899170756340027
0.16066977381706238,2.1745781898498535,-0.4876745343208313
0.17703793942928314,2.1889021396636963,-0.4897596836090088
0.19227798283100128,2.1879124641418457,-0.488434374332428
0.2067822962999344,2.1792690753936768,-0.4852132797241211
0.22223350405693054,2.1781575679779053,-0.483370840549469
0.2382308393716812,2.184542417526245,-0.4832388460636139
0.2551914155483246,2.1983935832977295,-0.48476746678352356
0.2667781412601471,2.166677951812744,-0.4762011766433716
0.2932244539260864,2.2523257732391357,-0.4929911494255066
0.3133620321750641,2.2809736728668213,-0.4971885085105896
0.3325701057910919,2.3019282817840576,-0.4997185468673706
0.3560757637023926,2.3491721153259277,-0.5079191327095032
0.37968456745147705,2.3925364017486572,-0.5147541761398315
0.3995406925678253,2.4093196392059326,-0.5157800316810608
0.4118299186229706,2.380744218826294,-0.5071285963058472
0.4348742663860321,2.4122707843780518,-0.5112535953521729
0.46796244382858276,2.4963443279266357,-0.5261320471763611
0.48983892798423767,2.5163004398345947,-0.5272194147109985
0.5165423154830933,2.5585923194885254,-0.5329325795173645
0.5399618148803711,2.581914186477661,-0.5346295237541199
0.5681068301200867,2.6237387657165527,-0.5398469567298889
0.5973593592643738,2.6691715717315674,-0.5454857349395752
0.6246862411499023,2.703145980834961,-0.5486902594566345
0.657023549079895,2.7555160522460938,-0.5555150508880615
0.6855418086051941,2.788989305496216,-0.5583598017692566
0.7233505845069885,2.855694055557251,-0.5672518014907837
0.7520945072174072,2.8849880695343018,-0.5686584115028381
0.7862962484359741,2.9325594902038574,-0.5735560059547424
0.8283650875091553,3.0057246685028076,-0.5832850337028503
0.8609278798103333,3.041635036468506,-0.5852175951004028
0.9072819352149963,3.1214468479156494,-0.5952885150909424
0.963292121887207,3.230344295501709,-0.6106735467910767
1.0119309425354004,3.3092477321624756,-0.6200760006904602
1.0616151094436646,3.3877620697021484,-0.6288454532623291
1.119430661201477,3.4878153800964355,-0.6411867737770081
1.1840596199035645,3.6017627716064453,-0.6555663347244263
1.2487866878509521,3.7114882469177246,-0.6688684225082397
1.323756456375122,3.846128225326538,-0.685997724533081
1.4069724082946777,3.998230457305908,-0.7054914832115173
1.4702602624893188,4.087777137756348,-0.7134727239608765
1.5444241762161255,4.201944828033447,-0.7252964973449707
1.603002905845642,4.268311977386475,-0.7282266020774841
1.627326488494873,4.244313716888428,-0.7155325412750244
1.657071590423584,4.234509468078613,-0.7052780985832214
1.6870256662368774,4.224381923675537,-0.6949247717857361
1.694923996925354,4.16042423248291,-0.6757706999778748
1.4056156873703003,3.3828232288360596,-0.5421122312545776
1.4262070655822754,3.3671700954437256,-0.5323843359947205
1.459261417388916,3.379636526107788,-0.5269870758056641
1.4862390756607056,3.37768292427063,-0.5192488431930542
1.5065594911575317,3.361562967300415,-0.5091918110847473
1.5239473581314087,3.338078498840332,-0.49794813990592957
1.5476443767547607,3.3285107612609863,-0.48882293701171875
1.5677845478057861,3.311838388442993,-0.47865694761276245
1.590733528137207,3.302204132080078,-0.4694152772426605
1.6136810779571533,3.292360305786133,-0.4601433575153351
1.630529761314392,3.268062114715576,-0.44859981536865234
1.6569541692733765,3.264735221862793,-0.44007033109664917
1.6669915914535522,3.230365514755249,-0.427342027425766
2.0591323375701904,3.9243710041046143,-0.5091649293899536
2.083332061767578,3.9043102264404297,-0.4963963031768799
2.114175796508789,3.8980343341827393,-0.4853372573852539
2.1151199340820312,3.837038993835449,-0.46737271547317505
2.124939203262329,3.7930331230163574,-0.45165592432022095
2.1557416915893555,3.7859933376312256,-0.4402863681316376
2.173814535140991,3.7590925693511963,-0.42658838629722595
2.1955652236938477,3.738778829574585,-0.4136832356452942
2.2305195331573486,3.7375667095184326,-0.4022904336452484
2.2403485774993896,3.696676731109619,-0.3868638277053833
2.26126766204834,3.676076889038086,-0.3736618459224701
2.307462692260742,3.6945297718048096,-0.3640390634536743
2.31687068939209,3.6530873775482178,-0.3482896685600281
2.329148769378662,3.618760347366333,-0.33316871523857117
2.383667469024658,3.6496074199676514,-0.3239680826663971
2.379375696182251,3.588343620300293,-0.30614352226257324
2.4077420234680176,3.5799167156219482,-0.2929881513118744
2.4494311809539795,3.59045672416687,-0.28109046816825867
2.453098773956299,3.5417697429656982,-0.26369696855545044
2.4855575561523438,3.53920316696167,-0.25008052587509155
2.527472734451294,3.5488038063049316,-0.23684661090373993
2.538703680038452,3.5129594802856445,-0.21986620128154755
2.570657253265381,3.509958267211914,-0.20499731600284576
2.180389881134033,2.93556809425354,-0.15837879478931427
2.7937979698181152,3.932126998901367,0.5887226462364197
2.7718563079833984,3.9594359397888184,0.6059979796409607
2.7363131046295166,3.972249746322632,0.6207472085952759
2.7044570446014404,3.9915616512298584,0.6362776756286621
2.6841790676116943,4.021607398986816,0.652370035648346
2.6580185890197754,4.045933723449707,0.6673675775527954
2.621112585067749,4.058399200439453,0.6803624033927917
2.607374906539917,4.101744651794434,0.6977996230125427
2.577787160873413,4.118246078491211,0.7104185819625854
2.5417754650115967,4.1293535232543945,0.7216584086418152
2.5293664932250977,4.180002212524414,0.739851713180542
2.486556053161621,4.176590442657471,0.7480289936065674
2.4721662998199463,4.218907833099365,0.7641841769218445
2.431980848312378,4.222388744354248,0.7728190422058105
2.416411876678467,4.269219875335693,0.7894249558448792
2.3889541625976562,4.2915263175964355,0.8011683225631714
2.2688939571380615,4.144540309906006,0.78104168176651
2.259829044342041,4.2002363204956055,0.7984238266944885
2.1989638805389404,4.161026954650879,0.7975685000419617
2.19962477684021,4.237120151519775,0.8187655806541443
2.1694235801696777,4.250927448272705,0.8277273774147034
2.147143840789795,4.281977653503418,0.8402071595191956
2.1249144077301025,4.317103385925293,0.8528621196746826
2.0888895988464355,4.324409484863281,0.8600878119468689
2.0604381561279297,4.344887733459473,0.8698075413703918
2.039269208908081,4.378688812255859,0.8821002244949341
2.0016283988952637,4.377506732940674,0.8873310089111328
1.9777106046676636,4.412057399749756,0.8993488550186157
2.003399610519409,4.558711051940918,0.9343540668487549
1.9729944467544556,4.578729629516602,0.9435142874717712
1.949470043182373,4.612258434295654,0.9553729295730591
1.9358460903167725,4.6704630851745605,0.972463071346283
3.397596836090088,8.371801376342773,1.7512257099151611
1.8602447509765625,4.681624412536621,0.9836884140968323
1.8366416692733765,4.722381591796875,0.9966945648193359
1.8141958713531494,4.762454509735107,1.009450912475586
1.780562400817871,4.773705005645752,1.016174077987671
1.3348582983016968,3.6590301990509033,0.7820789217948914
1.3234026432037354,3.711005210876465,0.7960379123687744
1.281022548675537,3.6762232780456543,0.791429340839386
1.6516177654266357,4.8509297370910645,1.0480670928955078
1.6271207332611084,4.890194892883301,1.0602635145187378
1.5991727113723755,4.922232627868652,1.0710514783859253
1.5498062372207642,4.888670921325684,1.0670448541641235
1.5141764879226685,4.898677349090576,1.072298288345337
1.5038390159606934,4.9926042556762695,1.0960322618484497
1.4745697975158691,5.024077892303467,1.1061233282089233
1.4393271207809448,5.033149242401123,1.1112892627716064
1.4074764251708984,5.056850433349609,1.1198089122772217
1.342373251914978,4.9588141441345215,1.1007848978042603
1.3026832342147827,4.95262336730957,1.1018736362457275
1.2640966176986694,4.9498209953308105,1.1037606000900269
1.237074613571167,4.991088390350342,1.1155117750167847
1.206796407699585,5.021082878112793,1.1248325109481812
1.1785531044006348,5.058180809020996,1.1357790231704712
1.140985131263733,5.058075428009033,1.1380670070648193
1.1087620258331299,5.083957672119141,1.1458357572555542
1.0738097429275513,5.098442554473877,1.1511077880859375
1.0412794351577759,5.127715587615967,1.1598166227340698
1.0025084018707275,5.119100570678711,1.1599349975585938
1.4939162731170654,7.92005729675293,1.7978801727294922
1.437016487121582,7.921628952026367,1.8014665842056274
1.378655195236206,7.919425964355469,1.8031330108642578
0.69227534532547,4.153952121734619,0.9469955563545227
0.6699053049087524,4.203424453735352,0.9595170617103577
0.641524612903595,4.215053558349609,0.9634472131729126
0.606643795967102,4.181220054626465,0.9570150375366211
0.5785146951675415,4.192396640777588,0.960922360420227
0.5495215058326721,4.203557014465332,0.964493989944458
0.5197839736938477,4.206979751586914,0.9660542607307434
0.49618926644325256,4.263149738311768,0.9797856211662292
0.4689813256263733,4.2926812171936035,0.9874581098556519
0.43641358613967896,4.26896333694458,0.9829161167144775
0.40450969338417053,4.248799800872803,0.9792308211326599
0.37241464853286743,4.228440284729004,0.9755547046661377
0.17767727375030518,2.1931543350219727,0.5061838626861572
0.3135785460472107,4.240428924560547,0.9791075587272644
0.2858612537384033,4.272701740264893,0.9870189428329468
0.25075405836105347,4.1870012283325195,0.9677174687385559
0.22108741104602814,4.188467025756836,0.9686068296432495
0.19247741997241974,4.201106548309326,0.9721190333366394
0.1606672704219818,4.137533187866211,0.9578646421432495
0.1849394142627716,5.808353900909424,1.34468674659729
0.1453210711479187,5.847471714019775,1.3538254499435425
0.1035904809832573,5.840669631958008,1.3524024486541748
0.06327009946107864,5.871614456176758,1.3597837686538696
0.0225063506513834,5.879446506500244,1.3618791103363037
-0.018539953976869583,5.921243190765381,1.3719110488891602
-0.06019536778330803,5.974270820617676,1.3841445446014404
-0.10328975319862366,6.023294925689697,1.3950221538543701
-0.1460169106721878,6.060609817504883,1.4032583236694336
-0.18815796077251434,6.059582233428955,1.4026811122894287
-0.23238806426525116,6.11530876159668,1.4153072834014893
-0.27593502402305603,6.1364922523498535,1.4200031757354736
-0.18752987682819366,3.6108007431030273,0.8354691863059998
-0.210496187210083,3.5677690505981445,0.8250517845153809
-0.4109819531440735,6.232709884643555,1.440321922302246
-0.4560222029685974,6.256649017333984,1.4449174404144287
-0.5029280185699463,6.299239158630371,1.4538789987564087
-0.5579138994216919,6.424905300140381,1.4820573329925537
-0.6150842905044556,6.546262741088867,1.5092697143554688
-0.6487346291542053,6.424769401550293,1.4805760383605957
-0.6986581683158875,6.473735809326172,1.490250825881958
-0.7388432621955872,6.4315338134765625,1.4789793491363525
-0.7793274521827698,6.396648406982422,1.4694790840148926
-0.8208898305892944,6.365163326263428,1.4608097076416016
-0.8559579253196716,6.2919416427612305,1.4426673650741577
-0.8986819386482239,6.278866767883301,1.4384021759033203
-0.947874128818512,6.31079626083374,1.4442389011383057
-0.9982393980026245,6.3501129150390625,1.451076626777649
-1.0493748188018799,6.385165214538574,1.4569411277770996
-1.1021709442138672,6.43121337890625,1.4653916358947754
-1.1567622423171997,6.480526924133301,1.4746013879776
-1.2095298767089844,6.514372825622559,1.4803225994110107
-1.2635465860366821,6.551548004150391,1.4868465662002563
-1.3197839260101318,6.5997700691223145,1.4952455759048462
-1.3779473304748535,6.651277542114258,1.504011631011963
-1.4273444414138794,6.661424160003662,1.5035089254379272
-1.4638978242874146,6.611581325531006,1.4895366430282593
-1.4981669187545776,6.550195217132568,1.4730205535888672
-1.5359596014022827,6.507221698760986,1.4607559442520142
-0.6790100932121277,2.7888009548187256,0.6248531341552734
-0.6952208280563354,2.7735414505004883,0.6199449896812439
-0.7140846252441406,2.7692840099334717,0.6175330281257629
-0.7348791360855103,2.7722787857055664,0.6167631149291992
-0.7572075128555298,2.778693199157715,0.6167392134666443
-1.7405132055282593,6.21343469619751,1.375832438468933
-1.7756386995315552,6.172927379608154,1.3637326955795288
-1.8048349618911743,6.118044376373291,1.347737431526184
-1.8409007787704468,6.088731288909912,1.337325096130371
-1.8664050102233887,6.02634334564209,1.3197609186172485
-1.899544596672058,5.985320568084717,1.3068525791168213
-1.9284602403640747,5.933252811431885,1.2916598320007324
-1.9652552604675293,5.906444072723389,1.2820587158203125
-1.995810866355896,5.865368366241455,1.2688329219818115
-1.3200880289077759,3.7961318492889404,0.818270206451416
-1.3432228565216064,3.78088116645813,0.8120827674865723
-1.3670601844787598,3.765207052230835,0.8057579398155212
-1.3961478471755981,3.7637155055999756,0.8024992346763611
-1.4252411127090454,3.762012481689453,0.7992280721664429
-1.4604769945144653,3.778341770172119,0.7993796467781067
-1.4943552017211914,3.790925979614258,0.7985866665840149
-1.5102863311767578,3.756833791732788,0.7879458665847778
-1.4999607801437378,3.658684015274048,0.7639678716659546
-1.5109634399414062,3.6137354373931885,0.751194179058075
-1.5424277782440186,3.6182284355163574,0.7487360835075378
-1.557590126991272,3.587831497192383,0.7385866045951843
-1.5821607112884521,3.5782718658447266,0.7327136397361755
-1.6031471490859985,3.5616800785064697,0.7255008220672607
-1.6251791715621948,3.544464111328125,0.7180201411247253
-1.663268804550171,3.561933994293213,0.7175840735435486
-4.055073261260986,8.533799171447754,1.708988904953003
-2.677490472793579,5.538844585418701,1.102152705192566
-4.185640335083008,8.515377044677734,1.683781623840332
-4.27287483215332,8.544046401977539,1.6782869100570679
-4.3789215087890625,8.605876922607422,1.6790575981140137
-4.459605693817139,8.619732856750488,1.6698665618896484
-4.551239967346191,8.657879829406738,1.6646130084991455
-4.644515037536621,8.694755554199219,1.658793568611145
-1.1750205755233765,2.163822650909424,0.40949052572250366
-1.1699483394622803,2.1191632747650146,0.39773303270339966
-4.9642014503479,8.8514986038208,1.6467489004135132
-5.053620338439941,8.875651359558105,1.636123538017273
-5.154609680175781,8.914996147155762,1.627802848815918
-1.223893642425537,2.08322811126709,0.37656062841415405
-1.2545186281204224,2.101931095123291,0.37607237696647644
-2.912921190261841,4.810209274291992,0.8511347770690918
-2.95682430267334,4.812788486480713,0.8420596122741699
-2.97259783744812,4.764465808868408,0.8234190940856934
-3.010749101638794,4.751936912536621,0.8110035061836243
-3.038191318511963,4.7275848388671875,0.7961339354515076
-3.0437631607055664,4.670985698699951,0.7758784890174866
-3.044296979904175,4.603593826293945,0.7533648014068604
-3.0736474990844727,4.57719087600708,0.7371708750724792
-3.094994068145752,4.546466827392578,0.7200524210929871
-3.1290547847747803,4.534880638122559,0.7059947848320007
-2.8636724948883057,4.08936882019043,0.6244341135025024
-2.869368553161621,4.040192127227783,0.6045719981193542
-2.895827293395996,4.023550033569336,0.5892075300216675
-2.9238054752349854,4.005634784698486,0.5728757977485657
-2.917292594909668,3.940558433532715,0.5493156909942627
-2.46535587310791,3.453829288482666,-0.23575997352600098
-2.4391701221466064,3.4711952209472656,-0.25249218940734863
-2.876491069793701,4.158316612243652,-0.3204304873943329
-2.881840944290161,4.228835582733154,-0.3429628610610962
-1.2912564277648926,1.9255610704421997,-0.16390182077884674
-2.747288703918457,4.161177158355713,-0.370145320892334
-2.7739105224609375,4.267865180969238,-0.3956739008426666
-2.7456374168395996,4.293701648712158,-0.4138178527355194
-2.69758677482605,4.285653591156006,-0.4280659556388855
-1.2626683712005615,2.037505626678467,-0.21042566001415253
-2.701230049133301,4.431020259857178,-0.47253260016441345
-2.142040252685547,3.5720880031585693,-0.3928220570087433
-2.640193462371826,4.473104476928711,-0.5060282349586487
-2.6128158569335938,4.500802993774414,-0.5232329368591309
-1.1981561183929443,2.0988223552703857,-0.25049465894699097
-2.590775489807129,4.612521648406982,-0.5641390681266785
-2.556621551513672,4.629575729370117,-0.5800344347953796
-2.5370657444000244,4.673707008361816,-0.5991480350494385
-2.514145851135254,4.710498332977295,-0.6171694397926331
-2.5039782524108887,4.770931720733643,-0.6382871270179749
-1.7259267568588257,3.346501111984253,-0.4568564295768738
-1.7008520364761353,3.357825756072998,-0.4676761329174042
-1.683772325515747,3.382297992706299,-0.4799571633338928
-1.0790740251541138,2.206200361251831,-0.3188110589981079
-1.0645631551742554,2.2165653705596924,-0.32598763704299927
-1.0484063625335693,2.223271608352661,-0.3326150178909302
-1.0244386196136475,2.212139368057251,-0.33641964197158813
-1.011438250541687,2.225618362426758,-0.34400713443756104
-0.9999391436576843,2.2425270080566406,-0.35202229022979736
-0.9868342876434326,2.255765914916992,-0.3594752550125122
-0.9768550992012024,2.2759299278259277,-0.36802706122398376
-0.9664798378944397,2.2961137294769287,-0.37658417224884033
-0.9495320916175842,2.3021347522735596,-0.38288813829421997
-0.9329547882080078,2.3078742027282715,-0.389036625623703
-0.9250463843345642,2.334939956665039,-0.3987909257411957
-0.9166500568389893,2.3620493412017822,-0.4085545837879181
-0.9009736180305481,2.3711559772491455,-0.41517844796180725
-0.8863440752029419,2.3838186264038086,-0.4225310981273651
-0.8654726147651672,2.3781280517578125,-0.4265022873878479
-1.021538257598877,2.869271993637085,-0.5204539895057678
-1.0085283517837524,2.8970890045166016,-0.531287431716919
-0.9878157377243042,2.9029541015625,-0.538142204284668
-0.9595948457717896,2.8868114948272705,-0.5409542918205261
-0.9414448142051697,2.8996241092681885,-0.5489409565925598
-0.9253886342048645,2.919696807861328,-0.5581637024879456
-0.906841516494751,2.932316541671753,-0.5660251975059509
-0.8361454606056213,2.7719850540161133,-0.5402094125747681
-0.7883144617080688,2.6809303760528564,-0.5273374915122986
-0.7625264525413513,2.663336992263794,-0.5285372138023376
-0.7415238618850708,2.6602156162261963,-0.532494068145752
-0.7227268815040588,2.6643025875091553,-0.537879228591919
-0.7117418050765991,2.697899341583252,-0.5492516160011292
-0.6926342844963074,2.7018394470214844,-0.5542880296707153
-0.6815053224563599,2.739147663116455,-0.566322922706604
-0.6487207412719727,2.6870031356811523,-0.5597670674324036
-0.6114883422851562,2.6122074127197266,-0.5483046770095825
-0.5829337239265442,2.570744276046753,-0.5432586669921875
-0.5558096170425415,2.5327796936035156,-0.5388169884681702
-0.5297441482543945,2.498373031616211,-0.5351079106330872
-0.5022270083427429,2.4524624347686768,-0.5287707448005676
-0.47462010383605957,2.402642250061035,-0.521145761013031
-0.44845059514045715,2.356367349624634,-0.5140493512153625
-0.42640969157218933,2.3286497592926025,-0.5109249949455261
-0.40582799911499023,2.3083088397979736,-0.5094277262687683
-0.3826653063297272,2.2690060138702393,-0.5034003257751465
-0.3619235157966614,2.2408607006073,-0.49954718351364136
-0.33983147144317627,2.2012453079223633,-0.4930872619152069
-0.3177398145198822,2.157682180404663,-0.4856758713722229
-0.3023739755153656,2.1592955589294434,-0.4883083403110504
-0.2837711572647095,2.1344008445739746,-0.4845561683177948
-0.2669581472873688,2.1207034587860107,-0.4833330810070038
-0.25036555528640747,2.1068801879882812,-0.48207566142082214
-0.23397977650165558,2.092940330505371,-0.48075976967811584
-0.21702805161476135,2.071406126022339,-0.4772242307662964
-0.2008705586194992,2.0573413372039795,-0.47543251514434814
-0.1848202645778656,2.039350986480713,-0.4727088212966919
-0.17123501002788544,2.047790050506592,-0.47612786293029785
-0.15521712601184845,2.025879144668579,-0.4720762073993683
-0.14111603796482086,2.026639223098755,-0.4732389748096466
-0.12485964596271515,1.9969394207000732,-0.4673149883747101
-0.1109643504023552,1.9974915981292725,-0.4684600234031677
-0.09743169695138931,2.0056169033050537,-0.4710777699947357
-0.08348041772842407,2.0060906410217285,-0.47173792123794556
-0.06873717159032822,1.9836668968200684,-0.4670298397541046
-0.054484423249959946,1.9763458967208862,-0.4659021496772766
-0.040902029722929,1.9841771125793457,-0.468127965927124
-0.027307767421007156,1.9995832443237305,-0.47187086939811707
-0.013311924412846565,1.9844812154769897,-0.46843692660331726
0.0004890562267974019,1.9768856763839722,-0.4667961001396179
0.014400805346667767,1.969220519065857,-0.4650399386882782
0.028099598363041878,1.9691520929336548,-0.4647037088871002
0.042106352746486664,1.9841930866241455,-0.4679536819458008
0.05566655099391937,1.9763315916061401,-0.4658239483833313
0.07046889513731003,2.006378173828125,-0.47263866662979126
0.08442392945289612,2.0060365200042725,-0.47180071473121643
0.09786603599786758,1.9903955459594727,-0.4673807621002197
0.11256472021341324,2.005051374435425,-0.4701104462146759
0.12651358544826508,2.0044162273406982,-0.4692722260951996
0.14048734307289124,2.003775119781494,-0.46803298592567444
0.15561676025390625,2.0182321071624756,-0.4702408015727997
0.17056956887245178,2.0249783992767334,-0.4706414043903351
0.18535692989826202,2.0316340923309326,-0.47105714678764343
0.20101821422576904,2.045825242996216,-0.4729207456111908
0.21530039608478546,2.044795274734497,-0.4710851311683655
0.22998785972595215,2.047449827194214,-0.47012004256248474
0.2454163134098053,2.0537590980529785,-0.46998223662376404
0.2635670006275177,2.08270001411438,-0.47484374046325684
0.2841664254665375,2.1266696453094482,-0.48279285430908203
0.30169054865837097,2.1440465450286865,-0.48466381430625916
0.3155525326728821,2.1348869800567627,-0.48055097460746765
0.3365681767463684,2.1708474159240723,-0.4864594638347626
0.3596995770931244,2.218043088912964,-0.49446505308151245
0.37649989128112793,2.223655939102173,-0.4931595027446747
0.3900623619556427,2.2103497982025146,-0.4876890182495117
0.414507657289505,2.2570371627807617,-0.4954344928264618
0.437472403049469,2.292353630065918,-0.5001589059829712
0.4664442241191864,2.353671073913574,-0.5103772282600403
0.4898727834224701,2.3848206996917725,-0.5140019655227661
0.5050118565559387,2.3746373653411865,-0.5087090730667114
0.5331754684448242,2.4241833686828613,-0.5158261656761169
0.5612101554870605,2.46977162361145,-0.5218660831451416
0.5946179032325745,2.5336804389953613,-0.5315611362457275
0.6142289638519287,2.5378010272979736,-0.5286945700645447
0.6478097438812256,2.5975613594055176,-0.5370998382568359
0.6717624664306641,2.6162350177764893,-0.5367025136947632
0.7107105851173401,2.6902878284454346,-0.5475252270698547
0.7451076507568359,2.7416810989379883,-0.5534536838531494
0.7819423675537109,2.8002572059631348,-0.5606024861335754
0.8196117281913757,2.858548879623413,-0.5672259330749512
0.8635536432266235,2.9348981380462646,-0.5772072076797485
0.892031192779541,2.9556620121002197,-0.5760805606842041
0.9245817065238953,2.9871160984039307,-0.5768002867698669
0.9920176863670349,3.1283533573150635,-0.5981512665748596
1.0460189580917358,3.2213661670684814,-0.6098530888557434
1.0991382598876953,3.3064866065979004,-0.6196798086166382
1.1559621095657349,3.3983659744262695,-0.6304503083229065
1.2228115797042847,3.5152463912963867,-0.6450579762458801
1.3046793937683105,3.667593240737915,-0.665506899356842
1.3793132305145264,3.7937989234924316,-0.6807160973548889
1.4732906818389893,3.9661614894866943,-0.7035865187644958
1.5476428270339966,4.079993724822998,-0.715142548084259
1.6110490560531616,4.160728454589844,-0.7204338908195496
1.663656234741211,4.208280563354492,-0.7194702625274658
1.6949634552001953,4.201765537261963,-0.7092868089675903
1.7229716777801514,4.188036918640137,-0.6976575255393982
1.7462807893753052,4.163461685180664,-0.684220016002655
1.7604708671569824,4.117316722869873,-0.6672986149787903
1.4550431966781616,3.337470531463623,-0.5331426858901978
1.4909807443618774,3.3569085597991943,-0.528390645980835
1.517551064491272,3.3549320697784424,-0.5201642513275146
1.531509518623352,3.324496269226074,-0.5074815154075623
1.5551276206970215,3.314950942993164,-0.4980086386203766
1.5819991827011108,3.3122501373291016,-0.4892972707748413
1.5914404392242432,3.2747161388397217,-0.4756240248680115
1.6179773807525635,3.2717344760894775,-0.46690833568573
1.6446733474731445,3.2684640884399414,-0.4580913186073303
1.6584751605987549,3.2410967350006104,-0.4458112120628357
1.6826435327529907,3.23433518409729,-0.4364093244075775
1.7041196823120117,3.2200613021850586,-0.4256489872932434
2.107574462890625,3.9167094230651855,-0.507080614566803
2.1158697605133057,3.8696377277374268,-0.490311861038208
2.1388118267059326,3.8496785163879395,-0.4770650267601013
2.137564182281494,3.7851529121398926,-0.4581451714038849
2.1489877700805664,3.7444100379943848,-0.4421416223049164
2.1941587924957275,3.764646530151367,-0.43350115418434143
2.1966934204101562,3.710512161254883,-0.4160909056663513
2.2270963191986084,3.702867031097412,-0.40380826592445374
2.268529176712036,3.715548038482666,-0.3936215043067932
