X,Y,Z
-0.4414067566394806,4.119976043701172,-0.7280579209327698
-0.407369464635849,4.068921089172363,-0.7210350632667542
-0.3840484321117401,4.124842643737793,-0.7330043315887451
-0.2748071253299713,3.1920859813690186,-0.5683080554008484
-0.25521475076675415,3.2320454120635986,-0.5765329003334045
-0.23517924547195435,3.2680201530456543,-0.5840818285942078
-0.21340827643871307,3.2846786975860596,-0.5882242321968079
-0.1904851347208023,3.2858870029449463,-0.5893426537513733
-0.16952285170555115,3.3253862857818604,-0.597066342830658
-0.14711646735668182,3.353239059448242,-0.6027523875236511
-0.13061660528182983,3.538442850112915,-0.6367823481559753
-0.11534833908081055,3.8503620624542236,-0.6937532424926758
-0.08857716619968414,3.851020574569702,-0.6940316557884216
-0.06093885004520416,3.797680139541626,-0.6846069097518921
-0.033954571932554245,3.7864341735839844,-0.6828044652938843
-0.007670453749597073,3.821127414703369,-0.689317524433136
0.01888391375541687,3.8134117126464844,-0.6878647804260254
0.04514617845416069,3.7901992797851562,-0.6832900047302246
0.07192675024271011,3.8129305839538574,-0.6870315074920654
0.09843016415834427,3.812413454055786,-0.6866151690483093
0.12487391382455826,3.7963287830352783,-0.6834247708320618
0.15367461740970612,3.8570282459259033,-0.6934125423431396
0.18152664601802826,3.879108428955078,-0.6964603066444397
0.2099296748638153,3.9048268795013428,-0.7001821398735046
0.23939825594425201,3.9418535232543945,-0.7059509754180908
0.26620298624038696,3.924978733062744,-0.7017448544502258
0.29514196515083313,3.946369171142578,-0.7040544152259827
0.3237946629524231,3.9598803520202637,-0.7049757242202759
0.35645297169685364,4.015325546264648,-0.7133663892745972
0.3884632885456085,4.055193901062012,-0.7189861536026001
0.41794076561927795,4.060452461242676,-0.7177692651748657
0.44699954986572266,4.065549850463867,-0.716557502746582
0.47707533836364746,4.078080177307129,-0.7166761755943298
0.5101892948150635,4.11330509185791,-0.7207908630371094
0.5462814569473267,4.167411804199219,-0.7278810739517212
0.5920383930206299,4.282248020172119,-0.7450814247131348
0.6245653629302979,4.297670364379883,-0.7449739575386047
0.6399955749511719,4.198643684387207,-0.7251060605049133
0.7414840459823608,4.647206783294678,-0.7996121644973755
0.39132654666900635,2.347942590713501,-0.40215253829956055
0.8126581311225891,4.675912857055664,-0.7972317934036255
0.8444135785102844,4.663227558135986,-0.7913886904716492
0.8826137185096741,4.68828010559082,-0.7920323014259338
0.9218629598617554,4.716887474060059,-0.7929041385650635
0.9530544877052307,4.703693866729736,-0.7864195108413696
0.9873462319374084,4.705366611480713,-0.7824488282203674
1.0183448791503906,4.68780517578125,-0.7752273082733154
1.0477029085159302,4.666393756866455,-0.7674651145935059
1.0766550302505493,4.644920825958252,-0.7591530680656433
1.1089463233947754,4.638269424438477,-0.7533157467842102
1.1321043968200684,4.5938849449157715,-0.7414038777351379
1.1524776220321655,4.5380167961120605,-0.727671205997467
0.962488055229187,3.682955026626587,-0.5865095257759094
0.9810455441474915,3.6508898735046387,-0.5772371888160706
1.0126222372055054,3.667112350463867,-0.5756227970123291
1.0383152961730957,3.6607325077056885,-0.5704354643821716
1.0578862428665161,3.631821393966675,-0.5616021752357483
1.0764336585998535,3.6030280590057373,-0.5526476502418518
1.1059496402740479,3.6110951900482178,-0.5493830442428589
1.1289271116256714,3.596722364425659,-0.542677640914917
1.1494146585464478,3.574822425842285,-0.5348861217498779
1.1721994876861572,3.560163974761963,-0.5278149247169495
1.1968233585357666,3.5528321266174316,-0.5219245553016663
1.2165954113006592,3.5306124687194824,-0.5138455629348755
1.238816499710083,3.5155341625213623,-0.5068353414535522
1.2632343769073486,3.5077130794525146,-0.5007153153419495
1.2901570796966553,3.50704026222229,-0.4955098032951355
1.3108834028244019,3.4878344535827637,-0.4875958263874054
1.3298568725585938,3.464932441711426,-0.47925955057144165
1.356858730316162,3.463656187057495,-0.4738355278968811
1.3692240715026855,3.4263110160827637,-0.4633788764476776
1.420738697052002,3.485827684402466,-0.46595972776412964
1.7315614223480225,4.163885593414307,-0.549832820892334
1.760657787322998,4.152740955352783,-0.5416568517684937
1.7892011404037476,4.141606330871582,-0.5333127975463867
1.8114745616912842,4.116032123565674,-0.5231441855430603
1.8404351472854614,4.104241847991943,-0.5146281719207764
1.8728972673416138,4.099153518676758,-0.5067923069000244
1.897696852684021,4.080239772796631,-0.49722743034362793
1.919050931930542,4.054114818572998,-0.4868302345275879
1.9442511796951294,4.034531593322754,-0.47708430886268616
1.9690247774124146,4.014895915985107,-0.46734619140625
1.9917272329330444,3.991718292236328,-0.4569784104824066
2.01912522315979,3.978957414627075,-0.4479411244392395
2.036449909210205,3.944922685623169,-0.4363718628883362
2.0674211978912354,3.9385814666748047,-0.4278668165206909
2.0941426753997803,3.9254441261291504,-0.41854843497276306
2.1211745738983154,3.9119038581848145,-0.40908676385879517
2.1379683017730713,3.877135992050171,-0.39713138341903687
2.1321892738342285,3.805640935897827,-0.3816871643066406
2.1540377140045166,3.785308361053467,-0.3715134263038635
2.1882500648498535,3.7845871448516846,-0.36299097537994385
2.1950490474700928,3.736501693725586,-0.34989967942237854
2.224557876586914,3.729010820388794,-0.3404809534549713
2.2539448738098145,3.721337080001831,-0.33106762170791626
2.271965503692627,3.692991018295288,-0.319538414478302
2.292834997177124,3.671767234802246,-0.3086640238761902
2.3130784034729004,3.6506779193878174,-0.2978479862213135
2.3349428176879883,3.6283528804779053,-0.2862982749938965
2.3639979362487793,3.619647741317749,-0.2759716808795929
2.396507978439331,3.6177401542663574,-0.2661220133304596
2.4085640907287598,3.582388401031494,-0.25333890318870544
2.4329609870910645,3.5666592121124268,-0.2418881207704544
2.4699339866638184,3.570425033569336,-0.23153001070022583
2.481337070465088,3.5347232818603516,-0.21809221804141998
2.504978895187378,3.5187466144561768,-0.2058410793542862
2.5553250312805176,3.5409774780273438,-0.19558501243591309
2.2481656074523926,3.0701723098754883,-0.15867938101291656
2.174734592437744,2.9309141635894775,-0.14101873338222504
2.7858903408050537,3.9117562770843506,0.4151970446109772
2.7703042030334473,3.949922561645508,0.4306285083293915
2.7476119995117188,3.983184337615967,0.44541803002357483
2.709784507751465,3.988842010498047,0.45620274543762207
2.6715810298919678,3.994460344314575,0.4666171967983246
2.640070915222168,4.013965129852295,0.47843441367149353
2.6100239753723145,4.032222270965576,0.48964551091194153
2.5895204544067383,4.062559604644775,0.5019050240516663
2.57658314704895,4.110785484313965,0.5161263346672058
2.5350732803344727,4.112411022186279,0.5244101881980896
2.5159285068511963,4.145637512207031,0.5362066030502319
2.4848761558532715,4.163054943084717,0.5459732413291931
2.4450557231903076,4.167332649230957,0.5536668300628662
2.4257309436798096,4.204288959503174,0.5655137300491333
2.395913600921631,4.220168590545654,0.5742752552032471
2.372448205947876,4.250000953674316,0.5847695469856262
2.2855145931243896,4.168389797210693,0.5797123312950134
2.241647243499756,4.16021203994751,0.5844844579696655
2.228549003601074,4.205676555633545,0.5965455770492554
2.1982836723327637,4.22048282623291,0.6042224168777466
2.166486978530884,4.235823631286621,0.6116732358932495
2.137524366378784,4.25808572769165,0.6202545166015625
2.1106886863708496,4.279062271118164,0.6283140182495117
2.083836555480957,4.299777984619141,0.6363537907600403
2.0588490962982178,4.327946186065674,0.6452231407165527
2.0298221111297607,4.349178791046143,0.6529765725135803
1.994489312171936,4.355985641479492,0.6585513353347778
1.9775257110595703,4.400941371917725,0.6698230504989624
2.0073509216308594,4.551831245422363,0.6973510384559631
1.9492735862731934,4.508711338043213,0.6948055624961853
1.9370263814926147,4.571901321411133,0.708619236946106
1.9124716520309448,4.606410026550293,0.7180432081222534
1.8867400884628296,4.636948585510254,0.7268378734588623
1.854151964187622,4.6491498947143555,0.732732355594635
1.8315303325653076,4.690436363220215,0.7428408265113831
1.7888106107711792,4.681214809417725,0.7448896169662476
1.757189393043518,4.700554847717285,0.7515079975128174
1.3374360799789429,3.6565353870391846,0.5872998237609863
1.3143612146377563,3.6724441051483154,0.592538058757782
1.2829701900482178,3.6665377616882324,0.5940801501274109
1.653289794921875,4.836938858032227,0.7867321968078613
1.6350886821746826,4.899336814880371,0.799963116645813
1.5708816051483154,4.822173118591309,0.7904042601585388
1.5488340854644775,4.869052886962891,0.8010790944099426
1.514716625213623,4.8790059089660645,0.8057448267936707
1.4795578718185425,4.889091968536377,0.809923529624939
1.4594981670379639,4.950762748718262,0.8226603865623474
1.429046630859375,4.979011058807373,0.8299223184585571
1.4079612493515015,5.040404796600342,0.8427624106407166
1.3412859439849854,4.934098243713379,0.8275198340415955
1.28988778591156,4.879358291625977,0.8207910656929016
1.2567212581634521,4.89539098739624,0.8254672884941101
1.2298603057861328,4.9373908042907715,0.8345844745635986
1.2009752988815308,4.97562837600708,0.843169629573822
1.1697274446487427,4.998329162597656,0.8490879535675049
1.14077627658844,5.032104969024658,0.8569460511207581
1.1054823398590088,5.03941535949707,0.8602344989776611
1.0790127515792847,5.091937065124512,0.8707838654518127
1.0373529195785522,5.076503753662109,0.8697907328605652
1.0100289583206177,5.128647327423096,0.8803987503051758
1.8070416450500488,9.524699211120605,1.6381489038467407
1.737812876701355,9.521025657653809,1.6406984329223633
1.673848271369934,9.547245025634766,1.648391842842102
1.603624701499939,9.550771713256836,1.651187539100647
1.5150518417358398,9.431955337524414,1.6328469514846802
1.4510098695755005,9.460806846618652,1.6401270627975464
1.3764331340789795,9.412903785705566,1.6341407299041748
1.3087422847747803,9.406332015991211,1.6353802680969238
0.2919943034648895,2.213425397872925,0.3854139447212219
1.1737558841705322,9.407416343688965,1.6395944356918335
1.1042197942733765,9.388223648071289,1.6376811265945435
1.0361765623092651,9.38000774383545,1.637760043144226
0.2256089150905609,2.1820294857025146,0.38135141134262085
0.9037525057792664,9.377280235290527,1.6405020952224731
0.38653895258903503,4.331186294555664,0.7585253119468689
0.3528182804584503,4.291423320770264,0.7521094083786011
0.32502806186676025,4.324361801147461,0.7582090497016907
0.2986237108707428,4.383991241455078,0.7690328359603882
0.3429432511329651,5.614807605743408,0.9854610562324524
0.30443641543388367,5.639979839324951,0.9904556274414062
0.2670131325721741,5.6802287101745605,0.998142659664154
0.22825926542282104,5.701016426086426,1.002393364906311
0.1896541714668274,5.7408833503723145,1.0093964338302612
0.14976632595062256,5.749716281890869,1.0109925270080566
0.11014259606599808,5.815983295440674,1.0227397680282593
0.0701245591044426,5.855035305023193,1.0297513008117676
0.029259461909532547,5.832254886627197,1.0259382724761963
-0.0173347070813179,8.97539234161377,1.5792138576507568
-0.0784490779042244,8.836618423461914,1.5545337200164795
-0.1393813043832779,8.739799499511719,1.536918044090271
-0.19859091937541962,8.66950511932373,1.524061679840088
-0.18290461599826813,6.1260786056518555,1.0766410827636719
-0.2270750105381012,6.167035102844238,1.0835914611816406
-0.26502329111099243,6.053925037384033,1.0635260343551636
-0.18269850313663483,3.600484609603882,0.632357120513916
-0.2067292332649231,3.5761878490448,0.6275877356529236
-0.23342880606651306,3.605515718460083,0.6322680115699768
-0.5632693767547607,7.856509208679199,1.3767750263214111
-0.6120874285697937,7.7797932624816895,1.3624495267868042
-0.5673912167549133,6.621538162231445,1.1589107513427734
-0.6092811822891235,6.563944339752197,1.1481844186782837
-0.640083909034729,6.414391040802002,1.1208562850952148
-0.6809950470924377,6.379573345184326,1.1134507656097412
-0.727544903755188,6.398033142089844,1.1153985261917114
-0.7680659294128418,6.362639904022217,1.1080083847045898
-0.8096755146980286,6.330681800842285,1.101252555847168
-0.8464968204498291,6.271843433380127,1.0899096727371216
-0.8850418925285339,6.2319231033325195,1.0816709995269775
-0.928913414478302,6.233797073364258,1.0802417993545532
-0.9817553758621216,6.292428016662598,1.0886784791946411
-1.0324902534484863,6.327713489532471,1.0930695533752441
-1.082909345626831,6.358837604522705,1.0967814922332764
-1.1352263689041138,6.397141456604004,1.1017608642578125
-1.1845605373382568,6.416104316711426,1.1034455299377441
-1.2414124011993408,6.4765801429748535,1.1115142107009888
-1.2938882112503052,6.510137557983398,1.1149758100509644
-1.3506923913955688,6.558243274688721,1.1209115982055664
-1.4073512554168701,6.602126598358154,1.1261450052261353
-1.4516246318817139,6.585291862487793,1.1210500001907349
-1.4872448444366455,6.530568599700928,1.1095733642578125
-1.522247076034546,6.47969388961792,1.0982314348220825
-0.677843451499939,2.798442840576172,0.4730609059333801
-0.6913022398948669,2.7716434001922607,0.4673391878604889
-0.7142158150672913,2.7820796966552734,0.4679083526134491
-0.727664589881897,2.755002498626709,0.4621812701225281
-0.7509058713912964,2.7650747299194336,0.4627104103565216
-0.7784065008163452,2.7898759841918945,0.4654545783996582
-1.7559750080108643,6.133493423461914,1.0200599431991577
-1.790998935699463,6.100078582763672,1.0113216638565063
-1.822933554649353,6.055203914642334,1.0007117986679077
-1.853872537612915,6.006285190582275,0.9894671440124512
-1.8849464654922485,5.957000255584717,0.9781954884529114
-1.917218565940857,5.919210433959961,0.9684291481971741
-1.9475983381271362,5.877687454223633,0.9579709768295288
-1.973726749420166,5.82505989074707,0.9457955956459045
-2.006351947784424,5.790316581726074,0.9365334510803223
-2.03910231590271,5.755220413208008,0.9272403717041016
-2.065462827682495,5.70158576965332,0.9149724245071411
-2.0957822799682617,5.666806221008301,0.9052443504333496
-2.1229424476623535,5.6246538162231445,0.894422173500061
-2.1551830768585205,5.596802234649658,0.8859461545944214
-2.2029807567596436,5.60410737991333,0.8828884363174438
-2.273221731185913,5.664588451385498,0.8881108164787292
-2.332615852355957,5.699984550476074,0.8891159892082214
-2.3589706420898438,5.656735420227051,0.8775613307952881
-2.3879222869873047,5.6204705238342285,0.8671658039093018
-2.4389214515686035,5.633382797241211,0.8642755150794983
-2.5244038105010986,5.719614028930664,0.8723855018615723
-2.5419375896453857,5.653662204742432,0.8572494387626648
-2.555459499359131,5.58498477935791,0.8413594365119934
-2.5992631912231445,5.583002090454102,0.8355854153633118
-2.633979082107544,5.559344291687012,0.8264848589897156
-2.6248834133148193,5.440476417541504,0.8031144738197327
-2.6695892810821533,5.437150001525879,0.7969646453857422
-2.698763132095337,5.406668186187744,0.786386251449585
-2.734656572341919,5.3898420333862305,0.7778444290161133
-4.9246602058410645,9.546127319335938,1.3665578365325928
-1.6459219455718994,3.1368443965911865,0.4452863335609436
-1.6569666862487793,3.1054580211639404,0.4369363486766815
-1.6663981676101685,3.074738025665283,0.4286205768585205
-1.174340009689331,2.133526563644409,0.2946385443210602
-1.6929610967636108,3.0262300968170166,0.4137478172779083
-1.7335023880004883,3.048686981201172,0.41255781054496765
-1.754153847694397,3.0376675128936768,0.4065077006816864
-1.7623329162597656,3.0067639350891113,0.3978719115257263
-1.7649900913238525,2.9654314517974854,0.38777387142181396
-1.2455470561981201,2.0599327087402344,0.2660239040851593
-1.8160507678985596,2.958901882171631,0.37713825702667236
-1.8357216119766235,2.9475760459899902,0.3705308139324188
-1.8494782447814941,2.926027297973633,0.3625693917274475
-1.8805822134017944,2.930109977722168,0.3575827181339264
-1.9127002954483032,2.9379751682281494,0.35283514857292175
-1.9316341876983643,2.926417350769043,0.3456619679927826
-1.9565178155899048,2.92012357711792,0.3385884463787079
-1.9594781398773193,2.881498336791992,0.32773882150650024
-2.0221145153045654,2.9337894916534424,0.3269725739955902
-2.066023111343384,2.956329107284546,0.32246676087379456
-2.890615224838257,4.07582426071167,0.43415701389312744
-2.8649914264678955,3.985454797744751,0.41387659311294556
-2.9045963287353516,3.9869229793548584,0.4031524360179901
-2.9235777854919434,3.955054521560669,0.3880486488342285
-2.4619572162628174,3.449337959289551,-0.19232019782066345
-1.912283182144165,2.719146490097046,-0.16072356700897217
-1.8869284391403198,2.726719379425049,-0.1702302098274231
-1.8627233505249023,2.733281373977661,-0.1791394054889679
-1.827600121498108,2.7234692573547363,-0.1866636574268341
-1.826194167137146,2.7659292221069336,-0.1978038102388382
-1.9166945219039917,2.9483697414398193,-0.21911035478115082
-1.9644062519073486,3.069983720779419,-0.2364773452281952
-1.9454187154769897,3.0905330181121826,-0.24636626243591309
-1.2809559106826782,2.066802978515625,-0.16995012760162354
-1.8805861473083496,3.083421230316162,-0.26120471954345703
-1.8771003484725952,3.1302871704101562,-0.273022323846817
-1.8725765943527222,3.1730194091796875,-0.2841440439224243
-2.1099328994750977,3.63342022895813,-0.3336840867996216
-1.2007627487182617,2.1029491424560547,-0.19787688553333282
-2.5901780128479004,4.612469673156738,-0.444147527217865
-2.5662717819213867,4.646912574768066,-0.45757079124450684
-2.5432381629943848,4.684995174407959,-0.47115233540534973
-2.515916109085083,4.716195106506348,-0.4841195046901703
-2.4934706687927246,4.753324508666992,-0.4973430037498474
-2.466700315475464,4.783611297607422,-0.5098934173583984
-2.439852237701416,4.817955493927002,-0.5229963064193726
-2.4188547134399414,4.862093448638916,-0.5370048880577087
-2.3913652896881104,4.89178991317749,-0.5493017435073853
-2.3663136959075928,4.928626537322998,-0.5623571276664734
-2.335391044616699,4.955021858215332,-0.5742011666297913
-2.309680223464966,4.991527080535889,-0.5871596336364746
-2.2899112701416016,5.042061805725098,-0.6019139289855957
-2.250458240509033,5.05006217956543,-0.6113218665122986
-2.0018694400787354,4.669172763824463,-0.5805073380470276
-1.9539299011230469,4.646236896514893,-0.5850939154624939
-1.9037704467773438,4.6197590827941895,-0.5890335440635681
-1.8472316265106201,4.574690341949463,-0.5902669429779053
-1.828957438468933,4.622661113739014,-0.6034100651741028
-1.3339500427246094,3.441401958465576,-0.454347163438797
-1.3121352195739746,3.4572641849517822,-0.46140390634536743
-0.9199369549751282,2.477747678756714,-0.3342319428920746
-2.0083515644073486,5.5281171798706055,-0.7534182667732239
-0.9535951018333435,2.682802200317383,-0.3693351745605469
-0.8570067882537842,2.465718984603882,-0.3427409827709198
-0.8368718028068542,2.463895559310913,-0.3456725776195526
-0.811725378036499,2.4472711086273193,-0.34654417634010315
-0.8064435124397278,2.4891889095306396,-0.35565102100372314
-0.7958785891532898,2.516400098800659,-0.3626796007156372
-0.7836686372756958,2.5399489402770996,-0.36905109882354736
-0.7744856476783752,2.5745561122894287,-0.37710773944854736
-0.7564197778701782,2.5793778896331787,-0.3808096647262573
-0.7496878504753113,2.6250486373901367,-0.39066216349601746
-0.7476388812065125,2.6893723011016846,-0.4030810296535492
-0.7305779457092285,2.7015328407287598,-0.4077601432800293
-0.7164758443832397,2.724756956100464,-0.4141353368759155
-0.696427047252655,2.7254223823547363,-0.41710522770881653
-0.6731796860694885,2.7148163318634033,-0.41820028424263
-0.6621298789978027,2.752807378768921,-0.42663100361824036
-0.6462354063987732,2.7719454765319824,-0.43220120668411255
-0.6302117109298706,2.7909650802612305,-0.4377879798412323
-0.6122795343399048,2.8023579120635986,-0.4421578347682953
-0.5953576564788818,2.821319818496704,-0.447486937046051
-0.5808393955230713,2.8514599800109863,-0.45460736751556396
-0.5623859763145447,2.8625590801239014,-0.4587215483188629
-0.5481551289558411,2.8962717056274414,-0.46650782227516174
-0.5306373238563538,2.914792060852051,-0.47160613536834717
-0.5145002603530884,2.9446775913238525,-0.47851160168647766
-0.4964265525341034,2.9630041122436523,-0.48355501890182495
-0.4781445264816284,2.9812116622924805,-0.4886215627193451
-0.453794002532959,2.961207628250122,-0.48733407258987427
-0.44915974140167236,3.0745949745178223,-0.5077193975448608
-0.701763391494751,5.055105686187744,-0.8376891613006592
-0.6509075164794922,4.940822601318359,-0.8215746879577637
-0.619319498538971,4.967601299285889,-0.828902006149292
-0.5441451668739319,4.626874923706055,-0.7742186188697815
-0.4986734986305237,4.511415481567383,-0.7568573355674744
-0.4925902187824249,4.759627819061279,-0.8005965352058411
-0.4621552526950836,4.797063827514648,-0.8090813755989075
-0.42358657717704773,4.742198467254639,-0.8018262386322021
-0.38511496782302856,4.679469585418701,-0.792603075504303
-0.3501417934894562,4.6510114669799805,-0.7891947627067566
-0.31123343110084534,4.556972980499268,-0.7746526598930359
-0.2780226767063141,4.5433831214904785,-0.773815929889679
-0.2489040046930313,4.5911383628845215,-0.7829270958900452
-0.21439601480960846,4.538740158081055,-0.7747333645820618
-0.18279850482940674,4.53995418548584,-0.7757196426391602
-0.15046152472496033,4.517857074737549,-0.7727553844451904
-0.117397241294384,4.476313591003418,-0.7664197087287903
-0.0866578221321106,4.500080108642578,-0.7706077694892883
-0.054966140538454056,4.4697346687316895,-0.7655662298202515
-0.024024445563554764,4.493069648742676,-0.7697556614875793
0.007257460616528988,4.52773904800415,-0.775926947593689
0.0360565148293972,4.158006191253662,-0.7124133706092834
0.06392711400985718,4.092293739318848,-0.7007178664207458
0.09184199571609497,4.068737030029297,-0.6962839365005493
0.12060141563415527,4.083476543426514,-0.6984376311302185
0.15311475098133087,4.194209098815918,-0.7170329093933105
0.1794249415397644,4.127846717834473,-0.704680323600769
0.21638527512550354,4.280517101287842,-0.7297033071517944
0.24436989426612854,4.248360633850098,-0.7232416868209839
0.26819977164268494,4.158371925354004,-0.7069962620735168
0.29815474152565,4.172027111053467,-0.7081283926963806
0.32501041889190674,4.143293380737305,-0.7017084956169128
0.3585379123687744,4.191108226776123,-0.7082525491714478
0.4011610448360443,4.334596633911133,-0.7309529185295105
0.4305293560028076,4.324362277984619,-0.7277168035507202
0.4645797610282898,4.360013008117676,-0.7316116094589233
0.48221316933631897,4.24609375,-0.710390031337738
0.5210155248641968,4.315709114074707,-0.7198878526687622
0.5569204688072205,4.358291149139404,-0.7248867750167847
0.6454739570617676,4.786445140838623,-0.7935655117034912
0.688980758190155,4.854973316192627,-0.8018795847892761
0.722713053226471,4.850681304931641,-0.7981555461883545
0.7618309259414673,4.876540660858154,-0.7993550300598145
0.797078013420105,4.879333972930908,-0.7968370318412781
0.8257626891136169,4.843968868255615,-0.7875640988349915
0.8465471863746643,4.7666754722595215,-0.7714525461196899
0.8740825057029724,4.7310261726379395,-0.7621862888336182
0.9158214330673218,4.770983695983887,-0.7651148438453674
0.9420726895332336,4.727273464202881,-0.7543984055519104
0.9694021344184875,4.694955825805664,-0.7451897263526917
0.9922935962677002,4.6435980796813965,-0.7330564856529236
0.8364173173904419,3.785274028778076,-0.5943145751953125
0.859453558921814,3.7649035453796387,-0.5879029631614685
0.884294867515564,3.7519114017486572,-0.5822363495826721
0.8993706703186035,3.7013328075408936,-0.5707896947860718
0.9251302480697632,3.695665121078491,-0.5663281679153442
0.9528970122337341,3.6972708702087402,-0.5629855394363403
0.9766779541969299,3.6837687492370605,-0.5572075843811035
0.9975334405899048,3.658897638320923,-0.5494154691696167
1.0249645709991455,3.660071611404419,-0.5456395745277405
1.0462990999221802,3.638671636581421,-0.5384935140609741
1.0696001052856445,3.6245534420013428,-0.5324714183807373
1.0902280807495117,3.603008270263672,-0.525046706199646
1.1155893802642822,3.596013307571411,-0.5196992754936218
1.143030047416687,3.5962724685668945,-0.5154544711112976
1.1658430099487305,3.5815632343292236,-0.5090708136558533
1.1858131885528564,3.559461832046509,-0.501484215259552
1.2054158449172974,3.537299871444702,-0.4938086271286011
1.2325191497802734,3.536936044692993,-0.4891895353794098
1.248656988143921,3.50329327583313,-0.47988805174827576
1.2757861614227295,3.5025389194488525,-0.4751266837120056
1.3039867877960205,3.5053484439849854,-0.4706569015979767
1.3419175148010254,3.5332980155944824,-0.46951979398727417
1.6442711353302002,4.24035120010376,-0.5574995875358582
1.6688108444213867,4.215059280395508,-0.548099160194397
1.6978062391281128,4.204451084136963,-0.5404748916625977
1.7208211421966553,4.179281711578369,-0.531025767326355
1.7530590295791626,4.175258159637451,-0.5241951942443848
1.7762162685394287,4.1495466232299805,-0.5146652460098267
1.8082860708236694,4.1451416015625,-0.5074567198753357
1.8271793127059937,4.112338066101074,-0.49691933393478394
1.8559151887893677,4.100423812866211,-0.488822340965271
1.8913034200668335,4.1023054122924805,-0.4823172092437744
1.909557580947876,4.069077491760254,-0.4715510606765747
1.931180477142334,4.042613983154297,-0.46150052547454834
1.959428310394287,4.029958248138428,-0.45304545760154724
1.9825795888900757,4.006561756134033,-0.4433823823928833
2.0063889026641846,3.9869332313537598,-0.4340343177318573
2.02995228767395,3.96718168258667,-0.42470672726631165
2.054091691970825,3.946906566619873,-0.4151654839515686
2.08221697807312,3.9330830574035645,-0.406146764755249
2.1088266372680664,3.919795274734497,-0.3972155749797821
2.1242432594299316,3.885773181915283,-0.3862127959728241
2.119472026824951,3.8137612342834473,-0.3713254928588867
2.1496849060058594,3.8066389560699463,-0.36284559965133667
2.1680212020874023,3.7791597843170166,-0.35227537155151367
2.17836594581604,3.738051414489746,-0.34049463272094727
2.2205748558044434,3.75024676322937,-0.33340129256248474
2.2337934970855713,3.7159805297851562,-0.32213208079338074
2.2587051391601562,3.7017056941986084,-0.31263458728790283
2.3057141304016113,3.7193851470947266,-0.30521348118782043
2.3061883449554443,3.6647591590881348,-0.2920278310775757
2.3262929916381836,3.643562078475952,-0.2816186249256134
2.368518590927124,3.6542694568634033,-0.27323490381240845
2.3808248043060303,3.6190671920776367,-0.26128190755844116
2.3963449001312256,3.5908238887786865,-0.2497635930776596
2.438532590866089,3.6008026599884033,-0.2405959814786911
2.4499878883361816,3.5653884410858154,-0.22816678881645203
2.4642579555511475,3.537230968475342,-0.21631355583667755
2.5156736373901367,3.559048891067505,-0.20683281123638153
2.508056163787842,3.4980978965759277,-0.19220884144306183
2.567394971847534,3.532914161682129,-0.1829225718975067
2.175187349319458,2.9499571323394775,-0.14250895380973816
2.772808790206909,3.9230544567108154,0.3957109749317169
2.757798433303833,3.9608349800109863,0.41018083691596985
2.7307116985321045,3.9876880645751953,0.42333823442459106
2.7070324420928955,4.01660680770874,0.4362924098968506
2.667401075363159,4.018489837646484,0.44567638635635376
2.6466243267059326,4.0542097091674805,0.4585520923137665
2.609776496887207,4.062955856323242,0.46809861063957214
2.5683271884918213,4.060545921325684,0.475871741771698
2.536865711212158,4.079089164733887,0.48594018816947937
2.5214385986328125,4.12393856048584,0.4990040361881256
2.5060033798217773,4.163994789123535,0.5109963417053223
2.46439266204834,4.160575866699219,0.5175723433494568
2.448240280151367,4.204980373382568,0.529805064201355
2.40803599357605,4.20911169052124,0.5370930433273315
2.3934714794158936,4.2520270347595215,0.5488123297691345
2.3386220932006836,4.223795413970947,0.551289439201355
2.2565789222717285,4.148274898529053,0.5470795035362244
2.2343153953552246,4.1812872886657715,0.5571128129959106
2.2077178955078125,4.2031636238098145,0.5654656887054443
2.181544065475464,4.224555492401123,0.5736876130104065
2.1465487480163574,4.232794284820557,0.5797709822654724
2.1285650730133057,4.275577545166016,0.5905967950820923
2.1008822917938232,4.296935558319092,0.5983752608299255
2.0734286308288574,4.317910671234131,0.6060807108879089
2.049084424972534,4.34574031829834,0.6145788431167603
2.0102739334106445,4.345867156982422,0.6188948154449463
1.977972388267517,4.35976505279541,0.6251921653747559
2.0130727291107178,4.521447658538818,0.6526772379875183
1.9843270778656006,4.541696548461914,0.6598786115646362
1.9540385007858276,4.5623459815979,0.6670207381248474
1.9173524379730225,4.568643093109131,0.6717585325241089
1.914480447769165,4.656990051269531,0.6886590719223022
1.8511064052581787,4.594213485717773,0.6830888986587524
1.8273310661315918,4.627869129180908,0.6918182969093323
1.8327065706253052,4.741239547729492,0.7124632000923157
1.7965831756591797,4.750124931335449,0.7171332240104675
1.7402993440628052,4.704326152801514,0.7135422229766846
1.3211690187454224,3.65051007270813,0.556228756904602
1.2981597185134888,3.6663784980773926,0.5611558556556702
1.269420862197876,3.6676547527313232,0.5638994574546814
1.6153357028961182,4.778383731842041,0.737453281879425
1.583070993423462,4.796616554260254,0.7430800199508667
1.5613830089569092,4.8476996421813965,0.7538553476333618
1.5274579524993896,4.857815742492676,0.758226752281189
1.5109598636627197,4.92696475982666,0.7719372510910034
1.4737299680709839,4.929512977600098,0.7749419212341309
1.4338250160217285,4.924564838409424,0.776506245136261
1.3961225748062134,4.926743984222412,0.7792274951934814
1.3590190410614014,4.928491115570068,0.7818759083747864
1.3135631084442139,4.896245956420898,0.7791056632995605
1.2767902612686157,4.897381782531738,0.7817041873931885
1.2399828433990479,4.898333549499512,0.7838460803031921
1.2241544723510742,4.985302448272705,0.7996733784675598
1.1883246898651123,4.993441581726074,0.8029301166534424
1.1565932035446167,5.016214847564697,0.8085488080978394
1.1243340969085693,5.0388383865356445,0.8142105340957642
1.0891414880752563,5.046047210693359,0.8173945546150208
1.0556310415267944,5.064545154571533,0.821960985660553
1.024096965789795,5.094200611114502,0.8282715082168579
0.9936047196388245,5.131240367889404,0.8358430862426758
1.8198286294937134,9.771268844604492,1.5947030782699585
1.743420124053955,9.737371444702148,1.592191219329834
1.6832501888275146,9.794107437133789,1.604576826095581
1.6090892553329468,9.77462387084961,1.6037170886993408
1.530666708946228,9.728039741516113,1.5981627702713013
1.4569681882858276,9.715320587158203,1.5982730388641357
1.39078688621521,9.739974021911621,1.6045531034469604
1.31201171875,9.66858959197998,1.595054268836975
0.27587321400642395,2.1448960304260254,0.35436728596687317
1.1766380071640015,9.684867858886719,1.6018964052200317
1.1113718748092651,9.719298362731934,1.6089532375335693
1.0371034145355225,9.684422492980957,1.604640007019043
0.22008074820041656,2.201291561126709,0.3650818467140198
0.4006258547306061,4.3094072341918945,0.7154085636138916
0.3712712228298187,4.319581031799316,0.7178319692611694
0.3405739665031433,4.314207077026367,0.7175852656364441
0.31334203481674194,4.366389274597168,0.7265443205833435
0.2807469666004181,4.337608814239502,0.7220633029937744
0.32358577847480774,5.608857154846191,0.9341265559196472
0.28530821204185486,5.626231670379639,0.937507688999176
0.24905641376972198,5.693384170532227,0.9492353796958923
0.20962508022785187,5.717966079711914,0.9539307355880737
0.17112597823143005,5.765462875366211,0.9618947505950928
0.13090665638446808,5.766488075256348,0.9620633721351624
0.09158997237682343,5.8250203132629395,0.9718734622001648
0.05102277547121048,5.825488567352295,0.9720435738563538
0.009749387390911579,5.794850826263428,0.9670722484588623
-0.0469072200357914,8.900182723999023,1.4855899810791016
-0.10796509683132172,8.8264741897583,1.4731628894805908
-0.11666872352361679,6.082794189453125,1.0148096084594727
-0.15851889550685883,6.066516876220703,1.0117183923721313
-0.20302003622055054,6.13467264175415,1.0227537155151367
-0.24453097581863403,6.086971759796143,1.0145175457000732
-0.378695547580719,8.032785415649414,1.3385237455368042
-0.19302582740783691,3.566786289215088,0.5942195653915405
-0.21906927227973938,3.5885658264160156,0.5973372459411621
-0.5311828255653381,7.812387943267822,1.2993643283843994
-0.5850299596786499,7.793351650238037,1.2951925992965698
-0.5470947623252869,6.667820453643799,1.1073434352874756
-0.5890015363693237,6.614177703857422,1.0976972579956055
-0.6309259533882141,6.567945957183838,1.0893440246582031
-0.6534539461135864,6.34135627746582,1.0506716966629028
-0.7042009234428406,6.394432544708252,1.0581210851669312
-0.7482174634933472,6.389769554138184,1.0560778379440308
-0.7880711555480957,6.350357532501221,1.0483441352844238
-0.825187623500824,6.291550159454346,1.0374680757522583
-0.8641639351844788,6.2516255378723145,1.0297718048095703
-0.9036725163459778,6.215243339538574,1.022485613822937
-0.952051043510437,6.247466087341309,1.0260486602783203
-1.0027340650558472,6.290743827819824,1.0314514636993408
-1.0540544986724854,6.333623886108398,1.0368109941482544
-1.1059730052947998,6.37219762802124,1.0414665937423706
-1.159233808517456,6.414143085479736,1.0466965436935425
-1.2132354974746704,6.451726913452148,1.0511904954910278
-1.2683677673339844,6.5006585121154785,1.056856393814087
-1.321931004524231,6.5378007888793945,1.0606188774108887
-1.3768503665924072,6.578293800354004,1.0649420022964478
-1.4321321249008179,6.6144609451293945,1.0685551166534424
-1.4671905040740967,6.552038669586182,1.056241750717163
-1.5014053583145142,6.493399620056152,1.04466712474823
-1.536725640296936,6.446147918701172,1.0343663692474365
-0.6959112286567688,2.833897590637207,0.45352011919021606
-0.6971957087516785,2.758295774459839,0.44025561213493347
-0.7243507504463196,2.7835233211517334,0.4430840015411377
-0.739739179611206,2.763795852661133,0.43878209590911865
-0.7631108164787292,2.7737631797790527,0.43921419978141785
-0.7840845584869385,2.776276111602783,0.438229501247406
-1.7713463306427002,6.113792419433594,0.9619147777557373
-1.8035824298858643,6.068882465362549,0.9517191052436829
-1.8320260047912598,6.0126848220825195,0.9398297667503357
-1.8694151639938354,5.985753059387207,0.932559072971344
-1.8982124328613281,5.932840347290039,0.921318769454956
-1.9287341833114624,5.891312122344971,0.9113081693649292
-1.9618498086929321,5.85677433013916,0.9023556113243103
-1.9875757694244385,5.804002285003662,0.8907399773597717
-2.0203638076782227,5.768952369689941,0.8818081021308899
-2.0503194332122803,5.726381301879883,0.8717860579490662
-2.0860249996185303,5.701984882354736,0.8644384145736694
-2.105483293533325,5.6379804611206055,0.8507153987884521
-2.135826349258423,5.602644920349121,0.8413422703742981
-2.1711819171905518,5.581645965576172,0.8342042565345764
-2.2329916954040527,5.624800682067871,0.83655846118927
-2.2941079139709473,5.663766860961914,0.8382440805435181
-2.3471057415008545,5.684898376464844,0.836814820766449
-2.370798110961914,5.634106636047363,0.824617862701416
-2.397825241088867,5.594177722930908,0.8141800165176392
-2.463179349899292,5.638651371002197,0.8158417344093323
-2.5530972480773926,5.7354841232299805,0.8249458074569702
-2.5250773429870605,5.570802688598633,0.7962294220924377
-2.532006025314331,5.487786293029785,0.7790577411651611
-2.5900065898895264,5.5174102783203125,0.7780207991600037
-2.628314733505249,5.500368118286133,0.7701802849769592
-2.655109167098999,5.458436012268066,0.7588495016098022
-2.678632974624634,5.413468837738037,0.7469379305839539
-2.711751937866211,5.3894267082214355,0.73762446641922
-2.724627733230591,5.327484607696533,0.7233148217201233
-2.7654850482940674,5.316298007965088,0.7156650424003601
-1.6508740186691284,3.120415687561035,0.4164421856403351
-1.6680986881256104,3.10312819480896,0.41032272577285767
-1.1753146648406982,2.1526427268981934,0.281941294670105
-1.186316967010498,2.1382219791412354,0.2772590219974518
-1.7200665473937988,3.050048589706421,0.39139246940612793
-1.7257007360458374,3.011833667755127,0.38234540820121765
-1.757185459136963,3.021279811859131,0.379191517829895
-1.7651703357696533,2.990304470062256,0.3709806799888611
-1.23501718044281,2.058845043182373,0.2521634101867676
-1.773003101348877,2.9100935459136963,0.3518427014350891
-1.8041943311691284,2.9190425872802734,0.3481128215789795
-1.8232017755508423,2.907938003540039,0.34196850657463074
-1.856166958808899,2.9154763221740723,0.33761224150657654
-1.8808518648147583,2.909665107727051,0.33152276277542114
-1.9145359992980957,2.9209911823272705,0.32727718353271484
-1.9424529075622559,2.921987533569336,0.32167983055114746
-1.9717775583267212,2.9218990802764893,0.3155353367328644
-2.013066291809082,2.9417030811309814,0.31132972240448
-2.0477089881896973,2.9517405033111572,0.3058122396469116
-2.048170328140259,2.9095447063446045,0.29441356658935547
-2.8528170585632324,3.996145486831665,0.39442935585975647
-2.8780887126922607,3.9791338443756104,0.3826490044593811
-2.91947603225708,3.9791228771209717,0.3714944124221802
-2.945868492126465,3.960845947265625,0.3582257032394409
-1.9066307544708252,2.690309524536133,-0.1488300859928131
-1.9068262577056885,2.732569932937622,-0.15985947847366333
-1.872861623764038,2.72705340385437,-0.16800342500209808
-1.8488842248916626,2.733400583267212,-0.17637211084365845
-1.8411380052566528,2.7662062644958496,-0.1863584816455841
-1.8207640647888184,2.7790801525115967,-0.19480369985103607
-1.9595266580581665,3.037075996398926,-0.22078296542167664
-1.9533344507217407,3.0774099826812744,-0.23161886632442474
-1.930429220199585,3.0911569595336914,-0.2404291331768036
-1.2736800909042358,2.071611166000366,-0.16605007648468018
-1.88520085811615,3.1176083087921143,-0.25719767808914185
-1.858350396156311,3.1239404678344727,-0.26483234763145447
-2.104037284851074,3.593404769897461,-0.31243497133255005
-1.1833792924880981,2.055539608001709,-0.18320757150650024
-1.2008031606674194,2.121356248855591,-0.19357997179031372
-2.5876059532165527,4.646365165710449,-0.4333740770816803
-2.5542068481445312,4.663778781890869,-0.44432348012924194
-2.530864953994751,4.701973915100098,-0.45723968744277954
-2.5073325634002686,4.739925384521484,-0.4701725244522095
-2.4774863719940186,4.7633137702941895,-0.4813956320285797
-2.451725959777832,4.797414779663086,-0.49360090494155884
-2.42012882232666,4.8210554122924805,-0.504764974117279
-2.3996689319610596,4.864912509918213,-0.517876923084259
-2.3781538009643555,4.908944606781006,-0.5312147736549377
-2.349024534225464,4.939078330993652,-0.5428029894828796
-2.3179993629455566,4.965473175048828,-0.554034411907196
-2.2959792613983154,5.008814811706543,-0.5669786334037781
-2.2732274532318115,5.052172660827637,-0.5799769759178162
-2.247626781463623,5.092238426208496,-0.5924854278564453
-2.0328738689422607,4.697549819946289,-0.553945004940033
-1.9259587526321411,4.627005100250244,-0.5594999194145203
-1.8617091178894043,4.564322471618652,-0.5584813952445984
-1.8402862548828125,4.605458736419678,-0.5701149106025696
-1.8285667896270752,4.6716790199279785,-0.5849407315254211
-1.3303790092468262,3.4700284004211426,-0.4392741024494171
-1.7702080011367798,4.716996192932129,-0.6033292412757874
-1.7283525466918945,4.70672607421875,-0.6082090139389038
-2.0098865032196045,5.593472480773926,-0.7300195693969727
-1.024098515510559,2.9148056507110596,-0.3842529356479645
-0.9780731201171875,2.8481545448303223,-0.3788946866989136
-0.9416570067405701,2.8067455291748047,-0.376770943403244
-0.8941295742988586,2.728066921234131,-0.36945125460624695
-0.8655687570571899,2.704200267791748,-0.36942002177238464
-0.8172402381896973,2.6174068450927734,-0.3605295717716217
-0.7817437052726746,2.5670766830444336,-0.3563888669013977
-0.7635869383811951,2.5720503330230713,-0.3598744869232178
-0.7519910931587219,2.599165678024292,-0.3664787709712982
-0.7493911981582642,2.659801721572876,-0.3778060972690582
-0.7386855483055115,2.6944386959075928,-0.3853655457496643
-0.713260293006897,2.676779270172119,-0.385515421628952
-0.709075927734375,2.73740291595459,-0.3969106078147888
-0.6814256906509399,2.708054542541504,-0.3953012526035309
-0.6678187251091003,2.7348976135253906,-0.40158116817474365
-0.652951180934906,2.757915496826172,-0.4073534309864044
-0.6367089748382568,2.7771263122558594,-0.41264021396636963
-0.6205977201461792,2.7961628437042236,-0.4179022014141083
-0.6009483933448792,2.8000290393829346,-0.42072591185569763
-0.5859130620956421,2.826496124267578,-0.42681169509887695
-0.5713142156600952,2.8566646575927734,-0.4335120916366577
-0.5568445920944214,2.890585422515869,-0.4408683180809021
-0.5394660830497742,2.909183979034424,-0.4458830654621124
-0.5231059193611145,2.935351848602295,-0.45173394680023193
-0.504428505897522,2.950009346008301,-0.4558591842651367
-0.4863126575946808,2.968337059020996,-0.46058037877082825
-0.4712401032447815,3.0094778537750244,-0.46892669796943665
-0.4536600410938263,3.0352609157562256,-0.4746772050857544
-0.43621426820755005,3.064800500869751,-0.4808613955974579
-0.4178844094276428,3.09040904045105,-0.48647600412368774
-0.39730533957481384,3.100586414337158,-0.4896974265575409
-0.3784346282482147,3.1259498596191406,-0.4953591823577881
-0.3618510663509369,3.1781461238861084,-0.5048941969871521
-0.3395769000053406,3.1803486347198486,-0.506493091583252
-0.31736600399017334,3.1823878288269043,-0.5080862641334534
-0.3009174168109894,3.245722532272339,-0.5195108652114868
-0.2792764902114868,3.2590417861938477,-0.5227877497673035
-0.2579745054244995,3.283827066421509,-0.5276440382003784
-0.2339540272951126,3.2699759006500244,-0.5263062715530396
-0.3003803491592407,4.653004169464111,-0.7502018809318542
-0.26532453298568726,4.608522415161133,-0.7443482875823975
-0.2314380705356598,4.57543420791626,-0.7397570610046387
-0.19763392210006714,4.5459980964660645,-0.735649824142456
-0.16540223360061646,4.531711101531982,-0.7340115904808044
-0.13314634561538696,4.505632400512695,-0.7304899096488953
-0.10138107091188431,4.483203887939453,-0.7274402379989624
-0.06988663971424103,4.4606451988220215,-0.7238261699676514
-0.038374412804841995,4.461004257202148,-0.7239674925804138
-0.007244354113936424,4.411015510559082,-0.7159705758094788
0.0234545711427927,4.410937309265137,-0.7161082625389099
0.054056789726018906,4.403000831604004,-0.7145801782608032
0.07946529984474182,4.128890514373779,-0.6696310043334961
0.1095120832324028,4.178432464599609,-0.6772308945655823
0.1403091996908188,4.216180801391602,-0.6829372048377991
0.16539683938026428,4.111159324645996,-0.6655634045600891
0.19881828129291534,4.214104175567627,-0.6812224984169006
0.23489129543304443,4.339895248413086,-0.7005479335784912
0.2544792890548706,4.165128231048584,-0.6713972091674805
0.28393805027008057,4.163417339324951,-0.6701981425285339
0.3097170293331146,4.119262218475342,-0.6619758009910583
0.3408344089984894,4.148055553436279,-0.6651141047477722
0.37270888686180115,4.180459499359131,-0.668840229511261
0.40622493624687195,4.224137783050537,-0.6743709444999695
0.5158138275146484,4.992830276489258,-0.7953755855560303
0.5495878458023071,4.981902599334717,-0.7913899421691895
0.585951566696167,4.993762016296387,-0.7908936738967896
0.6144093871116638,4.940253257751465,-0.7800986766815186
0.6377819776535034,4.852123260498047,-0.7639265656471252
0.6816641092300415,4.916784763336182,-0.7716753482818604
0.7146520018577576,4.904860019683838,-0.7668864130973816
0.7451744675636292,4.877443790435791,-0.7597305178642273
0.7766858339309692,4.857442855834961,-0.7537788152694702
0.6533927321434021,3.911679744720459,-0.6047534942626953
0.675232470035553,3.8771069049835205,-0.5968534350395203
0.7011928558349609,3.865175724029541,-0.5922349095344543
0.7322863340377808,3.8835136890411377,-0.5923195481300354
0.7519453763961792,3.8409152030944824,-0.5831336379051208
0.7687252759933472,3.78686785697937,-0.5722614526748657
0.7965207695960999,3.7895944118499756,-0.5695757269859314
0.8265112042427063,3.7995753288269043,-0.5679333209991455
0.8495678305625916,3.7792160511016846,-0.5618219375610352
0.8759658336639404,3.77375864982605,-0.5579551458358765
0.8877636790275574,3.7080161571502686,-0.5450006723403931
0.9124884605407715,3.6986470222473145,-0.5402166247367859
0.9347851872444153,3.677741289138794,-0.5337225198745728
0.9653855562210083,3.6904423236846924,-0.5321629047393799
0.9881698489189148,3.673008918762207,-0.526238203048706
1.01356840133667,3.6667449474334717,-0.5215944051742554
1.0389541387557983,3.660292625427246,-0.5169445872306824
1.062752604484558,3.6460604667663574,-0.5111377239227295
1.0838159322738647,3.624347686767578,-0.5043841004371643
1.1066778898239136,3.610011577606201,-0.49846431612968445
1.1269587278366089,3.588184356689453,-0.4914352595806122
1.151842474937439,3.5809576511383057,-0.4864283502101898
1.1749082803726196,3.5659937858581543,-0.4802970290184021
1.1972993612289429,3.55104923248291,-0.47418099641799927
1.2268160581588745,3.558074951171875,-0.47078314423561096
1.259088158607483,3.5721638202667236,-0.46829304099082947
1.2735871076583862,3.5347816944122314,-0.4590208828449249
1.3117929697036743,3.5628435611724854,-0.4582514464855194
1.6029863357543945,4.262267112731934,-0.5425277352333069
1.6351110935211182,4.259234428405762,-0.53653883934021
1.6648117303848267,4.248591899871826,-0.5295356512069702
1.687453031539917,4.219634532928467,-0.5202579498291016
1.7107210159301758,4.1943745613098145,-0.5113024711608887
1.7430001497268677,4.190370559692383,-0.504790723323822
1.769026756286621,4.171894550323486,-0.49660372734069824
1.7951761484146118,4.153125762939453,-0.48836448788642883
1.8238388299942017,4.141497611999512,-0.4808540940284729
1.8425787687301636,4.108536720275879,-0.4708207845687866
1.868209719657898,4.089288711547852,-0.4622458517551422
1.8969347476959229,4.076916217803955,-0.4544820487499237
1.9150890111923218,4.043496608734131,-0.444331556558609
1.9460071325302124,4.038200855255127,-0.4372231662273407
1.9687336683273315,4.015039920806885,-0.42812207341194153
1.993971347808838,3.9947493076324463,-0.419136106967926
2.0179553031921387,3.974816083908081,-0.4102485179901123
2.0449564456939697,3.9618325233459473,-0.4020516276359558
2.072361946105957,3.9484081268310547,-0.39370253682136536
2.0890395641326904,3.9139976501464844,-0.3832239508628845
2.119333505630493,3.9073591232299805,-0.37540873885154724
2.1386067867279053,3.8798959255218506,-0.36547258496284485
2.1219234466552734,3.7875335216522217,-0.34948208928108215
2.1560816764831543,3.7869226932525635,-0.3420354723930359
2.181511402130127,3.77311110496521,-0.3333161175251007
2.195281982421875,3.73880672454834,-0.3227616846561432
2.2339980602264404,3.743842363357544,-0.3152085542678833
2.2594122886657715,3.7293198108673096,-0.30608391761779785
2.2720065116882324,3.6949777603149414,-0.29536864161491394
2.289449691772461,3.666574716567993,-0.28486138582229614
2.3230385780334473,3.664592742919922,-0.2763439118862152
2.339197874069214,3.636489152908325,-0.26570069789886475
2.3641226291656494,3.621044397354126,-0.2558409571647644
2.402236223220825,3.6246836185455322,-0.24705760180950165
2.4042506217956543,3.577122211456299,-0.2348172813653946
2.4373669624328613,3.574214458465576,-0.2252293974161148
