X,Y,Z
0.7423735857009888,4.8271484375,-0.5071020126342773
0.773203432559967,4.806805610656738,-0.503207266330719
0.8025807738304138,4.778587341308594,-0.4985218048095703
0.8491902947425842,4.84968376159668,-0.5041937232017517
0.8793152570724487,4.820858478546143,-0.49945148825645447
0.9110963940620422,4.807324409484863,-0.49593889713287354
0.9412237405776978,4.78595495223999,-0.491639643907547
0.9681128263473511,4.749138355255127,-0.48578953742980957
0.9995895028114319,4.73494815826416,-0.48227888345718384
1.0305609703063965,4.7166571617126465,-0.4782750606536865
1.0579025745391846,4.687004089355469,-0.4728856086730957
1.0884124040603638,4.672340393066406,-0.46904632449150085
1.1189996004104614,4.65742301940918,-0.46519479155540466
1.1495840549468994,4.642267227172852,-0.4613385796546936
1.1764830350875854,4.611778259277344,-0.45579129457473755
1.2081615924835205,4.603918075561523,-0.4523632228374481
1.2347227334976196,4.5770649909973145,-0.44710105657577515
1.262452483177185,4.553690433502197,-0.4421825110912323
1.2877854108810425,4.522665500640869,-0.43656423687934875
1.3194550275802612,4.513888359069824,-0.43281713128089905
1.3481806516647339,4.497629165649414,-0.4283596873283386
1.3746016025543213,4.4737043380737305,-0.42319345474243164
1.4080864191055298,4.471794605255127,-0.42010483145713806
1.429580807685852,4.4326348304748535,-0.41349008679389954
1.4591315984725952,4.419280529022217,-0.4090375602245331
1.4905736446380615,4.41325569152832,-0.40533334016799927
1.5046560764312744,4.355356693267822,-0.3968692421913147
1.2614716291427612,3.570775270462036,-0.3227863013744354
1.2886303663253784,3.5696563720703125,-0.3199537396430969
1.3156578540802002,3.5684006214141846,-0.31704702973365784
1.6108607053756714,4.277163982391357,-0.3765932321548462
1.6434650421142578,4.2734694480896,-0.37284937500953674
1.6701565980911255,4.255130290985107,-0.3677886724472046
1.699005365371704,4.244087219238281,-0.3632226884365082
1.7263391017913818,4.2292256355285645,-0.35834580659866333
1.7443515062332153,4.18850040435791,-0.3511616587638855
1.7705116271972656,4.169436454772949,-0.3459056317806244
1.7925926446914673,4.1434173583984375,-0.3399174213409424
1.8143759965896606,4.117294788360596,-0.33395737409591675
1.8460191488265991,4.1121416091918945,-0.3296431005001068
1.8784167766571045,4.106415271759033,-0.32518377900123596
1.902985692024231,4.086890697479248,-0.319581538438797
1.9338475465774536,4.0813984870910645,-0.31505507230758667
1.9585449695587158,4.061351776123047,-0.3093307912349701
1.9766091108322144,4.026955604553223,-0.30249422788619995
2.007899045944214,4.020564556121826,-0.2976161539554596
2.03137469291687,4.000405788421631,-0.2917681634426117
2.0571236610412598,3.9832353591918945,-0.2860543429851532
2.081315279006958,3.962238073348999,-0.28002607822418213
2.1006784439086914,3.9347269535064697,-0.2734920084476471
2.126988410949707,3.9209516048431396,-0.26792433857917786
2.1432580947875977,3.885779857635498,-0.26069375872612
2.1339895725250244,3.8065364360809326,-0.25066080689430237
2.1592490673065186,3.7926392555236816,-0.2449292093515396
2.2001938819885254,3.805490493774414,-0.2408701479434967
2.203005790710449,3.750054359436035,-0.23230500519275665
2.2328808307647705,3.741806745529175,-0.22659924626350403
2.2696645259857178,3.7473649978637695,-0.22176587581634521
2.2830607891082764,3.7121317386627197,-0.21432583034038544
2.304678201675415,3.689915895462036,-0.20757311582565308
2.3372249603271484,3.6882331371307373,-0.20193202793598175
2.3497273921966553,3.652830123901367,-0.19423595070838928
2.379469633102417,3.64320707321167,-0.18781262636184692
2.4204485416412354,3.653965950012207,-0.18237867951393127
2.418508291244507,3.5992958545684814,-0.17357775568962097
2.434821844100952,3.5697386264801025,-0.16575254499912262
2.4627127647399902,3.5603842735290527,-0.1587609201669693
2.490891218185425,3.5505945682525635,-0.15160702168941498
2.5016493797302246,3.514633893966675,-0.14304228127002716
2.528489828109741,3.505312919616699,-0.13559827208518982
2.56624174118042,3.507155179977417,-0.12798957526683807
2.1749088764190674,2.9324569702148438,-0.10041821002960205
2.7874512672424316,3.9071943759918213,0.22129182517528534
2.7537312507629395,3.9209952354431152,0.2297181785106659
2.725428342819214,3.9402308464050293,0.23797589540481567
2.6902172565460205,3.9544191360473633,0.24580270051956177
2.6703784465789795,3.986161231994629,0.2542038857936859
2.64992356300354,4.018013954162598,0.2624575197696686
2.605616569519043,4.01853084564209,0.26866579055786133
2.5640900135040283,4.016961097717285,0.2741783559322357
2.5519840717315674,4.061095714569092,0.2826603055000305
2.51688551902771,4.073313236236572,0.2888171970844269
2.5111336708068848,4.131254196166992,0.2980971932411194
2.473623275756836,4.1352081298828125,0.303366482257843
2.44292950630188,4.1529693603515625,0.30940932035446167
2.4193358421325684,4.184327125549316,0.3164442479610443
2.3856871128082275,4.194204807281494,0.32160770893096924
2.3410282135009766,4.183172225952148,0.3250848948955536
2.265935182571411,4.121896743774414,0.32442960143089294
2.2276313304901123,4.12459659576416,0.3286595046520233
2.21683669090271,4.174178600311279,0.3364216387271881
2.1911780834198,4.196091651916504,0.3419882655143738
2.160041332244873,4.2118096351623535,0.3468253016471863
2.128152847290039,4.227604866027832,0.3517482876777649
2.10506010055542,4.256155014038086,0.3575361669063568
2.0803964138031006,4.280875205993652,0.36299100518226624
2.0459680557250977,4.288430690765381,0.36682596802711487
2.0143346786499023,4.303005218505859,0.3711931109428406
1.9928785562515259,4.3383378982543945,0.37733393907546997
1.95238196849823,4.330729007720947,0.3797035813331604
1.9895812273025513,4.497114181518555,0.3973405063152313
1.9674322605133057,4.5362091064453125,0.40363016724586487
1.9372005462646484,4.5572991371154785,0.4083594083786011
1.9138126373291016,4.592127799987793,0.4142684042453766
4.2434611320495605,10.388890266418457,0.9435516595840454
4.184079647064209,10.454100608825684,0.9554719924926758
1.84445321559906,4.707272529602051,0.4327508211135864
1.79477059841156,4.680274963378906,0.43278422951698303
1.7685861587524414,4.710690498352051,0.4380534887313843
1.3258131742477417,3.608752727508545,0.33748623728752136
1.308089256286621,3.639786720275879,0.34218114614486694
1.2765549421310425,3.6342382431030273,0.3433055281639099
1.6265496015548706,4.7397685050964355,0.44989803433418274
1.5967094898223877,4.761912822723389,0.4541322588920593
1.567714810371399,4.7876081466674805,0.45874786376953125
1.5459336042404175,4.835244655609131,0.4653976559638977
1.5041122436523438,4.823700428009033,0.4661087691783905
1.4783726930618286,4.863906383514404,0.47184762358665466
1.4459257125854492,4.881488800048828,0.47540783882141113
1.4161628484725952,4.906128883361816,0.47964993119239807
1.3991416692733765,4.979438781738281,0.4887396991252899
1.349222183227539,4.936529159545898,0.4861127734184265
1.28580904006958,4.840610980987549,0.4781847298145294
1.2578867673873901,4.875818252563477,0.4832080900669098
1.2218890190124512,4.876712322235107,0.48482269048690796
1.1964313983917236,4.9228034019470215,0.4909881353378296
1.16542387008667,4.945988178253174,0.4947727620601654
1.1353126764297485,4.976710796356201,0.4990912675857544
1.1023093461990356,4.995863437652588,0.5022834539413452
1.07339608669281,5.033752918243408,0.5073864459991455
1.039298415184021,5.0486345291137695,0.5102055668830872
1.004140019416809,5.055540561676025,0.5122231245040894
0.971451461315155,5.077572822570801,0.5155649185180664
2.1254594326019287,11.552140235900879,1.1752086877822876
2.0130746364593506,11.394302368164062,1.1614049673080444
1.9055894613265991,11.254744529724121,1.1494778394699097
1.7961459159851074,11.075544357299805,1.1334259510040283
1.7000073194503784,10.964516639709473,1.124340534210205
1.5994791984558105,10.818299293518066,1.1109774112701416
1.5035734176635742,10.690513610839844,1.099349856376648
1.40823495388031,10.562100410461426,1.087700366973877
1.313366413116455,10.405654907226562,1.0731325149536133
1.2289996147155762,10.313960075378418,1.0652456283569336
1.1503019332885742,10.260221481323242,1.0613055229187012
1.061206579208374,10.10555648803711,1.046240210533142
0.9924308061599731,10.135799407958984,1.0502650737762451
0.392736554145813,4.330187797546387,0.44910216331481934
0.35794246196746826,4.278546333312988,0.4441640079021454
0.32813552021980286,4.28086519241333,0.4448426067829132
0.2988535463809967,4.2907280921936035,0.4463275969028473
0.27267587184906006,4.354719161987305,0.45317769050598145
0.310865581035614,5.605667591094971,0.5835976004600525
0.27307021617889404,5.638705730438232,0.5873019695281982
0.2345840483903885,5.659832000732422,0.5897951722145081
0.19601066410541534,5.684575080871582,0.5926957130432129
0.15737856924533844,5.716819763183594,0.5964097380638123
0.1173352524638176,5.741087913513184,0.5989354252815247
0.07772757112979889,5.768956184387207,0.6018030643463135
0.03717102110385895,5.718848705291748,0.5965656042098999
-0.002582120941951871,5.711195468902588,0.5957857370376587
-0.03164152801036835,4.273564338684082,0.4458490312099457
-0.06071111932396889,4.191650867462158,0.4373602867126465
-0.08914453536272049,4.160079479217529,0.43387550115585327
-0.11503972113132477,4.054534435272217,0.4226384162902832
-0.1455085426568985,4.119677543640137,0.42921650409698486
-0.1688467562198639,3.994381904602051,0.4159764349460602
-0.17505508661270142,3.5546321868896484,0.3700326383113861
-0.19886206090450287,3.5300588607788086,0.36734336614608765
-0.2242754101753235,3.5441555976867676,0.3685014247894287
-0.26890724897384644,3.829392671585083,0.3977639675140381
-0.3040389120578766,3.939847707748413,0.40885013341903687
-0.31961753964424133,3.79831862449646,0.3938075304031372
-0.34010612964630127,3.726372480392456,0.3860110938549042
-0.35689035058021545,3.6311657428741455,0.3758435845375061
-0.37871935963630676,3.5977728366851807,0.37192103266716003
-0.40605735778808594,3.618335723876953,0.37350714206695557
-0.4318941831588745,3.62325382232666,0.3734906017780304
-0.4554247558116913,3.6047897338867188,0.37107211351394653
-0.4784180819988251,3.586212635040283,0.36867043375968933
-0.49901261925697327,3.552096128463745,0.3646952509880066
-0.522335946559906,3.5409860610961914,0.36292362213134766
-0.5442291498184204,3.5220675468444824,0.3602811098098755
-0.5700051188468933,3.525973320007324,0.35998058319091797
-0.5911170244216919,3.502898693084717,0.35695114731788635
-1.1111021041870117,6.316231727600098,0.642439067363739
-1.164838433265686,6.362069606781006,0.6459258198738098
-1.216522455215454,6.3961501121521,0.6478975415229797
-1.2692006826400757,6.433703422546387,0.6501046419143677
-1.3271921873092651,6.489708423614502,0.6541492342948914
-1.3792518377304077,6.514861583709717,0.6551027297973633
-1.436144471168518,6.558537006378174,0.6579199433326721
-1.4688290357589722,6.491772174835205,0.6496906280517578
-1.5078152418136597,6.459167003631592,0.6445053219795227
-1.5433623790740967,6.411080837249756,0.6377331018447876
-0.6914699077606201,2.7889976501464844,0.276597797870636
-0.6982995271682739,2.7352840900421143,0.2704465389251709
-0.7222824692726135,2.749284267425537,0.2710091173648834
-0.7413488626480103,2.744335174560547,0.269682377576828
-0.7706716060638428,2.7767746448516846,0.27184465527534485
-0.7873668670654297,2.7641468048095703,0.26961350440979004
-0.9480067491531372,3.2441837787628174,0.3152737319469452
-0.9884018301963806,3.2973036766052246,0.31924188137054443
-1.0158995389938354,3.305394411087036,0.31883713603019714
-1.0342211723327637,3.283590078353882,0.31541621685028076
-1.063522458076477,3.298945426940918,0.31550300121307373
-1.073580026626587,3.254941701889038,0.30993324518203735
-1.0934637784957886,3.2403011322021484,0.307166188955307
-1.9857051372528076,5.752110958099365,0.5428226590156555
-2.0203757286071777,5.723876476287842,0.5376883149147034
-2.0515644550323486,5.688342571258545,0.5315359234809875
-2.0816476345062256,5.652902126312256,0.5254899263381958
-2.1104331016540527,5.613499641418457,0.5190896987915039
-2.1355984210968018,5.562685966491699,0.5116170644760132
-2.1715190410614014,5.540778636932373,0.5068497061729431
-1.5750623941421509,3.939525604248047,0.35816964507102966
-1.5852621793746948,3.8895156383514404,0.3514555096626282
-1.6084364652633667,3.8718409538269043,0.34769406914711
-1.5731889009475708,3.713822603225708,0.3313544988632202
-1.5851750373840332,3.670860767364502,0.32540321350097656
-1.5946054458618164,3.624565362930298,0.31899377703666687
-1.6187684535980225,3.614121198654175,0.3157762885093689
-1.6317319869995117,3.578631639480591,0.31038349866867065
-1.6534005403518677,3.560375213623047,0.3064332604408264
-1.6648741960525513,3.5208754539489746,0.3006957769393921
-1.6886473894119263,3.5098350048065186,0.2971804738044739
-1.7050237655639648,3.484863042831421,0.29255133867263794
-1.7113269567489624,3.4386088848114014,0.28611913323402405
-1.7194790840148926,3.3955819606781006,0.27994805574417114
-1.739147663116455,3.377084732055664,0.2757733464241028
-1.7686126232147217,3.3796470165252686,0.2732119560241699
-2.475572347640991,4.6546478271484375,0.3723893463611603
-2.4820613861083984,4.589691162109375,0.3631892204284668
-1.1678718328475952,2.1241061687469482,0.1662215143442154
-1.1855735778808594,2.1234078407287598,0.16419637203216553
-2.5488741397857666,4.496045112609863,0.3434777557849884
-2.580230712890625,4.478565216064453,0.33767977356910706
-2.5995852947235107,4.440710544586182,0.3303911089897156
-2.6066746711730957,4.387175559997559,0.321851521730423
-1.2521331310272217,2.0767741203308105,0.1501777321100235
-2.644753932952881,4.319536209106445,0.3075374364852905
-2.6588685512542725,4.2746148109436035,0.29936227202415466
-2.967352867126465,4.703017234802246,0.3237660825252533
-2.0770480632781982,3.245375156402588,0.219512477517128
-2.1082708835601807,3.2441508769989014,0.2151867151260376
-2.1472065448760986,3.256301164627075,0.2116529494524002
-2.172743320465088,3.249054431915283,0.2066832184791565
-2.2451748847961426,3.3087992668151855,0.20567438006401062
-2.27219820022583,3.300143003463745,0.2001478224992752
-2.2929847240448,3.2860898971557617,0.1942208856344223
-2.3487343788146973,3.318814754486084,0.1906813085079193
-2.394455909729004,3.3345274925231934,0.1856599897146225
-2.8950445652008057,3.9794509410858154,0.21449722349643707
-2.903489589691162,3.9350218772888184,0.20442239940166473
-3.0100624561309814,4.212366580963135,-0.15701782703399658
-2.4345009326934814,3.46186900138855,-0.13638149201869965
-2.7859654426574707,4.020847797393799,-0.16618183255195618
-2.7595677375793457,4.04810094833374,-0.1750461906194687
-2.738931655883789,4.0805511474609375,-0.18376649916172028
-2.2187793254852295,3.35736083984375,-0.15697847306728363
-1.3314570188522339,2.048635721206665,-0.09932837635278702
-1.2727667093276978,1.9887813329696655,-0.0995568335056305
-1.3020395040512085,2.067091941833496,-0.10666113346815109
-1.2659860849380493,2.043412685394287,-0.10854518413543701
-1.2637205123901367,2.0721046924591064,-0.11302001029253006
-2.015467405319214,3.3591153621673584,-0.1879851371049881
-2.00434947013855,3.397200107574463,-0.19479206204414368
-1.9780528545379639,3.407762289047241,-0.19988587498664856
-1.9676611423492432,3.444949150085449,-0.20647642016410828
-1.1878676414489746,2.115560293197632,-0.12944436073303223
-1.9353454113006592,3.507188558578491,-0.21898651123046875
-1.9237371683120728,3.5443503856658936,-0.22547918558120728
-1.92392098903656,3.6059350967407227,-0.233559250831604
-1.890148401260376,3.6058237552642822,-0.23765049874782562
-1.759068489074707,3.414351463317871,-0.2287767082452774
-1.713631272315979,3.3847131729125977,-0.23048202693462372
-1.685618281364441,3.389747381210327,-0.23434200882911682
-1.6609103679656982,3.4016213417053223,-0.23866499960422516
-1.65045166015625,3.441033363342285,-0.2448408156633377
-1.7177410125732422,3.646123170852661,-0.2630152106285095
-1.6978241205215454,3.6723110675811768,-0.26835647225379944
-1.6675081253051758,3.6772961616516113,-0.2722269892692566
-2.262805700302124,5.084292411804199,-0.38099709153175354
-2.2318336963653564,5.110291004180908,-0.38755661249160767
-2.1810672283172607,5.093614101409912,-0.39063337445259094
-2.1472058296203613,5.116007328033447,-0.396710067987442
-2.2039618492126465,5.357792854309082,-0.4199676215648651
-2.1840100288391113,5.415957450866699,-0.4289720356464386
-2.149489164352417,5.441886901855469,-0.4352577030658722
-2.121619462966919,5.485804557800293,-0.4429922103881836
-1.339352011680603,3.536896228790283,-0.2882918119430542
-2.0640201568603516,5.569210529327393,-0.4581867754459381
-2.0298919677734375,5.597887992858887,-0.46455276012420654
-1.9455575942993164,5.487052917480469,-0.4591642916202545
-1.6170377731323242,4.665158748626709,-0.3936087191104889
-1.5781878232955933,4.657547950744629,-0.39613091945648193
-1.8984745740890503,5.736534595489502,-0.49179843068122864
-1.8646904230117798,5.771757125854492,-0.4983859956264496
-0.9773051142692566,3.1001596450805664,-0.2696153521537781
-0.9532765746116638,3.099273443222046,-0.27143004536628723
-0.8824329376220703,2.94158673286438,-0.25941258668899536
-0.7983037233352661,2.7308731079101562,-0.24237404763698578
-0.7668442130088806,2.695211887359619,-0.24070590734481812
-0.7498526573181152,2.7078921794891357,-0.243316650390625
-0.7349869608879089,2.7279164791107178,-0.24659280478954315
-0.7100098729133606,2.7102224826812744,-0.24644750356674194
-0.7032453417778015,2.7640533447265625,-0.25265511870384216
-1.4877543449401855,6.028854846954346,-0.5540133714675903
-1.478975772857666,6.178781986236572,-0.5707273483276367
-1.4632035493850708,6.30604887008667,-0.5854774713516235
-1.4189900159835815,6.315798759460449,-0.5891968607902527
-1.3694723844528198,6.302515983581543,-0.5905027389526367
-1.3162308931350708,6.273783206939697,-0.5904111862182617
-1.2654422521591187,6.248193264007568,-0.5905454754829407
-1.2143816947937012,6.2183756828308105,-0.5902763605117798
-1.1598776578903198,6.169137001037598,-0.5878045558929443
-1.1108183860778809,6.146277904510498,-0.5876845121383667
-1.0309123992919922,5.946887016296387,-0.5706657767295837
-0.9385066032409668,5.646770000457764,-0.5437765121459961
-0.9541764855384827,5.998546123504639,-0.5797046422958374
-0.9132648706436157,6.0125603675842285,-0.5826918482780457
-0.707309365272522,4.887233257293701,-0.4749358296394348
-0.6767333149909973,4.92278528213501,-0.4797428250312805
-0.636936366558075,4.884791851043701,-0.47737228870391846
-0.7251750826835632,5.880620002746582,-0.5763015151023865
-0.6924952864646912,5.958771705627441,-0.5851204991340637
-0.647368848323822,5.932397365570068,-0.5837123990058899
-0.5999839901924133,5.878602981567383,-0.5796141028404236
-0.5554555058479309,5.851578235626221,-0.5781803131103516
-0.5140506625175476,5.847406387329102,-0.5789249539375305
-0.47036993503570557,5.8158769607543945,-0.5765370726585388
-0.2539156377315521,3.4386284351348877,-0.3413271903991699
-0.23280015587806702,3.4829158782958984,-0.3461942970752716
-0.20862923562526703,3.492171287536621,-0.3476102948188782
-0.3002120852470398,5.690496444702148,-0.5671342015266418
-0.25911712646484375,5.661334991455078,-0.5645608305931091
-0.21799138188362122,5.620226860046387,-0.5608189702033997
-0.1783648133277893,5.606017112731934,-0.5597841143608093
-0.1376948058605194,5.568230152130127,-0.5564255714416504
-0.0987575352191925,5.557358264923096,-0.5556198954582214
-0.059742651879787445,5.52681827545166,-0.5525103807449341
-0.017282241955399513,4.489311218261719,-0.44876807928085327
0.013838358223438263,4.4621148109436035,-0.4460473656654358
0.05515953525900841,5.421915054321289,-0.5420163869857788
0.09270238876342773,5.413644790649414,-0.5410692691802979
0.13025541603565216,5.4129204750061035,-0.5405814051628113
0.12531480193138123,4.040496349334717,-0.4032280147075653
0.20071695744991302,5.286391735076904,-0.5272086262702942
0.19050320982933044,4.240360260009766,-0.42262354493141174
0.2230624109506607,4.289426803588867,-0.4271109998226166
0.2502683401107788,4.2451701164245605,-0.42209959030151367
0.2771272659301758,4.204620361328125,-0.41748854517936707
0.3049209713935852,4.183283805847168,-0.41481173038482666
0.33428874611854553,4.185013294219971,-0.41444435715675354
0.367207795381546,4.221368789672852,-0.41733860969543457
0.47099003195762634,5.0122880935668945,-0.49447593092918396
0.5079892873764038,5.032251834869385,-0.4954093396663666
0.5384083986282349,4.98621129989624,-0.48986613750457764
0.5713211894035339,4.967026233673096,-0.4869968593120575
0.6016867756843567,4.924429416656494,-0.4816283583641052
0.6347377300262451,4.912608623504639,-0.47912561893463135
0.6650293469429016,4.881302356719971,-0.4747547507286072
0.6967386603355408,4.861334800720215,-0.471514493227005
0.731631338596344,4.86423921585083,-0.470519095659256
0.7609891295433044,4.828437805175781,-0.465531587600708
0.7879419922828674,4.784909725189209,-0.4597165584564209
0.8314470052719116,4.8408918380737305,-0.46347638964653015
0.866502046585083,4.842848777770996,-0.46204715967178345
0.8959313035011292,4.813961982727051,-0.4577026069164276
0.9276866912841797,4.800252437591553,-0.4545466899871826
0.9582773447036743,4.778614521026611,-0.45054054260253906
0.988053023815155,4.756893157958984,-0.4465932250022888
1.01789128780365,4.734920978546143,-0.44263756275177
1.0483152866363525,4.716558933258057,-0.4390515387058258
1.0772331953048706,4.694336414337158,-0.4348199665546417
1.1064863204956055,4.671802997589111,-0.43053150177001953
1.1368612051010132,4.656756401062012,-0.4269954562187195
1.1654508113861084,4.63389778137207,-0.422756165266037
1.1936907768249512,4.6108927726745605,-0.41847699880599976
1.2202681303024292,4.584085464477539,-0.4136084318161011
1.2501715421676636,4.568240642547607,-0.4097196161746979
1.2796903848648071,4.552260398864746,-0.40586361289024353
1.3070733547210693,4.5285563468933105,-0.4013364315032959
1.336161494255066,4.512234687805176,-0.3973550498485565
1.362501859664917,4.488384246826172,-0.3926014304161072
1.3914260864257812,4.471654415130615,-0.388456255197525
1.4202182292938232,4.454724311828613,-0.38431844115257263
1.4512577056884766,4.445010185241699,-0.38082626461982727
1.4791967868804932,4.427898406982422,-0.37648606300354004
1.5031479597091675,4.39957332611084,-0.37119045853614807
1.5308723449707031,4.382070064544678,-0.3668193221092224
1.2802379131317139,3.5829384326934814,-0.2974889278411865
1.299655556678772,3.5596234798431396,-0.2931118607521057
1.5973520278930664,4.284505367279053,-0.3497215211391449
1.622341513633728,4.262925148010254,-0.34489700198173523
1.6590765714645386,4.26999044418335,-0.3423287868499756
1.685050129890442,4.247565269470215,-0.33734965324401855
1.7138603925704956,4.236355304718018,-0.333144873380661
1.7366374731063843,4.210546493530273,-0.3278030455112457
1.7626290321350098,4.191610813140869,-0.32297444343566895
1.7826086282730103,4.158057689666748,-0.31702208518981934
1.8177270889282227,4.160181045532227,-0.313640832901001
1.8362925052642822,4.126773357391357,-0.3075949251651764
1.8676813840866089,4.121554851531982,-0.30363520979881287
1.8931710720062256,4.101661205291748,-0.2985299527645111
1.9179952144622803,4.08183479309082,-0.2933965027332306
1.9392145872116089,4.054859638214111,-0.2876318395137787
1.9667515754699707,4.041907787322998,-0.28291967511177063
1.9897363185882568,4.01793098449707,-0.27735862135887146
2.0102970600128174,3.9905612468719482,-0.2715463638305664
2.040576934814453,3.9842581748962402,-0.2671136260032654
2.067575693130493,3.9706459045410156,-0.26214826107025146
2.092068672180176,3.9493119716644287,-0.2565058171749115
2.118915557861328,3.9353036880493164,-0.2513807415962219
2.1413607597351074,3.9145734310150146,-0.24579203128814697
2.124418020248413,3.8217954635620117,-0.23568807542324066
2.1548728942871094,3.8139939308166504,-0.2308160811662674
2.169163942337036,3.7792439460754395,-0.2242027372121811
2.2020316123962402,3.7785730361938477,-0.21968653798103333
2.2281947135925293,3.7635252475738525,-0.2141200751066208
2.2500617504119873,3.741705894470215,-0.20813697576522827
2.274691581726074,3.727092981338501,-0.20252875983715057
2.3043689727783203,3.7183172702789307,-0.19703461229801178
2.3220198154449463,3.6892004013061523,-0.19038967788219452
2.3462741374969482,3.6741249561309814,-0.18446163833141327
2.3790109157562256,3.671926736831665,-0.17911119759082794
2.383132219314575,3.622927665710449,-0.17122498154640198
2.4030563831329346,3.6006577014923096,-0.16456036269664764
2.4353079795837402,3.5980780124664307,-0.15882274508476257
2.4471113681793213,3.5619711875915527,-0.15124206244945526
2.470216751098633,3.5462656021118164,-0.144558846950531
2.4935200214385986,3.53019380569458,-0.13768529891967773
2.5182292461395264,3.512892961502075,-0.13028356432914734
2.5357625484466553,3.490870714187622,-0.1228538528084755
2.17497181892395,2.9519362449645996,-0.0978013426065445
2.765211343765259,3.904811143875122,0.20291833579540253
2.7222023010253906,3.9059884548187256,0.2098848521709442
2.6879076957702637,3.9150736331939697,0.21673959493637085
2.676513671875,3.9648919105529785,0.2258896678686142
2.634463310241699,3.964477777481079,0.23173518478870392
2.6105101108551025,3.989227056503296,0.23876316845417023
2.588294744491577,4.021848201751709,0.24615278840065002
2.567117214202881,4.0534892082214355,0.253288596868515
2.538273334503174,4.071227073669434,0.25942668318748474
2.4993627071380615,4.076557159423828,0.26455217599868774
2.4687747955322266,4.094768047332764,0.2704522907733917
2.4439799785614014,4.118319988250732,0.2764287292957306
2.429826259613037,4.162477493286133,0.2837488353252411
2.397838592529297,4.180606365203857,0.2892948389053345
2.375108003616333,4.211111068725586,0.29549500346183777
2.3380637168884277,4.2136077880859375,0.2995942533016205
2.245669364929199,4.117250442504883,0.29643499851226807
2.2223331928253174,4.147245407104492,0.30223169922828674
2.199193000793457,4.176844596862793,0.3079790771007538
2.1734800338745117,4.198726177215576,0.3130359947681427
2.1464788913726807,4.221007823944092,0.31800979375839233
2.118597984313965,4.2434515953063965,0.3229380249977112
2.0912299156188965,4.265358924865723,0.32777872681617737
2.0608720779418945,4.279783248901367,0.33200523257255554
2.032101631164551,4.297510623931885,0.33637312054634094
2.0037436485290527,4.319086074829102,0.3409003019332886
1.9719494581222534,4.333380222320557,0.34487584233283997
1.9907995462417603,4.45705509185791,0.3575102388858795
4.455718040466309,10.164839744567871,0.8216895461082458
1.9174349308013916,4.463062763214111,0.3634200096130371
1.915004014968872,4.548453330993652,0.3729588985443115
1.886568546295166,4.572662353515625,0.37751707434654236
1.8546035289764404,4.585426330566406,0.38106995820999146
1.8340319395065308,4.626927852630615,0.3870454430580139
1.802592158317566,4.647337436676025,0.39104747772216797
1.7839949131011963,4.700071811676025,0.39776846766471863
1.353074550628662,3.642920732498169,0.31005188822746277
1.3169852495193481,3.622783660888672,0.3100418746471405
1.2969317436218262,3.6463329792022705,0.3137766420841217
1.262402892112732,3.6335103511810303,0.31419408321380615
1.608982801437378,4.740931034088135,0.41191229224205017
1.5860471725463867,4.785323143005371,0.4177401065826416
1.5502175092697144,4.78861665725708,0.41996312141418457
1.5413538217544556,4.8770222663879395,0.42970237135887146
1.5126785039901733,4.910195350646973,0.4343976676464081
1.4605088233947754,4.864805698394775,0.43206456303596497
1.4167176485061646,4.845075607299805,0.43200308084487915
1.4031788110733032,4.925722599029541,0.44087305665016174
1.366740345954895,4.927652835845947,0.4427405595779419
1.3147661685943604,4.873070240020752,0.43937432765960693
1.2703638076782227,4.848435878753662,0.43854478001594543
1.244320273399353,4.891132831573486,0.44380179047584534
1.215367078781128,4.922261714935303,0.44803041219711304
1.1865208148956299,4.953108310699463,0.4522486627101898
1.1484543085098267,4.945899963378906,0.4530182182788849
1.1177136898040771,4.9766926765441895,0.4569976329803467
1.0880565643310547,5.0109639167785645,0.461284339427948
1.0507316589355469,5.01080322265625,0.4624307155609131
1.0188473463058472,5.0330939292907715,0.46564918756484985
0.9867535829544067,5.055171966552734,0.4688759446144104
2.1851158142089844,11.633974075317383,1.0816643238067627
2.0597314834594727,11.411517143249512,1.0629653930664062
1.9548721313476562,11.287542343139648,1.0534276962280273
1.8541266918182373,11.174125671386719,1.0448716878890991
1.748165249824524,11.009764671325684,1.0315213203430176
1.6480324268341064,10.8754301071167,1.021007776260376
1.5428924560546875,10.686279296875,1.0049097537994385
1.4494901895523071,10.565670013427734,0.9948790669441223
1.3613777160644531,10.471282958984375,0.9873374700546265
1.2703543901443481,10.337536811828613,0.976093053817749
1.1849342584609985,10.230022430419922,0.9673286080360413
1.104124665260315,10.160615921020508,0.9622113704681396
1.0293892621994019,10.133116722106934,0.9606180191040039
0.40795207023620605,4.316935062408447,0.40957939624786377
0.37319034337997437,4.269274711608887,0.40540847182273865
0.3433009684085846,4.271724700927734,0.406010240316391
0.3139358460903168,4.285623073577881,0.40772518515586853
0.28719863295555115,4.334209442138672,0.4127592444419861
0.3314439356327057,5.593804359436035,0.5329980850219727
0.2927010953426361,5.6037163734436035,0.5341230034828186
0.2552410662174225,5.644437313079834,0.538212239742279
0.21565194427967072,5.6577253341674805,0.5397173762321472
0.1767815798521042,5.674598693847656,0.5415874719619751
0.13768692314624786,5.691203594207764,0.5434597134590149
0.09905224293470383,5.750333786010742,0.5491369366645813
0.059116654098033905,5.758663177490234,0.5498552918434143
0.01819564960896969,5.73949670791626,0.5479742884635925
-0.01605641283094883,4.2385101318359375,0.4046515226364136
-0.0453767254948616,4.230521202087402,0.40389132499694824
-0.07332565635442734,4.148458957672119,0.3960781991481781
-0.1010572761297226,4.105108737945557,0.3917851746082306
-0.12780383229255676,4.049925327301025,0.38628336787223816
-0.1563941389322281,4.048952102661133,0.3859701156616211
-0.27145275473594666,5.9551568031311035,0.5673894286155701
-0.18649925291538239,3.549379587173462,0.33801665902137756
-0.21118241548538208,3.5480222702026367,0.33774593472480774
-0.23809058964252472,3.581435203552246,0.3406449556350708
-0.28808239102363586,3.917140007019043,0.3721774220466614
-0.31017664074897766,3.85308575630188,0.3657239079475403
-0.32906609773635864,3.7617921829223633,0.3567159175872803
-0.3453574478626251,3.654926300048828,0.34626415371894836
-0.3641057014465332,3.5867092609405518,0.33950528502464294
-0.3909851610660553,3.599592685699463,0.3402739465236664
-0.42336395382881165,3.6625661849975586,0.3456955850124359
-0.4442882239818573,3.624898910522461,0.3416305482387543
-0.46736180782318115,3.6063833236694336,0.3393908143043518
-0.4871886968612671,3.5645809173583984,0.3349802494049072
-0.5080010294914246,3.530315399169922,0.33129534125328064
-0.5334921479225159,3.5345089435577393,0.3310759663581848
-0.5547118782997131,3.5116477012634277,0.3282639980316162
-0.589574933052063,3.5730950832366943,0.3333400785923004
-0.604378879070282,3.5115249156951904,0.32694897055625916
-1.1366480588912964,6.340785980224609,0.5892276763916016
-1.187157392501831,6.3633599281311035,0.590179443359375
-1.2477288246154785,6.443124294281006,0.5961230993270874
-1.2954477071762085,6.453752517700195,0.5955944657325745
-1.3505585193634033,6.498297691345215,0.5982045531272888
-1.4061088562011719,6.538464069366455,0.600396454334259
-1.4523488283157349,6.528571128845215,0.5979750156402588
-1.4881432056427002,6.476815223693848,0.5917797088623047
-1.5321660041809082,6.466796875,0.5889943838119507
-0.681939959526062,2.7935233116149902,0.25363487005233765
-0.7009278535842896,2.788928747177124,0.25242966413497925
-0.7167741060256958,2.7689361572265625,0.24981455504894257
-0.7320224642753601,2.748948574066162,0.24723531305789948
-0.7530534863471985,2.7514474391937256,0.2466317117214203
-0.7822452783584595,2.7838635444641113,0.2485874593257904
-0.7860077023506165,2.7262649536132812,0.2425229251384735
-0.9794328212738037,3.3105578422546387,0.29336151480674744
-1.0092060565948486,3.326169013977051,0.2936118543148041
-1.006844401359558,3.237461805343628,0.284689337015152
-1.052381992340088,3.304910182952881,0.2893521785736084
-1.0770516395568848,3.3053102493286133,0.2880818247795105
-1.097214698791504,3.290634870529175,0.2854894995689392
-1.1149859428405762,3.268376588821411,0.28224578499794006
-1.9984411001205444,5.7273478507995605,0.49229493737220764
-2.0324978828430176,5.699124813079834,0.48746392130851746
-2.0628302097320557,5.663677215576172,0.48185256123542786
-2.0940842628479004,5.631744861602783,0.4765836000442505
-2.1223533153533936,5.588165760040283,0.4702720642089844
-2.147150993347168,5.537257194519043,0.4634072780609131
-1.5591742992401123,3.9400484561920166,0.32786083221435547
-1.5636465549468994,3.87558913230896,0.3204755485057831
-1.5865840911865234,3.8580706119537354,0.3170183300971985
-1.6223961114883423,3.8687474727630615,0.31580764055252075
-1.5957756042480469,3.7322046756744385,0.30264052748680115
-1.5951323509216309,3.660587787628174,0.2948164641857147
-1.6337488889694214,3.682152032852173,0.29436254501342773
-1.6278172731399536,3.603945255279541,0.28596675395965576
-1.6382112503051758,3.560914993286133,0.28034329414367676
-1.6497955322265625,3.521411895751953,0.2750433385372162
-1.660437822341919,3.4821436405181885,0.2697429060935974
-1.686894416809082,3.478313684463501,0.26710787415504456
-1.6995822191238403,3.446322202682495,0.2623313367366791
-1.6976470947265625,3.3822429180145264,0.25502631068229675
-1.7247684001922607,3.377495288848877,0.25226694345474243
-1.7508395910263062,3.373091220855713,0.24940471351146698
-1.8385168313980103,3.485844850540161,0.255086749792099
-2.4661338329315186,4.600549697875977,0.33305904269218445
-2.509408473968506,4.604104042053223,0.32958143949508667
-1.182697057723999,2.134941577911377,0.15101434290409088
-2.546264410018921,4.526479721069336,0.3162747919559479
-2.5647153854370117,4.489482879638672,0.3097454905509949
-2.603869676589966,4.485301494598389,0.30529898405075073
-2.6105289459228516,4.427553176879883,0.2971859574317932
-1.2257570028305054,2.047990083694458,0.1354397088289261
-1.2434042692184448,2.046625852584839,0.13330577313899994
-2.6812610626220703,4.344992637634277,0.2784278392791748
-2.6895086765289307,4.294304370880127,0.2705358862876892
-2.0875673294067383,3.2861087322235107,0.20339298248291016
-2.110201358795166,3.2719123363494873,0.19863003492355347
-2.137192726135254,3.263967514038086,0.19419696927070618
-2.162310838699341,3.2570383548736572,0.18973101675510406
-2.211872100830078,3.2852060794830322,0.18716196715831757
-2.239163637161255,3.276426076889038,0.18214181065559387
-2.2984249591827393,3.3164758682250977,0.17959989607334137
-2.3375656604766846,3.3275327682495117,0.17536848783493042
-2.392514228820801,3.355903387069702,0.17149923741817474
-2.4001424312591553,3.321913957595825,0.16436982154846191
-2.8898143768310547,3.9458670616149902,0.18852704763412476
-2.921380043029785,3.932668924331665,0.1806263029575348
-2.4657249450683594,3.478569984436035,-0.12372040748596191
-2.4317269325256348,3.4831361770629883,-0.13024993240833282
-2.7621967792510986,4.018612384796143,-0.1573190540075302
-2.7533178329467773,4.071602821350098,-0.16646090149879456
-2.1772072315216064,3.2684786319732666,-0.13878490030765533
-2.1846981048583984,3.33345890045166,-0.14673647284507751
-1.311780571937561,2.0337507724761963,-0.09256638586521149
-1.3184348344802856,2.075681209564209,-0.09741680324077606
-2.6547539234161377,4.25047492980957,-0.20551922917366028
-1.2710075378417969,2.0681772232055664,-0.10278177261352539
-2.02420711517334,3.345651149749756,-0.17055337131023407
-2.0114529132843018,3.3803532123565674,-0.17656585574150085
-2.0043139457702637,3.425081968307495,-0.18312719464302063
-1.9798718690872192,3.4390079975128174,-0.18796108663082123
-1.207188606262207,2.1322195529937744,-0.1189870536327362
-1.9521920680999756,3.507946014404297,-0.1997305154800415
-1.9235599040985107,3.514573335647583,-0.2039070725440979
-1.9191792011260986,3.565511465072632,-0.21064183115959167
-1.9071141481399536,3.607044219970703,-0.2168724685907364
-1.7837507724761963,3.433626174926758,-0.20993277430534363
-1.7366948127746582,3.4005777835845947,-0.21121320128440857
-1.705556869506836,3.398606061935425,-0.21433447301387787
-1.6807819604873657,3.4106762409210205,-0.2182803601026535
-1.6592693328857422,3.429605007171631,-0.22268937528133392
-1.6452895402908325,3.4620072841644287,-0.2278795838356018
-1.7030115127563477,3.6500658988952637,-0.24342553317546844
-1.6845942735671997,3.6797916889190674,-0.24852950870990753
-1.6582717895507812,3.6914660930633545,-0.25239282846450806
-2.253664970397949,5.111720085144043,-0.3536534011363983
-2.2089343070983887,5.109618663787842,-0.3576129376888275
-2.1659090518951416,5.110722064971924,-0.3616100549697876
-1.592549204826355,3.8334755897521973,-0.27414175868034363
-1.5540173053741455,3.8153510093688965,-0.27566662430763245
-1.4837734699249268,3.717353105545044,-0.271273672580719
-1.4339025020599365,3.6697611808776855,-0.27037814259529114
-1.3685966730117798,3.5777859687805176,-0.2660672068595886
-1.3299251794815063,3.5505290031433105,-0.26642468571662903
-1.2970194816589355,3.5375607013702393,-0.26782533526420593
-1.2769166231155396,3.5612082481384277,-0.2718295156955719
-1.2560908794403076,3.5848984718322754,-0.27590835094451904
-1.2308707237243652,3.5934152603149414,-0.2787620723247528
-1.2131816148757935,3.6238622665405273,-0.2833295166492462
-1.18754243850708,3.6321310997009277,-0.28605788946151733
-0.9733263850212097,3.050283670425415,-0.24191874265670776
-0.9663387537002563,3.105395555496216,-0.24803011119365692
-0.9446331262588501,3.111889362335205,-0.25024178624153137
-0.8045892715454102,2.7186598777770996,-0.22008900344371796
-0.794951319694519,2.757844924926758,-0.2245989441871643
-0.7616298198699951,2.7145445346832275,-0.22239668667316437
-0.7405090928077698,2.7121670246124268,-0.223512664437294
-0.7212578058242798,2.717205762863159,-0.22526104748249054
-0.7109158635139465,2.755998373031616,-0.229725182056427
-0.6790893077850342,2.7117342948913574,-0.2271728515625
-1.465874195098877,6.034221172332764,-0.5080583095550537
-1.4693453311920166,6.23725700378418,-0.5277600288391113
-1.445013165473938,6.334510326385498,-0.5387018322944641
-1.3987089395523071,6.336651802062988,-0.541240394115448
-1.3466062545776367,6.31184720993042,-0.5413845777511597
-1.294297218322754,6.282782077789307,-0.5411561131477356
-1.2407137155532837,6.2417426109313965,-0.5398640036582947
-1.186301589012146,6.196579933166504,-0.5382423996925354
-1.132150411605835,6.147131443023682,-0.5357486009597778
-1.0861986875534058,6.139392852783203,-0.5368822813034058
-0.9611254334449768,5.663191318511963,-0.496921181678772
-0.7873422503471375,4.843710899353027,-0.42646610736846924
-0.7582794427871704,4.883623123168945,-0.4314373731613159
-0.7318453788757324,4.942594528198242,-0.437782883644104
-0.698103666305542,4.955191612243652,-0.4400566816329956
-0.6495155692100525,4.855677604675293,-0.43236464262008667
-0.61282879114151,4.836775302886963,-0.43183428049087524
-0.7049356698989868,5.8916215896606445,-0.5273343920707703
-0.5373595356941223,4.778952121734619,-0.4285513460636139
-0.6258321404457092,5.939420223236084,-0.5336270928382874
-0.5779143571853638,5.877691745758057,-0.5291033983230591
-0.5348803400993347,5.858199119567871,-0.5283893346786499
-0.49077874422073364,5.822903633117676,-0.5261337757110596
-0.44783467054367065,5.806770324707031,-0.5253034830093384
-0.2436971217393875,3.477271556854248,-0.31495270133018494
-0.22145116329193115,3.5098953247070312,-0.31830883026123047
-0.31960147619247437,5.694208145141602,-0.5170755386352539
-0.2789333760738373,5.672908306121826,-0.5156933069229126
-0.23759694397449493,5.647495269775391,-0.5136491656303406
-0.19718387722969055,5.6178717613220215,-0.511239767074585
-0.15741360187530518,5.595738887786865,-0.5095338225364685
-0.11771412938833237,5.561657428741455,-0.5067613124847412
-0.07865019142627716,5.538979530334473,-0.5048995614051819
-0.03888402506709099,5.4771623611450195,-0.499180406332016
-0.0005818317295052111,4.450309753417969,-0.40554723143577576
0.027999980375170708,4.1001057624816895,-0.37360838055610657
0.07488523423671722,5.434005260467529,-0.4951457381248474
0.11194968968629837,5.402257919311523,-0.49211767315864563
0.11169040203094482,4.036464214324951,-0.3673897087574005
0.18451276421546936,5.3108296394348145,-0.48298656940460205
0.2168930321931839,5.200630187988281,-0.47260892391204834
0.2089800089597702,4.293676376342773,-0.38991421461105347
0.2893681228160858,5.201096057891846,-0.47187232971191406
0.26393231749534607,4.216701984405518,-0.38199716806411743
0.2920500636100769,4.19151496887207,-0.3791618347167969
0.3211391866207123,4.189450740814209,-0.37844857573509216
0.35154733061790466,4.202690124511719,-0.3791334629058838
0.45023828744888306,4.967424392700195,-0.447402685880661
0.4894977807998657,5.014642715454102,-0.4506854712963104
0.5219396948814392,4.984100818634033,-0.44698023796081543
0.553072988986969,4.949534893035889,-0.442959725856781
0.5856724381446838,4.930222511291504,-0.4403320550918579
0.6169269680976868,4.903002738952637,-0.4368848502635956
0.6507996916770935,4.8987650871276855,-0.4352688193321228
0.6824919581413269,4.874950885772705,-0.4319194555282593
0.715205729007721,4.8625359535217285,-0.4296213686466217
0.7454494833946228,4.834510326385498,-0.4259708523750305
0.7739667296409607,4.798648834228516,-0.421508252620697
0.8095645904541016,4.808729648590088,-0.420903742313385
0.852104127407074,4.856873989105225,-0.4236277639865875
0.8836283087730408,4.835589408874512,-0.42026662826538086
0.9157730340957642,4.821854114532471,-0.417614609003067
0.9460617899894714,4.800322532653809,-0.41413214802742004
0.974402666091919,4.771015167236328,-0.40985003113746643
1.0039552450180054,4.749167442321777,-0.4062442183494568
1.035871982574463,4.7345404624938965,-0.40323367714881897
1.0645004510879517,4.70842981338501,-0.399303674697876
1.0898562669754028,4.670862197875977,-0.3942253887653351
1.1218898296356201,4.6634907722473145,-0.3916274905204773
1.150203824043274,4.640763282775879,-0.38776007294654846
1.1811429262161255,4.625171661376953,-0.38445860147476196
1.2073479890823364,4.594465732574463,-0.37996986508369446
1.2388468980789185,4.586309432983398,-0.37710317969322205
1.260865569114685,4.544180870056152,-0.3714461624622345
1.2985539436340332,4.558091640472412,-0.37037980556488037
0.42648929357528687,1.4577747583389282,-0.11773283034563065
0.4433147609233856,1.4772388935089111,-0.11857341229915619
0.45797985792160034,1.4891490936279297,-0.11872471123933792
0.45410218834877014,1.4414855241775513,-0.11414789408445358
0.47365057468414307,1.4680423736572266,-0.11545084416866302
1.4497023820877075,4.386795520782471,-0.3425499498844147
1.4611541032791138,4.321608066558838,-0.3349758982658386
1.5071239471435547,4.359674453735352,-0.33532238006591797
0.5231082439422607,1.480458378791809,-0.11298369616270065
1.282588005065918,3.551070213317871,-0.26884183287620544
1.589319109916687,4.306258201599121,-0.3233893811702728
1.619106650352478,4.2954230308532715,-0.3197038769721985
1.642666220664978,4.2700395584106445,-0.3150140047073364
1.6721382141113281,4.258853912353516,-0.31134870648384094
1.7017600536346436,4.247374057769775,-0.30765488743782043
1.729361891746521,4.232274055480957,-0.3036023676395416
1.7554521560668945,4.21335506439209,-0.29916924238204956
1.7750195264816284,4.180025100708008,-0.293774276971817
1.7979557514190674,4.153501510620117,-0.2888287305831909
1.8297827243804932,4.148377895355225,-0.2853444516658783
1.8513250350952148,4.121997833251953,-0.280301570892334
1.8861260414123535,4.123627662658691,-0.27711087465286255
1.9115705490112305,4.103574752807617,-0.27242252230644226
1.9333655834197998,4.076374053955078,-0.2672756314277649
1.9607166051864624,4.06356954574585,-0.26298046112060547
1.9845443964004517,4.043575286865234,-0.2582378685474396
2.006176710128784,4.015742301940918,-0.2528373897075653
2.0322699546813965,3.9985039234161377,-0.24817876517772675
2.0518131256103516,3.971235990524292,-0.24281944334506989
2.081935167312622,3.9646143913269043,-0.23874345421791077
2.1095352172851562,3.9502787590026855,-0.23404742777347565
2.1293206214904785,3.9221792221069336,-0.22854195535182953
2.144501209259033,3.887465476989746,-0.22255481779575348
2.1381325721740723,3.815387010574341,-0.21454814076423645
2.1492624282836914,3.7735188007354736,-0.20818482339382172
2.194368600845337,3.792882204055786,-0.2051704227924347
2.2114806175231934,3.765101671218872,-0.19956350326538086
2.23758864402771,3.749913454055786,-0.19443607330322266
2.279891014099121,3.7611682415008545,-0.1906350553035736
2.284090995788574,3.713135004043579,-0.18379345536231995
2.30869197845459,3.6981441974639893,-0.17858588695526123
2.3344311714172363,3.6822118759155273,-0.1731138974428177
2.355074167251587,3.6600215435028076,-0.16726161539554596
2.3830959796905518,3.6514101028442383,-0.16211307048797607
2.39985990524292,3.621952772140503,-0.1557144820690155
2.4239561557769775,3.606116771697998,-0.14990730583667755
2.433945655822754,3.5713064670562744,-0.14334134757518768
2.4547417163848877,3.547802448272705,-0.13676118850708008
2.486889362335205,3.544672966003418,-0.13103492558002472
2.4963490962982178,3.509536027908325,-0.1240106001496315
2.520653247833252,3.492354393005371,-0.11724989861249924
2.570213556289673,3.51448655128479,-0.11177428066730499
2.1798996925354004,2.938889503479004,-0.08780104666948318
2.7374210357666016,3.834794044494629,0.17502020299434662
2.737821340560913,3.8963513374328613,0.18428626656532288
2.739006280899048,3.961784601211548,0.1936982125043869
2.698035955429077,3.961168050765991,0.19939647614955902
2.6502833366394043,3.9554131031036377,0.204661026597023
2.614365339279175,3.9648995399475098,0.2104552537202835
2.5903565883636475,3.9896116256713867,0.21683456003665924
2.562150716781616,4.012092113494873,0.22289538383483887
2.552924871444702,4.063797950744629,0.23052485287189484
2.5326197147369385,4.094533443450928,0.23674102127552032
2.5023419857025146,4.112792015075684,0.24215145409107208
2.47060489654541,4.131609916687012,0.24763336777687073
2.441349744796753,4.148660182952881,0.2526642978191376
2.4276297092437744,4.192498207092285,0.2592966854572296
2.38071608543396,4.183143615722656,0.26251021027565
2.3496570587158203,4.2003631591796875,0.2673394978046417
2.2614519596099854,4.110741138458252,0.265142023563385
2.2394330501556396,4.140235900878906,0.27043893933296204
2.208585262298584,4.156489372253418,0.2747672200202942
2.174438953399658,4.16537618637085,0.27857285737991333
2.155967950820923,4.201006889343262,0.28403961658477783
2.129112720489502,4.223136901855469,0.28862494230270386
2.0978901386260986,4.238462924957275,0.2925659716129303
2.073404312133789,4.267566680908203,0.29748034477233887
2.0435922145843506,4.281661510467529,0.30121684074401855
