X,Y,Z
-2.3002142906188965,5.017788410186768,-0.6207824349403381
-2.2733688354492188,5.05418062210083,-0.6344525218009949
-2.2423348426818848,5.079391956329346,-0.6465782523155212
-2.0529773235321045,4.741652011871338,-0.6119887828826904
-1.9564926624298096,4.60874080657959,-0.6026421785354614
-1.9351924657821655,4.650099277496338,-0.6158766150474548
-0.9988226890563965,2.447826623916626,-0.3282192051410675
-0.9670886397361755,2.4181957244873047,-0.328166663646698
-0.9494184255599976,2.424546003341675,-0.3328750431537628
-0.9320244789123535,2.4306485652923584,-0.3374972343444824
-0.8944530487060547,2.3821346759796143,-0.33440789580345154
-0.8896229863166809,2.4204816818237305,-0.34346288442611694
-0.8669958710670471,2.4116148948669434,-0.3456934690475464
-0.8545178174972534,2.431851387023926,-0.3521724343299866
-0.849989652633667,2.473773241043091,-0.36175161600112915
-0.8325952887535095,2.4790518283843994,-0.3660418391227722
-0.8197633624076843,2.4990110397338867,-0.37228426337242126
-0.8043045401573181,2.5115418434143066,-0.3774663209915161
-0.7897263765335083,2.527696371078491,-0.38326141238212585
-0.7809550762176514,2.562145948410034,-0.3918357789516449
-0.76497882604599,2.5744271278381348,-0.39687463641166687
-0.7531062960624695,2.601473331451416,-0.4041661024093628
-0.7483433485031128,2.654458999633789,-0.41557198762893677
-0.737860918045044,2.688830852508545,-0.42416056990623474
-0.7146031260490417,2.678513765335083,-0.425650030374527
-0.7062700390815735,2.7240397930145264,-0.435818076133728
-0.6747514605522156,2.67972469329834,-0.43161967396736145
-0.6678760647773743,2.732541561126709,-0.4430622160434723
-0.6522760391235352,2.7515859603881836,-0.4490996301174164
-0.632509171962738,2.7556536197662354,-0.4524208605289459
-0.6164042353630066,2.7745676040649414,-0.4581708312034607
-0.6050528883934021,2.8159756660461426,-0.4676905572414398
-0.5822458863258362,2.8044848442077637,-0.46845999360084534
-0.5640799403190613,2.8155527114868164,-0.47274407744407654
-0.5468796491622925,2.834151268005371,-0.47822967171669006
-0.8682200312614441,4.674749374389648,-0.7926681637763977
-0.8409696817398071,4.710231781005859,-0.8025861382484436
-0.7904602885246277,4.612702369689941,-0.7896566390991211
-0.748070240020752,4.556649684906006,-0.7831889390945435
-0.7065750956535339,4.504122734069824,-0.7773369550704956
-0.6654232144355774,4.443548202514648,-0.7699795365333557
-0.6208365559577942,4.352145195007324,-0.7572022080421448
-0.5826939940452576,4.298607349395752,-0.7503825426101685
-0.546747088432312,4.256248950958252,-0.7453323602676392
-0.5081751942634583,4.186868667602539,-0.7355207800865173
-0.4723310172557831,4.136334419250488,-0.729022204875946
-0.4413808286190033,4.119939804077148,-0.7282787561416626
-0.4110245704650879,4.107235431671143,-0.727708637714386
-0.38161230087280273,4.101968765258789,-0.728480339050293
-0.27525317668914795,3.199779748916626,-0.5696095824241638
-0.15792731940746307,2.0013210773468018,-0.3571411073207855
-0.23943927884101868,3.3293917179107666,-0.5951099395751953
-0.2122706025838852,3.2693777084350586,-0.5852571129798889
-0.1921771764755249,3.316640853881836,-0.5946326851844788
-0.16992264986038208,3.333052158355713,-0.598520815372467
-0.1475280374288559,3.3608837127685547,-0.6043228507041931
-0.1312340795993805,3.5538294315338135,-0.6394345760345459
-0.11537089198827744,3.8504445552825928,-0.6932904720306396
-0.08790214359760284,3.820293664932251,-0.6883767247200012
-0.060796331614255905,3.7861061096191406,-0.6827598214149475
-0.03447183594107628,3.836399793624878,-0.6918545961380005
-0.007698290050029755,3.7904255390167236,-0.6834820508956909
0.01877482980489731,3.813462495803833,-0.6875871419906616
0.045385342091321945,3.8209376335144043,-0.6889193654060364
0.07224282622337341,3.835949182510376,-0.6914401054382324
0.0970258116722107,3.762467384338379,-0.6775496602058411
0.12337251007556915,3.7541353702545166,-0.6754279136657715
0.15148909389972687,3.803258180618286,-0.6836795210838318
0.1815841943025589,3.8790555000305176,-0.6967396140098572
0.21004033088684082,3.904804229736328,-0.7002758383750916
0.23955892026424408,3.941887855529785,-0.7057062983512878
0.2684794068336487,3.9557058811187744,-0.7069708108901978
0.29682105779647827,3.965510129928589,-0.7075658440589905
0.32564619183540344,3.9789791107177734,-0.7086389660835266
0.3573375642299652,4.022984027862549,-0.7146474719047546
0.38525232672691345,4.020794868469238,-0.7124634385108948
0.41644811630249023,4.045151710510254,-0.7149721384048462
0.44542521238327026,4.05019474029541,-0.7141168117523193
0.47802311182022095,4.0857014656066895,-0.7181111574172974
0.5115958452224731,4.1248040199279785,-0.7225738167762756
0.5452666878700256,4.159823417663574,-0.7263067960739136
0.5868624448776245,4.244083404541016,-0.7385544180870056
0.6081001162528992,4.1833038330078125,-0.7254224419593811
0.6360059380531311,4.171995162963867,-0.7204546928405762
0.7474781274795532,4.68531608581543,-0.8057594299316406
0.7776165008544922,4.665495872497559,-0.7990428805351257
0.8015764951705933,4.611318588256836,-0.7865263223648071
0.8485847115516663,4.685947418212891,-0.7953583002090454
0.8854082226753235,4.7034759521484375,-0.7943711876869202
0.9248065948486328,4.732056617736816,-0.7952325344085693
0.9578651189804077,4.726299285888672,-0.7903203368186951
0.9892412424087524,4.71281099319458,-0.7839271426200867
1.0184814929962158,4.6877899169921875,-0.7751436233520508
1.0459924936294556,4.658927917480469,-0.7658843994140625
1.0750718116760254,4.637376308441162,-0.7578753232955933
1.1056584119796753,4.6231465339660645,-0.7511265873908997
1.1322276592254639,4.593848705291748,-0.741438627243042
1.1579973697662354,4.560544967651367,-0.7310546040534973
1.1878478527069092,4.5458526611328125,-0.7237870693206787
0.9851458668708801,3.6657652854919434,-0.5797015428543091
1.0045393705368042,3.637272834777832,-0.57105553150177
1.02346670627594,3.6087374687194824,-0.5622652769088745
1.0597944259643555,3.6393353939056396,-0.562617301940918
1.0808907747268677,3.6178252696990967,-0.5549524426460266
1.1061930656433105,3.6109981536865234,-0.5495322942733765
1.1242774724960327,3.581972122192383,-0.5404512882232666
1.1514774560928345,3.5823049545288086,-0.5358453392982483
1.1721785068511963,3.5601754188537598,-0.5277842879295349
1.1971604824066162,3.5527045726776123,-0.5220179557800293
1.2218234539031982,3.545182228088379,-0.5159810781478882
1.241207480430603,3.5229127407073975,-0.5077931880950928
1.2657678127288818,3.515040159225464,-0.5016883611679077
1.2904577255249023,3.5069258213043213,-0.4955365061759949
1.308448314666748,3.4804739952087402,-0.4865851402282715
1.3296775817871094,3.465010166168213,-0.4791962504386902
1.3594071865081787,3.470991611480713,-0.47474631667137146
1.3751752376556396,3.440631628036499,-0.46529915928840637
1.4079771041870117,3.453356981277466,-0.46160608530044556
1.7254812717437744,4.1496262550354,-0.5478680729866028
1.760219931602478,4.1529364585876465,-0.5415806174278259
1.7894331216812134,4.141513347625732,-0.5332565307617188
1.812116026878357,4.115759372711182,-0.5230684876441956
1.8372220993041992,4.097184658050537,-0.5136699676513672
1.8723702430725098,4.099398612976074,-0.5067538022994995
1.8946754932403564,4.073088645935059,-0.49630066752433777
1.9164479970932007,4.046767234802246,-0.4858730137348175
1.9440945386886597,4.034611701965332,-0.4770471155643463
1.9718208312988281,4.0221781730651855,-0.468166708946228
1.9885133504867554,3.9846439361572266,-0.45611217617988586
2.01627516746521,3.971702814102173,-0.44701290130615234
2.0397651195526123,3.951965093612671,-0.43709954619407654
2.0669944286346436,3.9388065338134766,-0.4278588891029358
2.0947494506835938,3.925135374069214,-0.41840508580207825
2.118082284927368,3.9047482013702393,-0.4082063138484955
2.133733034133911,3.8705830574035645,-0.396454781293869
2.1396632194519043,3.8192968368530273,-0.383039265871048
2.1511316299438477,3.7780234813690186,-0.3706667125225067
2.192203998565674,3.7912991046905518,-0.3635885715484619
2.1980299949645996,3.7437665462493896,-0.3506902754306793
2.2168819904327393,3.715459108352661,-0.33917832374572754
2.2585957050323486,3.7276432514190674,-0.3314853012561798
2.2631027698516846,3.6801388263702393,-0.318491131067276
2.2885313034057617,3.6652677059173584,-0.3081141710281372
2.330880880355835,3.676330804824829,-0.2996826171875
2.3388071060180664,3.63513445854187,-0.2868339717388153
2.367774486541748,3.6264877319335938,-0.2765423357486725
2.4062299728393555,3.6300294399261475,-0.2667711675167084
2.4127368927001953,3.5889840126037598,-0.2537483274936676
2.4324791431427,3.5669844150543213,-0.24193696677684784
2.471235513687134,3.569551467895508,-0.23111091554164886
2.480942726135254,3.5350005626678467,-0.21809080243110657
2.5003108978271484,3.5124924182891846,-0.20543912053108215
2.5517642498016357,3.533944606781006,-0.19482752680778503
2.233274221420288,3.0520401000976562,-0.1579372137784958
2.1754181385040283,2.930419683456421,-0.14075039327144623
2.7906222343444824,3.917959451675415,0.4157068133354187
2.7690162658691406,3.9507980346679688,0.43088293075561523
2.736360788345337,3.962639093399048,0.4428441822528839
2.7095847129821777,3.9889848232269287,0.45614418387413025
2.6746230125427246,4.001758575439453,0.4675588011741638
2.6332101821899414,3.9999094009399414,0.476535826921463
2.6061761379241943,4.025476932525635,0.48866599798202515
2.591437816619873,4.070515155792236,0.5030021667480469
2.5727698802948,4.104012966156006,0.515252411365509
2.5366263389587402,4.111488342285156,0.524135410785675
2.5048394203186035,4.129650115966797,0.5341306924819946
2.4655117988586426,4.133906364440918,0.5422021150588989
2.446054220199585,4.166761875152588,0.5535510182380676
2.4346559047698975,4.217085361480713,0.5671103000640869
2.3986799716949463,4.227519989013672,0.5751908421516418
2.382563829421997,4.27099609375,0.5876250267028809
2.262268543243408,4.123660087585449,0.5734764337539673
2.252375841140747,4.176474571228027,0.5866965055465698
2.217158079147339,4.185399055480957,0.593590259552002
2.1930320262908936,4.214467525482178,0.6033172607421875
2.163240909576416,4.228780269622803,0.6106795072555542
2.1396217346191406,4.257045269012451,0.6201658248901367
2.1145684719085693,4.285796165466309,0.629257082939148
2.082449197769165,4.3004536628723145,0.6363301873207092
2.0580530166625977,4.328324317932129,0.6452283263206482
2.034065008163452,4.355743408203125,0.6540150046348572
1.996261477470398,4.355189323425293,0.6584504246711731
1.9776209592819214,4.400915622711182,0.669708251953125
1.9963512420654297,4.531333923339844,0.693969190120697
1.9518433809280396,4.516036510467529,0.695844829082489
1.9517074823379517,4.60347843170166,0.7135912775993347
1.9215713739395142,4.623570919036865,0.7207814455032349
1.8766342401504517,4.611863136291504,0.7228015065193176
1.8526129722595215,4.6497883796691895,0.732572615146637
1.8251076936721802,4.676360607147217,0.74049311876297
1.8184534311294556,4.75674295425415,0.7569876909255981
1.3717176914215088,3.665104389190674,0.5860854387283325
1.3404488563537598,3.6636698246002197,0.5883968472480774
1.314944863319397,3.676363229751587,0.5929604768753052
1.2744295597076416,3.645004987716675,0.5903880596160889
1.6534676551818848,4.836887359619141,0.7866762280464172
1.6170727014541626,4.840222358703613,0.7904820442199707
1.5767470598220825,4.8365068435668945,0.7927680015563965
1.5486161708831787,4.869154930114746,0.8008788228034973
1.506377935409546,4.857413291931152,0.801730215549469
1.48552668094635,4.911499977111816,0.8134181499481201
1.455459475517273,4.9358601570129395,0.8202401399612427
1.4474296569824219,5.037906646728516,0.8400048613548279
1.3865478038787842,4.962302207946777,0.8296915292739868
1.3385871648788452,4.926878929138184,0.8260408639907837
1.2903270721435547,4.887279033660889,0.8216830492019653
1.2628296613693237,4.921707630157471,0.829738974571228
1.2377610206604004,4.967188835144043,0.8397246599197388
1.2112562656402588,5.012768745422363,0.849685788154602
1.1700743436813354,4.998260021209717,0.8490186929702759
1.1376774311065674,5.021005630493164,0.854720413684845
1.1042433977127075,5.039762496948242,0.8597939610481262
1.0738599300384521,5.069429874420166,0.8667388558387756
1.0409725904464722,5.0914764404296875,0.8724699020385742
1.0082612037658691,5.113251686096191,0.8780317902565002
1.8165678977966309,9.5699462890625,1.6458995342254639
1.7359890937805176,9.513622283935547,1.638851523399353
1.6669340133666992,9.517341613769531,1.642208456993103
1.5935553312301636,9.493959426879883,1.6409560441970825
1.5120577812194824,9.409010887145996,1.6290532350540161
1.4551457166671753,9.475642204284668,1.6434022188186646
1.3785525560379028,9.420355796813965,1.635572075843811
1.3065286874771118,9.391161918640137,1.6323341131210327
1.2397782802581787,9.407373428344727,1.637101411819458
1.1697105169296265,9.380852699279785,1.6344478130340576
1.109273910522461,9.430244445800781,1.6450961828231812
1.0388994216918945,9.395084381103516,1.6410737037658691
0.9705027937889099,9.378754615783691,1.6395057439804077
0.909230649471283,9.434774398803711,1.6503896713256836
0.3874874711036682,4.346611976623535,0.7608862519264221
0.35297200083732605,4.299185276031494,0.7531514763832092
0.32302820682525635,4.301366329193115,0.7541346549987793
0.29808738827705383,4.376274108886719,0.7679147720336914
0.3450463116168976,5.645451545715332,0.9912295937538147
0.3035438656806946,5.624609470367432,0.9877926707267761
0.2652791142463684,5.6495490074157715,0.992440938949585
0.22836962342262268,5.716514587402344,1.0045249462127686
0.18933667242527008,5.740930557250977,1.00918447971344
0.15034011006355286,5.776614665985107,1.0158770084381104
0.11079268157482147,5.846661567687988,1.0286785364151
0.0702100470662117,5.862689971923828,1.0313270092010498
0.02916399948298931,5.816885471343994,1.0231211185455322
-0.017569545656442642,8.967818260192871,1.57718026638031
-0.017035173252224922,1.9119899272918701,0.3362477421760559
-0.03092976287007332,1.934907078742981,0.340278297662735
-0.19903525710105896,8.677079200744629,1.526051640510559
-0.2565138041973114,8.587159156799316,1.5098458528518677
-0.22403152287006378,6.08627986907959,1.0695055723190308
-0.26301348209381104,6.0116963386535645,1.0558369159698486
-0.18058352172374725,3.5621190071105957,0.6253131031990051
-0.20623339712619781,3.5685229301452637,0.6261577010154724
-0.23377880454063416,3.609326124191284,0.633070170879364
-0.563174843788147,7.848674297332764,1.3761491775512695
-0.6161558628082275,7.829606533050537,1.3714442253112793
-0.5720297694206238,6.679103851318359,1.168813705444336
-0.6121411323547363,6.602423191070557,1.1543382406234741
-0.6373288631439209,6.391519069671631,1.1165060997009277
-0.6788868308067322,6.360434532165527,1.110172986984253
-0.7296150326728821,6.413212299346924,1.1185274124145508
-0.771096408367157,6.385464668273926,1.1124159097671509
-0.8083881735801697,6.3230743408203125,1.0999866724014282
-0.8466570973396301,6.279638767242432,1.090957760810852
-0.8861271142959595,6.247389316558838,1.08393394947052
-0.9296438097953796,6.241480350494385,1.0815229415893555
-0.9772772192955017,6.261897563934326,1.083720326423645
-1.031421422958374,6.316097736358643,1.0915935039520264
-1.0831222534179688,6.3587751388549805,1.0969325304031372
-1.1320933103561401,6.38208532333374,1.0989567041397095
-1.186324954032898,6.431538105010986,1.105507493019104
-1.241126537322998,6.476669788360596,1.1113100051879883
-1.2943576574325562,6.5100202560424805,1.1151165962219238
-1.3497434854507446,6.546555042266846,1.119462490081787
-1.4080103635787964,6.601953506469727,1.1263351440429688
-1.451224446296692,6.585400104522705,1.1209317445755005
-1.4840892553329468,6.523454189300537,1.1078729629516602
-1.5247929096221924,6.494971752166748,1.1005381345748901
-0.6797167658805847,2.8059158325195312,0.4743604362010956
-0.6936988234519958,2.778964042663574,0.4687650501728058
-0.7107875347137451,2.767024517059326,0.4654749929904938
-0.727615237236023,2.7550230026245117,0.4621369242668152
-0.7443407773971558,2.742910146713257,0.4588066339492798
-0.7739343047142029,2.7751269340515137,0.4628596901893616
-1.760719895362854,6.148181438446045,1.0225443840026855
-1.7926408052444458,6.099547386169434,1.0116188526153564
-1.8263667821884155,6.062203407287598,1.0020853281021118
-1.853689193725586,6.006349563598633,0.9894182085990906
-1.8833239078521729,5.957553386688232,0.9779504537582397
-1.91611909866333,5.919583320617676,0.9683271646499634
-1.9477968215942383,5.877604007720947,0.9580820798873901
-1.9777392148971558,5.8318023681640625,0.947296679019928
-2.0095996856689453,5.797349452972412,0.9378068447113037
-2.0358850955963135,5.7481818199157715,0.9259678721427917
-2.066148042678833,5.709598541259766,0.9158576726913452
-2.0978658199310303,5.674290657043457,0.9062942862510681
-2.1265697479248047,5.631537914276123,0.895609974861145
-2.1571543216705322,5.596036911010742,0.8859792351722717
-2.2003636360168457,5.596837520599365,0.8817133903503418
-2.2658839225769043,5.650890827178955,0.8857389092445374
-2.33072566986084,5.700767517089844,0.8890519142150879
-2.361760139465332,5.663942813873291,0.8787232041358948
-2.3863887786865234,5.6126909255981445,0.8662397265434265
-2.427272319793701,5.6046977043151855,0.859970211982727
-2.5279343128204346,5.730745315551758,0.8739871382713318
-3.9439034461975098,8.782211303710938,1.331347942352295
-2.551731586456299,5.5781755447387695,0.8403195142745972
-2.5778279304504395,5.533198356628418,0.8282802104949951
-2.600367307662964,5.485308647155762,0.8155373334884644
-2.627469778060913,5.447826862335205,0.8041455149650574
-2.663724184036255,5.4313883781433105,0.796027421951294
-2.6985182762145996,5.406785011291504,0.7864257097244263
-2.7260749340057373,5.368129730224609,0.7748500108718872
-4.927165985107422,9.544853210449219,1.3664205074310303
-2.7562944889068604,5.254759788513184,0.7458845376968384
-2.781261682510376,5.216526985168457,0.7339298129081726
-2.812485933303833,5.187837600708008,0.7231870889663696
-1.182967185974121,2.1464974880218506,0.29641926288604736
-1.178181529045105,2.1053357124328613,0.2878037691116333
-2.5412850379943848,4.4726715087890625,0.6051797866821289
-2.5280516147613525,4.378601551055908,0.5859273076057434
-6.03872013092041,10.293691635131836,1.3620421886444092
-1.2512680292129517,2.101205587387085,0.2747308909893036
-1.2569570541381836,2.080247402191162,0.26866990327835083
-2.934020757675171,4.783343315124512,0.6098161935806274
-2.98481822013855,4.789859771728516,0.6021613478660583
-2.9919049739837646,4.7317352294921875,0.5863164663314819
-3.0100796222686768,4.693868160247803,0.572977602481842
-3.0506465435028076,4.687557220458984,0.5630782246589661
-3.055955171585083,4.62506103515625,0.5461938977241516
-3.077890157699585,4.593204021453857,0.5325580835342407
-3.0856688022613525,4.542411804199219,0.5169704556465149
-3.108962297439575,4.509079456329346,0.5025514364242554
-3.157155990600586,4.514941692352295,0.492339164018631
-2.9451444149017334,4.156379222869873,0.443037211894989
-2.842531204223633,3.953657388687134,0.4106420874595642
-2.931168794631958,4.0205793380737305,0.40636196732521057
-2.930941343307495,3.968928337097168,0.3898172974586487
-2.467519521713257,3.454972743988037,-0.19238443672657013
-2.4453208446502686,3.479504346847534,-0.2059674859046936
-2.871502637863159,4.147039413452148,-0.2587083876132965
-2.3064725399017334,3.384345531463623,-0.2218227982521057
-2.2356343269348145,3.3326148986816406,-0.22857606410980225
-2.2356369495391846,3.3833987712860107,-0.24176034331321716
-2.213787794113159,3.4062390327453613,-0.253225177526474
-2.1615476608276367,3.378838539123535,-0.2603696584701538
-2.1374542713165283,3.3933513164520264,-0.27034857869148254
-1.2765787839889526,2.060340642929077,-0.16948115825653076
-1.2351431846618652,2.0258662700653076,-0.17170220613479614
-2.1164731979370117,3.5272626876831055,-0.3075485825538635
-2.096198320388794,3.552070140838623,-0.31810468435287476
-2.1013028621673584,3.620403289794922,-0.3326337933540344
-1.2048479318618774,2.109583616256714,-0.1985066682100296
-2.590557098388672,4.6122612953186035,-0.4441050887107849
-2.561434745788574,4.640673637390137,-0.457083135843277
-2.5394790172576904,4.678177356719971,-0.47049587965011597
-2.520852565765381,4.722402095794678,-0.48460865020751953
-2.493320941925049,4.7534027099609375,-0.49734458327293396
-2.465836524963379,4.784042835235596,-0.5100217461585999
-2.4403555393218994,4.8177056312561035,-0.5229542851448059
-2.41630220413208,4.854698181152344,-0.5360734462738037
-2.3980274200439453,4.905846118927002,-0.5507894158363342
-2.359452724456787,4.914684772491455,-0.5607081055641174
-2.339595317840576,4.96164083480835,-0.5749205350875854
-2.3135931491851807,4.998290061950684,-0.587875247001648
-2.289382219314575,5.042304992675781,-0.6018913984298706
-2.2533884048461914,5.05725622177124,-0.6121927499771118
-2.1072981357574463,4.819240570068359,-0.5913828015327454
-2.031301259994507,4.736790180206299,-0.5888859629631042
-1.9744620323181152,4.696537971496582,-0.5913610458374023
-1.9197494983673096,4.65932559967041,-0.5940920114517212
-1.853464961051941,4.588892936706543,-0.5922180414199829
-1.8262306451797485,4.61539363861084,-0.6025152206420898
-1.3223211765289307,3.4126462936401367,-0.4505203068256378
-1.3090637922286987,3.4501330852508545,-0.4604720175266266
-0.920101523399353,2.477677345275879,-0.3343009948730469
-2.0034186840057373,5.5134100914001465,-0.7515016794204712
-0.956023097038269,2.690164804458618,-0.3703155517578125
-0.8618980646133423,2.4804203510284424,-0.3447715938091278
-0.8507013320922852,2.504173517227173,-0.3513970673084259
-0.8241389989852905,2.483933687210083,-0.3518068194389343
-0.8088186383247375,2.496561050415039,-0.35667428374290466
-0.7957299947738647,2.516455888748169,-0.3626187741756439
-0.786012589931488,2.547316074371338,-0.3701780438423157
-0.7703075408935547,2.5596375465393066,-0.37505224347114563
-0.7607914805412292,2.5942156314849854,-0.38301631808280945
-0.7536823749542236,2.6400070190429688,-0.39278551936149597
-0.7413491010665894,2.667039394378662,-0.39976540207862854
-0.7327296137809753,2.7089338302612305,-0.4090556502342224
-0.7096533179283142,2.6985673904418945,-0.4102296829223633
-0.6962910294532776,2.72546648979187,-0.4170432686805725
-0.6748898029327393,2.722356081008911,-0.4193367063999176
-0.6576449871063232,2.7340009212493896,-0.42385780811309814
-0.6410550475120544,2.7493364810943604,-0.4288352131843567
-0.626765787601471,2.7759103775024414,-0.43541643023490906
-0.6137805581092834,2.809950828552246,-0.4432368278503418
-0.5969357490539551,2.8288650512695312,-0.44876131415367126
-0.5809987783432007,2.8513875007629395,-0.4548579454421997
-0.568352222442627,2.892836570739746,-0.4636446535587311
-0.5479775667190552,2.8963229656219482,-0.4663984179496765
-0.5290768146514893,2.907236099243164,-0.47036445140838623
-0.5123836398124695,2.9332683086395264,-0.4768584072589874
-0.49054697155952454,2.928767442703247,-0.4781431257724762
-0.4779353439807892,2.9812519550323486,-0.48857980966567993
-0.4593818187713623,2.999382972717285,-0.49344900250434875
-0.44183066487312317,3.025007486343384,-0.49958857893943787
-0.4225187599658966,3.0429365634918213,-0.5045136213302612
-0.6509431004524231,4.94080924987793,-0.8216232657432556
-0.6221154928207397,4.990607261657715,-0.8324111700057983
-0.5373842120170593,4.569490909576416,-0.7644917964935303
-0.5013506412506104,4.534339427947998,-0.7609447240829468
-0.49475836753845215,4.778730869293213,-0.8040524125099182
-0.4638214409351349,4.8124098777771,-0.8115140795707703
-0.42649412155151367,4.772939682006836,-0.8066459894180298
-0.38685745000839233,4.698644161224365,-0.7958884239196777
-0.35207611322402954,4.6739678382873535,-0.7935324907302856
-0.31729456782341003,4.645330429077148,-0.7897547483444214
-0.2812037467956543,4.597251892089844,-0.7826962471008301
-0.24629084765911102,4.54502534866333,-0.7749207615852356
-0.2161501795053482,4.577162265777588,-0.7815597653388977
-0.1817268431186676,4.512967109680176,-0.7714347839355469
-0.15123167634010315,4.54095458984375,-0.7766583561897278
-0.11782820522785187,4.49176549911499,-0.7687248587608337
-0.08721813559532166,4.527017116546631,-0.7752718329429626
-0.05540085583925247,4.500460147857666,-0.771271288394928
-0.02419644221663475,4.527696132659912,-0.7758349180221558
0.00722608482465148,4.477727890014648,-0.7671177387237549
0.03603754937648773,4.146486282348633,-0.7102593183517456
0.06401131302118301,4.09226131439209,-0.7008981108665466
0.09189113974571228,4.068683624267578,-0.696590781211853
0.12151448428630829,4.114269733428955,-0.703681468963623
0.15272505581378937,4.186578750610352,-0.7153571248054504
0.17899581789970398,4.1201581954956055,-0.7033594846725464
0.2167222797870636,4.288148403167725,-0.7313861846923828
0.24563594162464142,4.271398067474365,-0.7273674607276917
0.2686218321323395,4.166085243225098,-0.7081722617149353
0.29619520902633667,4.145167350769043,-0.7033942937850952
0.32318970561027527,4.12022590637207,-0.6979796886444092
0.35853615403175354,4.191043376922607,-0.708634614944458
0.4032212495803833,4.357609748840332,-0.7348852753639221
0.427722305059433,4.297589302062988,-0.7229095101356506
0.46453991532325745,4.3600263595581055,-0.731560230255127
0.47836315631866455,4.211582183837891,-0.7048944234848022
0.5160167217254639,4.273585796356201,-0.7130318880081177
0.5588813424110413,4.373610496520996,-0.7272640466690063
0.6423433423042297,4.763580322265625,-0.7894656658172607
0.6912096738815308,4.8702216148376465,-0.8044672608375549
0.7216863632202148,4.842979907989502,-0.7972567677497864
0.7606042623519897,4.868921756744385,-0.7981349229812622
0.7893995046615601,4.833745002746582,-0.7890891432762146
0.8217825293540955,4.8211822509765625,-0.7837844491004944
0.8452961444854736,4.759017467498779,-0.7704933881759644
0.875593364238739,4.738559722900391,-0.7636188268661499
0.9128543138504028,4.755853652954102,-0.7625819444656372
0.9404379725456238,4.7197651863098145,-0.7529604434967041
0.9694564342498779,4.69493293762207,-0.7452625036239624
1.0006061792373657,4.681251049041748,-0.7393171787261963
0.8364356160163879,3.785266637802124,-0.5943359136581421
0.8540785312652588,3.742393732070923,-0.5841855406761169
0.8859476447105408,3.7594659328460693,-0.5833543539047241
0.9012972712516785,3.7087907791137695,-0.5721096396446228
0.9308256506919861,3.718120574951172,-0.5698835849761963
0.9565918445587158,3.7122933864593506,-0.5651859641075134
0.9804257750511169,3.698789119720459,-0.5593417882919312
0.9996312856674194,3.6663291454315186,-0.5506054759025574
1.0231273174285889,3.652529001235962,-0.5447084903717041
1.0462669134140015,3.638676404953003,-0.5385239720344543
1.0692896842956543,3.624662160873413,-0.5323536396026611
1.0923879146575928,3.61043381690979,-0.5261582732200623
1.1227139234542847,3.6180853843688965,-0.523088276386261
1.138409972190857,3.5814833641052246,-0.5134303569793701
1.1703684329986572,3.596378803253174,-0.5111299753189087
1.1831721067428589,3.552180290222168,-0.5004449486732483
1.2018202543258667,3.5262346267700195,-0.4923956096172333
1.2276469469070435,3.522209644317627,-0.48728838562965393
1.25237238407135,3.5143020153045654,-0.48142698407173157
1.2846589088439941,3.5281715393066406,-0.4786086976528168
1.3148084878921509,3.5343894958496094,-0.474666029214859
1.3340095281600952,3.5114049911499023,-0.46675559878349304
1.6384979486465454,4.225944995880127,-0.555678129196167
1.670958161354065,4.2225470542907715,-0.5490654706954956
1.694825291633606,4.1972784996032715,-0.5396273732185364
1.7213712930679321,4.179041862487793,-0.5311327576637268
1.7530958652496338,4.17523717880249,-0.5242379903793335
1.7787666320800781,4.156900405883789,-0.5155367255210876
1.8052393198013306,4.137999534606934,-0.5065935850143433
1.831143856048584,4.119073390960693,-0.4977816343307495
1.856152892112732,4.100317001342773,-0.4888148009777069
1.8809441328048706,4.081414222717285,-0.47986412048339844
1.9061797857284546,4.062077045440674,-0.4707586467266083
1.9352575540542603,4.049281120300293,-0.4622834622859955
1.962891936302185,4.036916255950928,-0.4538375437259674
1.9818063974380493,4.006937503814697,-0.44344666600227356
2.0063369274139404,3.9869577884674072,-0.4340459108352661
2.0307934284210205,3.9667603969573975,-0.4246197044849396
2.0576956272125244,3.9538018703460693,-0.41587328910827637
2.0886595249176025,3.947268486022949,-0.40766748785972595
2.1090495586395264,3.9196784496307373,-0.39718571305274963
2.1251115798950195,3.885312795639038,-0.3860684037208557
2.1154065132141113,3.8071093559265137,-0.3707211911678314
2.1452713012695312,3.8001761436462402,-0.36234113574028015
2.164735794067383,3.7720701694488525,-0.35160866379737854
2.182598829269409,3.7445995807647705,-0.34110069274902344
2.215660572052002,3.7440826892852783,-0.33304035663604736
2.237698793411255,3.7227132320404053,-0.3228277564048767
2.2635715007781982,3.707871437072754,-0.31311628222465515
2.2886455059051514,3.6932694911956787,-0.30326658487319946
2.301370143890381,3.6585612297058105,-0.291754812002182
2.331299304962158,3.649620294570923,-0.28206297755241394
2.359771251678467,3.6413462162017822,-0.27237993478775024
2.367037773132324,3.6001124382019043,-0.26016104221343994
2.397136688232422,3.590303659439087,-0.24964532256126404
2.4384169578552246,3.6008777618408203,-0.2406453937292099
2.4403135776519775,3.5530874729156494,-0.22760041058063507
2.4697656631469727,3.5429165363311768,-0.21648502349853516
2.515354633331299,3.5592703819274902,-0.20690198242664337
2.507833480834961,3.498253345489502,-0.1922851949930191
2.5684654712677,3.5321531295776367,-0.18259021639823914
2.1695282459259033,2.944416046142578,-0.14250120520591736
2.7734014987945557,3.9226608276367188,0.3954622745513916
2.746802806854248,3.949481248855591,0.4092215597629547
2.7274746894836426,3.9805004596710205,0.4223862886428833
2.683436632156372,3.9809207916259766,0.43226078152656555
2.665257453918457,4.019876956939697,0.4459867775440216
2.636615037918091,4.037536144256592,0.45659562945365906
2.614851713180542,4.068964004516602,0.4686276614665985
2.585214138031006,4.091238975524902,0.4795137345790863
2.544671058654785,4.092539310455322,0.487527072429657
2.5236477851867676,4.122629642486572,0.4986478388309479
2.4979403018951416,4.1507248878479,0.5092495083808899
2.493931293487549,4.215285301208496,0.5243997573852539
2.4484682083129883,4.2048540115356445,0.529758632183075
2.4003238677978516,4.191193103790283,0.5346693992614746
2.3741984367370605,4.21834135055542,0.5443665981292725
2.3104169368743896,4.177291393280029,0.5451871752738953
2.260484457015991,4.154986381530762,0.5479604601860046
2.227264404296875,4.163082599639893,0.5546697378158569
2.204338312149048,4.19618558883667,0.5644683837890625
2.1833882331848145,4.232326984405518,0.5746598243713379
2.15311336517334,4.246849536895752,0.5817038416862488
2.1300320625305176,4.2748494148254395,0.5905764102935791
2.0951826572418213,4.282472610473633,0.596375584602356
2.0726380348205566,4.318288326263428,0.6060900688171387
2.0375351905822754,4.325471878051758,0.611680805683136
2.0103108882904053,4.345839023590088,0.6189699769020081
1.9797312021255493,4.358956813812256,0.6252591013908386
2.016763687133789,4.528285980224609,0.6536749005317688
1.9677112102508545,4.506707668304443,0.6546732187271118
1.961856484413147,4.584270477294922,0.6701200604438782
1.932624340057373,4.604207515716553,0.6770435571670532
1.9134774208068848,4.649021148681641,0.6876789927482605
1.8576000928878784,4.608290195465088,0.6851841807365417
1.8336703777313232,4.646181583404541,0.6943945288658142
1.8189066648483276,4.709262371063232,0.7074794769287109
1.7940210103988647,4.742822647094727,0.7160483002662659
1.7325340509414673,4.678318500518799,0.7098015546798706
1.319368600845337,3.642936944961548,0.5551231503486633
1.2979427576065063,3.6664676666259766,0.561074435710907
1.2795268297195435,3.7009949684143066,0.5688098669052124
1.6248209476470947,4.807822227478027,0.7419471144676208
1.594747543334961,4.829368591308594,0.7483367919921875
1.5569008588790894,4.828823566436768,0.7511340975761414
1.5462654829025269,4.916708469390869,0.767403244972229
1.5122238397598267,4.934689521789551,0.7728985548019409
1.463723063468933,4.900277614593506,0.7701199650764465
1.4423890113830566,4.95424747467041,0.7812174558639526
1.4013539552688599,4.941279888153076,0.7818135619163513
1.3660553693771362,4.950564861297607,0.7855410575866699
1.3143943548202515,4.9000325202941895,0.7796255350112915
1.2755240201950073,4.897754192352295,0.7814379334449768
1.2371339797973633,4.891114711761475,0.7825026512145996
1.222265601158142,4.9778056144714355,0.7985432744026184
1.1838905811309814,4.970648288726807,0.799595057964325
1.1553456783294678,5.0085649490356445,0.8074412941932678
1.1239367723464966,5.038946628570557,0.8140859603881836
1.0878616571426392,5.046380043029785,0.817044734954834
1.0562615394592285,5.072322368621826,0.8230189681053162
1.02391517162323,5.094220161437988,0.8283729553222656
0.9883249402046204,5.100771903991699,0.8312799334526062
1.8160618543624878,9.74837589263916,1.5913264751434326
1.7480864524841309,9.767904281616211,1.597013235092163
1.6811232566833496,9.794574737548828,1.603958010673523
1.6123247146606445,9.805413246154785,1.60835862159729
1.5332045555114746,9.747127532958984,1.6014602184295654
1.4589678049087524,9.722704887390137,1.600222110748291
1.389387607574463,9.724525451660156,1.6024678945541382
1.314407229423523,9.687731742858887,1.5981175899505615
1.2488598823547363,9.719191551208496,1.6051025390625
1.181504726409912,9.73484992980957,1.6095514297485352
1.1071923971176147,9.684867858886719,1.603198766708374
1.035234808921814,9.661284446716309,1.6013140678405762
0.9706395268440247,9.698545455932617,1.6089985370635986
0.40823090076446533,4.389988422393799,0.7287484407424927
0.37039709091186523,4.311967849731445,0.7162693738937378
0.33827176690101624,4.291264057159424,0.7133344411849976
0.3106764554977417,4.331836700439453,0.7206262350082397
0.283307820558548,4.376042366027832,0.7285584211349487
0.3248016834259033,5.624166488647461,0.9370493292808533
0.2874385416507721,5.664699077606201,0.9439611434936523
0.24784094095230103,5.666485786437988,0.9444636106491089
0.2096499800682068,5.725778579711914,0.9546045064926147
0.17021329700946808,5.742421627044678,0.9576796293258667
0.13140557706356049,5.793457984924316,0.966540515422821
0.0919567197561264,5.848081588745117,0.9760533571243286
0.05124298483133316,5.848577976226807,0.9760664701461792
0.00976740475744009,5.833408355712891,0.9733343124389648
-0.03191537782549858,6.033714771270752,1.0066015720367432
-0.024197125807404518,1.9764502048492432,0.32969552278518677
-0.0369243398308754,1.92231023311615,0.3206460773944855
-0.15993624925613403,6.1127028465271,1.0196053981781006
-0.20238631963729858,6.11151123046875,1.0192065238952637
-0.2419261336326599,6.021529197692871,1.0035556554794312
-0.16961361467838287,3.598822832107544,0.5994340181350708
-0.19246959686279297,3.559169292449951,0.5925117135047913
-0.21717126667499542,3.557832956314087,0.5919994711875916
-0.5282645225524902,7.766239166259766,1.2916786670684814
-0.5855138301849365,7.793238639831543,1.2956496477127075
-0.5378042459487915,6.552567005157471,1.0882837772369385
-0.588142454624176,6.606562614440918,1.0961406230926514
-0.630709171295166,6.571944713592529,1.0893439054489136
-0.6589040160179138,6.398998260498047,1.059694766998291
-0.7058090567588806,6.409787654876709,1.0605299472808838
-0.7494258880615234,6.3973493576049805,1.057589054107666
-0.7893478274345398,6.357931137084961,1.0498300790786743
-0.8249381184577942,6.291600227355957,1.0373626947402954
-0.8623607754707336,6.244162082672119,1.0280812978744507
-0.9026870131492615,6.21547794342041,1.0219271183013916
-0.9535526633262634,6.258976936340332,1.0276893377304077
-1.0031776428222656,6.2906575202941895,1.0315442085266113
-1.053123116493225,6.3220062255859375,1.0352104902267456
-1.1076180934906006,6.3797478675842285,1.0426647663116455
-1.154038667678833,6.387704849243164,1.0420066118240356
-1.213553547859192,6.45962381362915,1.0517667531967163
-1.262769341468811,6.47429084777832,1.0522369146347046
-1.3192695379257202,6.522590160369873,1.0581949949264526
-1.374914288520813,6.562872409820557,1.062868595123291
-1.4293274879455566,6.599266052246094,1.0661848783493042
-1.4665952920913696,6.552208423614502,1.0560181140899658
-1.50165593624115,6.501346111297607,1.0453612804412842
-1.5342241525650024,6.438855171203613,1.0328742265701294
-0.6915143728256226,2.815103530883789,0.4505242109298706
-0.6979032754898071,2.7580955028533936,0.44038620591163635
-0.720906674861908,2.7684578895568848,0.44073349237442017
-0.7317429780960083,2.733973503112793,0.4339592754840851
-0.7564744353294373,2.7515904903411865,0.4354787766933441
-0.7797216176986694,2.761476516723633,0.4357548654079437
-1.7721086740493774,6.113577842712402,0.9618759751319885
-1.8077945709228516,6.075658321380615,0.9530773162841797
-1.8353554010391235,6.019752502441406,0.9409566521644592
-1.8634040355682373,5.9674272537231445,0.9294560551643372
-1.8990042209625244,5.940767765045166,0.9220312237739563
-1.9306405782699585,5.8988566398620605,0.9122157692909241
-1.9626606702804565,5.856504917144775,0.9023396372795105
-1.9919860363006592,5.810649871826172,0.891952633857727
-2.0208733081817627,5.76878547668457,0.8817340135574341
-2.0493407249450684,5.7267656326293945,0.8715642690658569
-2.078768014907837,5.688206195831299,0.8619861006736755
-2.1077184677124023,5.645417213439941,0.8517177700996399
-2.136871814727783,5.602237224578857,0.8414044380187988
-2.1723833084106445,5.581178188323975,0.8342072367668152
-2.2269604206085205,5.610556602478027,0.8343164324760437
-2.289285659790039,5.657398700714111,0.836980402469635
-2.343109130859375,5.678192615509033,0.8356314897537231
-2.3716073036193848,5.633772850036621,0.8245738744735718
-2.404665946960449,5.603889465332031,0.8156836032867432
-2.454601526260376,5.617062091827393,0.8126383423805237
-2.544177293777466,5.718281269073486,0.8222395777702332
-4.002655982971191,8.835029602050781,1.2624804973602295
-2.5540192127227783,5.533107280731201,0.7854766845703125
-2.577828884124756,5.484607219696045,0.7735227942466736
-2.6326518058776855,5.506899356842041,0.7710612416267395
-2.6472060680389404,5.445046901702881,0.7568588852882385
-2.648113250732422,5.355041027069092,0.7387745380401611
-2.6899056434631348,5.344000339508057,0.7313938736915588
-2.7270803451538086,5.326253890991211,0.7231392860412598
-2.7713582515716553,5.326378345489502,0.7169127464294434
-5.105703353881836,9.65771198272705,1.2885591983795166
-2.795440673828125,5.201857089996338,0.6877052783966064
-1.175930142402649,2.1523168087005615,0.2818647027015686
-1.1907283067703247,2.144665241241455,0.2780359089374542
-2.50492000579834,4.443656921386719,0.5701306462287903
-2.576871871948242,4.50205135345459,0.5715043544769287
-2.915149688720703,5.011874198913574,0.6289733648300171
-6.079657554626465,10.289712905883789,1.2762080430984497
-1.2468055486679077,2.0789575576782227,0.2545942962169647
-2.926811933517456,4.809669017791748,0.5815706849098206
-2.9280495643615723,4.737213611602783,0.5648798942565918
-2.969226837158203,4.731103420257568,0.5561261773109436
-2.9999661445617676,4.712896823883057,0.5456515550613403
-3.0188138484954834,4.674335479736328,0.5326372385025024
-3.045391321182251,4.644400119781494,0.5202097296714783
-3.0595405101776123,4.5990214347839355,0.5059982538223267
-3.08040189743042,4.567553997039795,0.4932529330253601
-3.0916264057159424,4.518869876861572,0.4782353937625885
-3.1194236278533936,4.491572380065918,0.4649808406829834
-3.159147024154663,4.488821506500244,0.45416826009750366
-2.8721768856048584,4.025367736816406,0.3973861634731293
-2.8618695735931396,3.9524648189544678,0.37968796491622925
-2.9397575855255127,4.007730007171631,0.37405702471733093
-2.940725564956665,3.9549593925476074,0.3576663136482239
-2.4547581672668457,3.464095115661621,-0.19158756732940674
-2.7840523719787598,3.9902515411376953,-0.23344983160495758
-1.3234596252441406,1.9259494543075562,-0.11850013583898544
-2.247710943222046,3.325403928756714,-0.21474377810955048
-2.21966814994812,3.33414888381958,-0.22452221810817719
-2.231489896774292,3.405092477798462,-0.23853909969329834
-2.193082094192505,3.4014222621917725,-0.24740399420261383
-2.1585988998413086,3.3996376991271973,-0.25573471188545227
-1.263815999031067,2.0231475830078125,-0.15726238489151
-1.2649435997009277,2.0586776733398438,-0.16505204141139984
-2.0833139419555664,3.44407320022583,-0.2839876711368561
-2.0882439613342285,3.5085153579711914,-0.29722562432289124
-2.0837655067443848,3.560131788253784,-0.30955690145492554
-1.1756173372268677,2.0420331954956055,-0.18199829757213593
-1.2052178382873535,2.1278157234191895,-0.19409464299678802
-2.5835072994232178,4.639732360839844,-0.43277159333229065
-2.557182550430298,4.671013355255127,-0.44510141015052795
-2.531599521636963,4.701586723327637,-0.4571464955806732
-2.5042121410369873,4.732782363891602,-0.46937987208366394
-2.4802422523498535,4.7706451416015625,-0.48215141892433167
-2.449775218963623,4.794039726257324,-0.4932785928249359
-2.428152561187744,4.834442138671875,-0.5061452984809875
-2.3996715545654297,4.864912033081055,-0.5178743600845337
-2.3804636001586914,4.916451454162598,-0.5320965647697449
-2.349121332168579,4.939027786254883,-0.5428444147109985
-2.3222615718841553,4.972069263458252,-0.5547510981559753
-2.2925913333892822,5.001819610595703,-0.5661689043045044
-2.2723424434661865,5.0525641441345215,-0.5800331830978394
-2.227308511734009,5.046003818511963,-0.5871666669845581
-2.0843136310577393,4.814930438995361,-0.5678352117538452
-1.9918068647384644,4.693000316619873,-0.5604743361473083
-1.940139651298523,4.663153171539307,-0.5638313889503479
-1.8955655097961426,4.646924018859863,-0.5686123967170715
-1.8381820917129517,4.5979461669921875,-0.569189727306366
-1.810149073600769,4.624730587005615,-0.5789878964424133
-1.3299366235733032,3.4702060222625732,-0.4392121434211731
-1.759346842765808,4.687928199768066,-0.5996358394622803
-1.729019284248352,4.706472396850586,-0.6082736253738403
-2.0100297927856445,5.5934295654296875,-0.7299569845199585
-1.0264008045196533,2.9222280979156494,-0.3851102292537689
-0.9806525111198425,2.85546612739563,-0.37985941767692566
-0.9396129846572876,2.7992470264434814,-0.3758576810359955
-0.9124249219894409,2.7832279205322266,-0.376922070980072
-0.8677537441253662,2.711646318435669,-0.3703468143939972
-0.8136419057846069,2.6063601970672607,-0.35898980498313904
-0.7705507278442383,2.529994010925293,-0.3513394594192505
-0.765877902507782,2.5794386863708496,-0.3609761893749237
-0.7539963126182556,2.6066501140594482,-0.3674888610839844
-0.7470932602882385,2.6524155139923096,-0.37668946385383606
-0.7428362369537354,2.709341287612915,-0.3875627815723419
-0.7194627523422241,2.6991329193115234,-0.38886556029319763
-0.7110179662704468,2.7448923587799072,-0.3979943096637726
-0.6830692291259766,2.715634822845459,-0.39627543091773987
-0.6686416268348694,2.738673210144043,-0.40216267108917236
-0.6512513756752014,2.7503440380096436,-0.4064246416091919
-0.633269727230072,2.7620389461517334,-0.41047582030296326
-0.6221708655357361,2.803746223449707,-0.41894006729125977
-0.6040951609611511,2.8151748180389404,-0.4229297339916229
-0.5875245332717896,2.8340375423431396,-0.42806774377822876
-0.5661444067955017,2.830091953277588,-0.4296533167362213
-0.5567970871925354,2.890594244003296,-0.4408690631389618
-0.5350397825241089,2.886456251144409,-0.4422445297241211
-0.5230356454849243,2.9353580474853516,-0.4517764151096344
-0.5058415532112122,2.9575676918029785,-0.4572647213935852
-0.4863675534725189,2.968313455581665,-0.4606746733188629
-0.47000008821487427,3.001873016357422,-0.467631995677948
-0.45584776997566223,3.050560235977173,-0.4769819974899292
-0.4372793734073639,3.0724258422851562,-0.48219504952430725
-0.41788357496261597,3.0903737545013428,-0.48669981956481934
-0.3972395062446594,3.1005938053131104,-0.4897054135799408
-0.37922945618629456,3.1336610317230225,-0.496362566947937
-0.36178115010261536,3.1781516075134277,-0.5049075484275818
-0.34044504165649414,3.187976121902466,-0.5079663991928101
-0.3212370276451111,3.2207491397857666,-0.5143573880195618
-0.30124014616012573,3.2495813369750977,-0.5200358033180237
-0.279868483543396,3.2667553424835205,-0.5238880515098572
-0.1549389660358429,1.972592830657959,-0.31703534722328186
-0.2361791431903839,3.300701379776001,-0.5315639972686768
-0.29889318346977234,4.629900932312012,-0.7465516924858093
-0.26618504524230957,4.623969078063965,-0.7465553283691406
-0.2322472333908081,4.590846538543701,-0.7421947121620178
-0.19743330776691437,4.538236618041992,-0.7347167134284973
-0.16639061272144318,4.554783344268799,-0.7380270957946777
-0.13377879559993744,4.524914264678955,-0.733534038066864
-0.10167787969112396,4.49867057800293,-0.729659378528595
-0.0696830153465271,4.452923774719238,-0.722649872303009
-0.037932563573122025,4.418522834777832,-0.7175162434577942
-0.00721375597640872,4.418708324432373,-0.7173420786857605
0.0234240610152483,4.403260707855225,-0.7146401405334473
0.05413065105676651,4.410734176635742,-0.7156931757926941
0.07982795685529709,4.151989459991455,-0.6735907196998596
0.10919150710105896,4.170673370361328,-0.6763057708740234
0.13973209261894226,4.200767517089844,-0.6804360747337341
0.16597600281238556,4.1266255378723145,-0.6677359342575073
0.19701218605041504,4.175584316253662,-0.6749914288520813
0.23419274389743805,4.324430465698242,-0.6983949542045593
0.25503724813461304,4.172793388366699,-0.6728200316429138
0.2865976095199585,4.201915264129639,-0.676257848739624
0.3108767569065094,4.134678363800049,-0.6642500758171082
0.34090283513069153,4.148030757904053,-0.665234386920929
0.372147798538208,4.172706127166748,-0.6679691672325134
0.4088590741157532,4.251004695892334,-0.6787200570106506
0.5141947865486145,4.9775309562683105,-0.7926309108734131
0.5538555979728699,5.020263195037842,-0.7974002361297607
0.581620991230011,4.955370903015137,-0.7851147651672363
0.6117822527885437,4.917203903198242,-0.7767372131347656
0.6388347744941711,4.859780311584473,-0.7650657296180725
0.6805746555328369,4.909185409545898,-0.7702018022537231
0.7080563306808472,4.858997821807861,-0.7597845792770386
0.7429986596107483,4.862091064453125,-0.7577582597732544
0.6273205876350403,3.923306703567505,-0.6089035868644714
0.6544986963272095,3.9193527698516846,-0.6057524085044861
0.6764139533042908,3.8847596645355225,-0.5979087948799133
0.7012193202972412,3.8651492595672607,-0.5923762321472168
0.7295202016830444,3.8682808876037598,-0.5901989936828613
0.7533483505249023,3.848517894744873,-0.584260106086731
0.7785044312477112,3.836172580718994,-0.5794892907142639
0.7996710538864136,3.804724931716919,-0.5718735456466675
0.8233789801597595,3.784395217895508,-0.5659369230270386
0.8546674847602844,3.8018269538879395,-0.5652982592582703
0.8635175824165344,3.721092939376831,-0.5500742197036743
0.8929793238639832,3.730633020401001,-0.5482628345489502
0.9190552830696106,3.7248904705047607,-0.5442010164260864
0.9435290694236755,3.711409330368042,-0.538824737071991
0.967238187789917,3.6979498863220215,-0.5332859754562378
0.9928433299064636,3.691798448562622,-0.5288300514221191
