X,Y,Z
0.09346235543489456,1.7315665483474731,-0.20441488921642303
0.10595434159040451,1.7386627197265625,-0.20497070252895355
0.11824275553226471,1.7379133701324463,-0.20460538566112518
0.129726380109787,1.729354977607727,-0.20333679020404816
0.14174269139766693,1.7284549474716187,-0.2029678374528885
0.15369538962841034,1.7274961471557617,-0.2024310678243637
0.16713841259479523,1.7419023513793945,-0.20370027422904968
0.17865103483200073,1.7330225706100464,-0.20224598050117493
0.1906937211751938,1.7318021059036255,-0.20170412957668304
0.2045322209596634,1.7459198236465454,-0.20290738344192505
0.21374517679214478,1.721440315246582,-0.19949889183044434
0.2307063192129135,1.758481502532959,-0.2032248079776764
0.24207518994808197,1.7492038011550903,-0.2015855461359024
0.25425347685813904,1.7475601434707642,-0.20084714889526367
0.2616827189922333,1.7151525020599365,-0.19651229679584503
0.2747505307197571,1.7210719585418701,-0.1964949369430542
0.2892036437988281,1.7345486879348755,-0.19733969867229462
0.29727792739868164,1.7096492052078247,-0.19382677972316742
0.31078019738197327,1.7152420282363892,-0.19377361238002777
0.3190552890300751,1.6940867900848389,-0.19060483574867249
0.3434109389781952,1.7567440271377563,-0.19680505990982056
0.360192209482193,1.7772821187973022,-0.19825178384780884
0.372575581073761,1.7748525142669678,-0.19712908565998077
0.39094778895378113,1.7988535165786743,-0.19892188906669617
0.4033432900905609,1.7962580919265747,-0.19762207567691803
0.4209837019443512,1.8162801265716553,-0.1988072693347931
0.4426215589046478,1.8512375354766846,-0.2015957236289978
0.4480922222137451,1.8180760145187378,-0.1969667673110962
0.46283021569252014,1.8225505352020264,-0.19636809825897217
0.4753701090812683,1.819480538368225,-0.1948765218257904
0.48182687163352966,1.793810248374939,-0.1909891963005066
0.5201815962791443,1.884212851524353,-0.19940795004367828
0.5354486107826233,1.8881779909133911,-0.19862240552902222
0.5530285239219666,1.8994815349578857,-0.1984725296497345
0.5716207027435303,1.9144426584243774,-0.19867144525051117
0.5894123315811157,1.9254906177520752,-0.1984388530254364
0.602850615978241,1.9215102195739746,-0.19664381444454193
0.6233384609222412,1.9396661520004272,-0.19708319008350372
0.6490213871002197,1.972403645515442,-0.198822483420372
0.6600386500358582,1.9607388973236084,-0.1961013525724411
0.6876456141471863,1.9967321157455444,-0.19809980690479279
0.7067574262619019,2.00675368309021,-0.19748519361019135
0.7310888767242432,2.0313351154327393,-0.19817940890789032
0.7530219554901123,2.0484108924865723,-0.1980701982975006
0.7742604613304138,2.0614945888519287,-0.1974981427192688
0.7998051643371582,2.085314989089966,-0.19793429970741272
0.8255863785743713,2.1089372634887695,-0.1982639878988266
0.8529399633407593,2.136019706726074,-0.19879122078418732
0.8763599991798401,2.151991367340088,-0.19823352992534637
0.9065720438957214,2.1818974018096924,-0.19883589446544647
0.9232641458511353,2.17935848236084,-0.19647906720638275
0.9627187252044678,2.230483293533325,-0.1988036334514618
0.991938054561615,2.256230115890503,-0.198783740401268
1.0267837047576904,2.2921481132507324,-0.1995227187871933
1.0559929609298706,2.3133983612060547,-0.1988765001296997
1.0864269733428955,2.338242292404175,-0.19842562079429626
1.1188629865646362,2.3663253784179688,-0.19818119704723358
1.1471565961837769,2.383317232131958,-0.19686870276927948
1.1586493253707886,2.3650214672088623,-0.19262655079364777
1.1644781827926636,2.336348056793213,-0.18745073676109314
1.261210322380066,2.4886093139648438,-0.1966780424118042
1.2928037643432617,2.507767677307129,-0.19506394863128662
1.3446681499481201,2.564556360244751,-0.19625882804393768
1.378316879272461,2.586749792098999,-0.19461289048194885
1.3826913833618164,2.5537285804748535,-0.1887999176979065
1.378251075744629,2.5031633377075195,-0.18159610033035278
1.3345434665679932,2.385028839111328,-0.16975033283233643
1.3600295782089233,2.3933165073394775,-0.1669895052909851
1.4133265018463135,2.4484517574310303,-0.167314812541008
1.434410572052002,2.445497512817383,-0.16346804797649384
1.4471714496612549,2.429182767868042,-0.15864218771457672
1.4572203159332275,2.4097819328308105,-0.1536950021982193
1.4739856719970703,2.399847984313965,-0.14919063448905945
1.5131257772445679,2.4263670444488525,-0.14687560498714447
1.545729160308838,2.443018913269043,-0.14384131133556366
1.5331922769546509,2.3865156173706055,-0.13629865646362305
1.4644474983215332,2.245359182357788,-0.1242232695221901
1.4015562534332275,2.118837594985962,-0.11338783800601959
1.4158896207809448,2.1095235347747803,-0.10889002680778503
1.4414314031600952,2.116044044494629,-0.10506510734558105
1.4486113786697388,2.097148895263672,-0.09988968074321747
1.458375096321106,2.0810720920562744,-0.09471908211708069
1.4407989978790283,2.026803731918335,-0.08779909461736679
1.4400198459625244,1.9987621307373047,-0.08214735239744186
1.4677366018295288,2.0078022480010986,-0.07761172205209732
1.4759522676467896,1.9922577142715454,-0.07209808379411697
2.3858916759490967,3.3427486419677734,0.22942247986793518
2.3755335807800293,3.3781800270080566,0.23912492394447327
2.3489246368408203,3.396135091781616,0.2475135326385498
2.3461947441101074,3.4447247982025146,0.25766193866729736
2.353865146636963,3.5095465183258057,0.26894745230674744
2.322338819503784,3.520561695098877,0.27607977390289307
2.3261618614196777,3.5826969146728516,0.2869747281074524
1.626742959022522,2.544660806655884,0.20789097249507904
1.640352725982666,2.6094446182250977,0.21720238029956818
1.600614070892334,2.587904214859009,0.21920865774154663
3.0087802410125732,4.94118595123291,0.42543044686317444
2.9873902797698975,4.989750385284424,0.4364416301250458
2.963294267654419,5.035006999969482,0.447061687707901
2.939382791519165,5.075311660766602,0.45686325430870056
2.9152870178222656,5.115379333496094,0.4666735827922821
2.8805606365203857,5.143224239349365,0.47513148188591003
2.865730047225952,5.208605766296387,0.4872177839279175
2.7791390419006348,5.135427951812744,0.48584306240081787
2.669926881790161,5.016651153564453,0.47993233799934387
1.9166189432144165,3.6664600372314453,0.35440051555633545
1.8785744905471802,3.6593897342681885,0.35733678936958313
1.8522998094558716,3.6722946166992188,0.3620833158493042
1.8265618085861206,3.684705972671509,0.36671653389930725
1.2445881366729736,2.5571062564849854,0.2567291855812073
1.2155721187591553,2.544874668121338,0.2576788663864136
1.1972092390060425,2.553262710571289,0.26065438985824585
1.1792690753936768,2.5613017082214355,0.2635519802570343
1.159185528755188,2.5658860206604004,0.2660979926586151
1.1575775146484375,2.6131787300109863,0.27293041348457336
1.5874221324920654,3.655613422393799,0.3845070004463196
1.5722830295562744,3.691356658935547,0.3908800184726715
1.5584077835083008,3.7305681705474854,0.3976582884788513
1.5313022136688232,3.741380214691162,0.4013661742210388
2.4438774585723877,6.0971479415893555,0.6579301357269287
2.421980619430542,6.172110080718994,0.6699227094650269
2.388526439666748,6.213685512542725,0.6782098412513733
2.3587141036987305,6.265995025634766,0.6877391338348389
2.305295944213867,6.260405540466309,0.6908001899719238
2.2821877002716064,6.33854341506958,0.7028138637542725
2.268381118774414,6.4459733963012695,0.7181949019432068
2.2382285594940186,6.505254745483398,0.7282085418701172
2.208836793899536,6.568018913269043,0.7386777997016907
2.1738717555999756,6.619991302490234,0.7479518055915833
2.136659860610962,6.668278694152832,0.7564085721969604
2.0803940296173096,6.657038688659668,0.7581514120101929
2.0149805545806885,6.611680507659912,0.7559604644775391
1.9610291719436646,6.599020481109619,0.7574586272239685
1.8976949453353882,6.552350044250488,0.7550472617149353
1.8384175300598145,6.524399757385254,0.7543856501579285
1.779199242591858,6.492055416107178,0.7530695199966431
1.721603512763977,6.462939739227295,0.7521308064460754
1.6628085374832153,6.421762466430664,0.7497267723083496
0.8160637617111206,3.2446224689483643,0.38002336025238037
1.5581392049789429,6.387192249298096,0.750432550907135
1.4820466041564941,6.2693963050842285,0.7384657263755798
1.437156081199646,6.279473781585693,0.7415606379508972
1.382639765739441,6.243656158447266,0.7392374873161316
1.3423962593078613,6.267951488494873,0.7440283298492432
1.290178656578064,6.2389302253723145,0.7425506114959717
1.2318617105484009,6.175231456756592,0.7366505265235901
1.1894534826278687,6.1911492347717285,0.7400075793266296
1.1377813816070557,6.157170295715332,0.737427294254303
1.077537178993225,6.069235801696777,0.7283751964569092
1.0403492450714111,6.1108503341674805,0.7349053621292114
0.9921501874923706,6.083207607269287,0.733115553855896
0.9433000683784485,6.051478385925293,0.730506420135498
0.9016108512878418,6.065453052520752,0.7332455515861511
0.8494516015052795,6.0061750411987305,0.7271554470062256
0.7927064299583435,5.908071517944336,0.7163785696029663
0.7569616436958313,5.95555305480957,0.7232523560523987
0.6110491156578064,5.090266227722168,0.619152843952179
0.570083737373352,5.048041820526123,0.6147234439849854
0.5455780029296875,5.15592098236084,0.6284571886062622
0.40416190028190613,4.094413757324219,0.49956750869750977
0.3736334443092346,4.0816330909729,0.49853402376174927
0.35044440627098083,4.1458539962768555,0.506925106048584
0.32548025250434875,4.198345184326172,0.5139217376708984
0.2944892346858978,4.177234172821045,0.5117072463035583
0.26519906520843506,4.179136753082275,0.5121867656707764
0.23753899335861206,4.21957540512085,0.5174220204353333
0.38399937748908997,7.787679195404053,0.9555070996284485
0.32825928926467896,7.751312255859375,0.9516358971595764
0.27304309606552124,7.714550018310547,0.9477558732032776
0.21839183568954468,7.681315898895264,0.9440082907676697
0.16357013583183289,7.66714334487915,0.9422938227653503
0.10991659015417099,7.644813060760498,0.9396219253540039
0.05641351640224457,7.610477447509766,0.9355194568634033
0.0034806751646101475,7.587400436401367,0.9328449964523315
-0.04912849888205528,7.5639567375183105,0.930169403553009
-0.10226141661405563,7.532412052154541,0.9263033866882324
-0.15371790528297424,7.488940238952637,0.9205784201622009
-0.20510774850845337,7.464497089385986,0.9172401428222656
-0.25603199005126953,7.435826301574707,0.9134288430213928
-0.30809131264686584,7.445551872253418,0.9143792390823364
-0.2564197778701782,5.305573463439941,0.6514282822608948
-0.3005134165287018,5.4236955642700195,0.6657203435897827
-0.3364858627319336,5.398374080657959,0.6620550751686096
-0.3727164566516876,5.380547523498535,0.6593435406684875
-0.4093060791492462,5.370209693908691,0.6575835347175598
-0.4466423988342285,5.36733341217041,0.6567664742469788
-0.4685949385166168,5.1864914894104,0.6342115998268127
-0.4497728645801544,4.6197333335876465,0.5645356774330139
-0.48082825541496277,4.608943462371826,0.5624730587005615
-0.5112787485122681,4.594096660614014,0.5599461197853088
-0.5420513153076172,4.582892894744873,0.557891845703125
-0.571487545967102,4.556004047393799,0.5539442896842957
-0.6021304130554199,4.54436731338501,0.5518928170204163
-0.629374623298645,4.509483814239502,0.5470508337020874
-0.6614308953285217,4.512913703918457,0.5464971661567688
-0.6887947916984558,4.485455513000488,0.5422218441963196
-0.7182177901268005,4.469236373901367,0.5393211841583252
-0.7491881251335144,4.464330196380615,0.5378198027610779
-0.7761602997779846,4.436275005340576,0.53355872631073
-0.8028249144554138,4.408050537109375,0.5293107628822327
-0.8300238847732544,4.38743782043457,0.5256514549255371
-0.7164899706840515,3.6509439945220947,0.4364282786846161
-0.748019278049469,3.6764822006225586,0.4384896457195282
-0.7703381180763245,3.6561992168426514,0.43510299921035767
-0.9403613805770874,4.314402103424072,0.5123100280761719
-0.9772093296051025,4.338253974914551,0.5140288472175598
-1.004949927330017,4.3242082595825195,0.5109079480171204
-1.0366812944412231,4.324959754943848,0.5095339417457581
-1.0512484312057495,4.25777006149292,0.5002199411392212
-1.0808827877044678,4.250607967376709,0.49797117710113525
-1.1123909950256348,4.250759124755859,0.4966029226779938
-1.1438356637954712,4.250716209411621,0.4951570928096771
-1.1689703464508057,4.228069305419922,0.4908020794391632
-1.1933952569961548,4.205397605895996,0.4865058958530426
-1.2242822647094727,4.204896450042725,0.48478806018829346
-1.2535698413848877,4.196561336517334,0.4821541905403137
-1.2782106399536133,4.173182487487793,0.47782349586486816
-1.301445722579956,4.1459736824035645,0.4728667736053467
-1.3317604064941406,4.144827842712402,0.47078511118888855
-1.3476016521453857,4.099172115325928,0.4636804461479187
-1.3857918977737427,4.119553565979004,0.4640275537967682
-1.4195451736450195,4.124820232391357,0.46265488862991333
-1.4430818557739258,4.100516319274902,0.4579755365848541
-1.4685101509094238,4.083595275878906,0.4538140296936035
-1.48793363571167,4.052097320556641,0.4481087923049927
-1.5182054042816162,4.049518585205078,0.44560620188713074
-1.5463597774505615,4.039223670959473,0.44222113490104675
-1.5716140270233154,4.021490573883057,0.43804726004600525
-1.584834098815918,3.974881649017334,0.4305078387260437
-1.6084376573562622,3.9573891162872314,0.4261239171028137
-1.6379314661026,3.9540786743164062,0.42327648401260376
-1.6655699014663696,3.942919969558716,0.41949692368507385
-1.6931655406951904,3.931550979614258,0.41571229696273804
-1.7234729528427124,3.9272751808166504,0.4124695360660553
-1.7433570623397827,3.9018800258636475,0.4069634974002838
-1.7695153951644897,3.8905060291290283,0.4029378294944763
-1.7884955406188965,3.8608286380767822,0.3969320058822632
-1.8154430389404297,3.848659038543701,0.3927590250968933
-1.8282856941223145,3.8085296154022217,0.3855232000350952
-1.8637653589248657,3.817725896835327,0.38328057527542114
-1.872186303138733,3.7706563472747803,0.37536513805389404
-1.922993540763855,3.8065884113311768,0.3756117522716522
-1.938751459121704,3.77280855178833,0.36895403265953064
-1.9671576023101807,3.7673234939575195,0.3648584187030792
-1.9850493669509888,3.740778684616089,0.35868510603904724
-2.003451108932495,3.7137491703033447,0.3523957431316376
-1.7074320316314697,3.112985849380493,0.2922345995903015
-1.7207227945327759,3.0882461071014404,0.28665468096733093
-1.7217944860458374,3.043388605117798,0.27920815348625183
-0.8500570058822632,1.4787695407867432,0.13397948443889618
-0.8525454998016357,1.4595235586166382,0.13054251670837402
-0.866358757019043,1.4606314897537231,0.12889191508293152
-0.8758561611175537,1.455155849456787,0.1266186237335205
-0.8735170364379883,1.4294410943984985,0.12254172563552856
-0.8919427394866943,1.4366050958633423,0.12119583040475845
-0.9014864563941956,1.4308422803878784,0.1187303215265274
-0.8981534242630005,1.4054687023162842,0.11464685201644897
-0.8908592462539673,1.3732918500900269,0.1099536195397377
-0.9003665447235107,1.3672833442687988,0.10736292600631714
-0.9438726902008057,1.4134795665740967,0.10869595408439636
-2.457416534423828,3.6282482147216797,0.2729576826095581
-1.2083191871643066,1.757517695426941,0.12908680737018585
-1.364590048789978,1.9578869342803955,0.14021551609039307
-1.221200704574585,1.7606357336044312,-0.08856987953186035
-1.2586958408355713,1.8435537815093994,-0.09709005802869797
-1.2950611114501953,1.9270710945129395,-0.10585890710353851
-1.2104467153549194,1.8284776210784912,-0.10433237254619598
-1.2794139385223389,1.9649568796157837,-0.11633521318435669
-1.5613549947738647,2.474031925201416,-0.15621790289878845
-1.7881838083267212,2.974419355392456,-0.20424626767635345
-0.8544721603393555,1.5184352397918701,-0.11434640735387802
-1.54842209815979,2.8001885414123535,-0.2153666466474533
-1.4896172285079956,2.7387144565582275,-0.2147323191165924
-1.4426534175872803,2.6972522735595703,-0.21547189354896545
-1.3920459747314453,2.6487350463867188,-0.2154330313205719
-1.337186336517334,2.5890891551971436,-0.21425242722034454
-1.28872811794281,2.5391392707824707,-0.21366804838180542
-1.2514023780822754,2.5096030235290527,-0.21457156538963318
-1.2125496864318848,2.4763224124908447,-0.21501460671424866
-1.1628659963607788,2.417853832244873,-0.21306000649929047
-1.1242772340774536,2.3798415660858154,-0.21273277699947357
-1.100614309310913,2.373396158218384,-0.2150895595550537
-1.0637401342391968,2.3385956287384033,-0.21483933925628662
-1.029740571975708,2.306638479232788,-0.2146402895450592
-0.9916880130767822,2.263578176498413,-0.2132919728755951
-0.9677533507347107,2.2524492740631104,-0.21479828655719757
-0.9333436489105225,2.2160441875457764,-0.2138105034828186
-0.8981043100357056,2.175642490386963,-0.21233554184436798
-0.8740803003311157,2.1599583625793457,-0.2131493091583252
-0.8529196977615356,2.151392698287964,-0.21454773843288422
-0.8135071992874146,2.0955545902252197,-0.21112440526485443
-0.7931327223777771,2.086449146270752,-0.21230903267860413
-0.7755300998687744,2.0844886302948,-0.2142249345779419
-0.7407898902893066,2.034870147705078,-0.21108703315258026
-0.7209911346435547,2.0252199172973633,-0.21196794509887695
-0.6938243508338928,1.993326187133789,-0.21046802401542664
-0.6723790764808655,1.9758024215698242,-0.21041227877140045
-0.6570338010787964,1.9766192436218262,-0.21230155229568481
-0.6381535530090332,1.9662312269210815,-0.21283434331417084
-0.6077218651771545,1.9186371564865112,-0.2092946320772171
-0.588573157787323,1.904054880142212,-0.20927760004997253
-0.5662785768508911,1.8781485557556152,-0.2079879492521286
-0.5551750063896179,1.889352560043335,-0.21067479252815247
-0.5233616232872009,1.8296265602111816,-0.2054126113653183
-0.5219314098358154,1.8742175102233887,-0.21181972324848175
-0.48954978585243225,1.8064037561416626,-0.2054986208677292
-0.48478245735168457,1.8396377563476562,-0.21060338616371155
-0.4659631550312042,1.8202778100967407,-0.20959490537643433
-0.44536909461021423,1.7932604551315308,-0.207699254155159
-0.4310404062271118,1.7885979413986206,-0.20833982527256012
-0.4185641407966614,1.7913819551467896,-0.20985294878482819
-0.4008362293243408,1.7714046239852905,-0.20855949819087982
-0.3858533203601837,1.7626570463180542,-0.20854027569293976
-0.3732510805130005,1.7652102708816528,-0.20987603068351746
-0.3546947240829468,1.737209677696228,-0.20754964649677277
-0.34251129627227783,1.7395025491714478,-0.2088056057691574
-0.32879021763801575,1.7341185808181763,-0.20899958908557892
-0.3179306983947754,1.7438945770263672,-0.21103213727474213
-0.3015431761741638,1.723046898841858,-0.20936574041843414
-0.29082587361335754,1.7326219081878662,-0.21138282120227814
-0.27503204345703125,1.7115154266357422,-0.2095613330602646
-0.2642113268375397,1.7209564447402954,-0.21139609813690186
-0.2470943033695221,1.6881250143051147,-0.2080378532409668
-0.23728907108306885,1.7050817012786865,-0.21082445979118347
-0.22340692579746246,1.691205620765686,-0.20979689061641693
-0.21351869404315948,1.7080222368240356,-0.2124292254447937
-0.1988399475812912,1.6862881183624268,-0.21024248003959656
-0.1870659589767456,1.6875497102737427,-0.21092474460601807
-0.17531196773052216,1.6887261867523193,-0.21160534024238586
-0.16481372714042664,1.7052756547927856,-0.2142186015844345
-0.1508152037858963,1.6831610202789307,-0.2117975652217865
-0.13839568197727203,1.6763885021209717,-0.2113112509250641
-0.12728776037693024,1.684981107711792,-0.2127707302570343
-0.11450451612472534,1.67029869556427,-0.21129882335662842
-0.10123860836029053,1.6478064060211182,-0.2087794840335846
-0.09015057235956192,1.6561763286590576,-0.21004536747932434
-0.07859715819358826,1.6567285060882568,-0.21033070981502533
-0.06676837801933289,1.6494547128677368,-0.20963086187839508
-0.054784853011369705,1.6343514919281006,-0.20794281363487244
-0.04341874644160271,1.6424239873886108,-0.20909874141216278
-0.03215538710355759,1.6504241228103638,-0.21016739308834076
-0.020477933809161186,1.6350986957550049,-0.2082756608724594
-0.009230969473719597,1.6584404706954956,-0.2113197296857834
0.0023074494674801826,1.6584540605545044,-0.21140256524085999
0.013921573758125305,1.6429057121276855,-0.20935878157615662
0.025351114571094513,1.6427826881408691,-0.20925208926200867
0.03634589537978172,1.6232101917266846,-0.2066790610551834
0.047965504229068756,1.634551763534546,-0.20805281400680542
0.059041522443294525,1.6264476776123047,-0.2069602906703949
0.07166555523872375,1.6570093631744385,-0.210595041513443
0.08414821326732635,1.671982765197754,-0.2122473418712616
0.0953330546617508,1.6636584997177124,-0.2109551578760147
0.10640616714954376,1.6552594900131226,-0.20966582000255585
0.11737259477376938,1.6467920541763306,-0.20833592116832733
0.12878994643688202,1.6460009813308716,-0.20784088969230652
0.14040695130825043,1.6451144218444824,-0.20733694732189178
0.15184026956558228,1.6441609859466553,-0.20684067904949188
0.16481392085552216,1.6585551500320435,-0.20828132331371307
0.1771523356437683,1.6651531457901,-0.20865777134895325
0.18956419825553894,1.671675682067871,-0.2089262157678604
0.20228317379951477,1.678082823753357,-0.20917563140392303
0.2139393538236618,1.6767240762710571,-0.2084731161594391
0.22560027241706848,1.67528235912323,-0.2077697068452835
0.23393604159355164,1.6507489681243896,-0.20408862829208374
0.24991106986999512,1.6798820495605469,-0.2069966197013855
0.26295316219329834,1.6858514547348022,-0.20703062415122986
0.27595269680023193,1.691742181777954,-0.20706696808338165
0.2877311110496521,1.6898891925811768,-0.20616324245929718
0.2994232177734375,1.687988519668579,-0.20508244633674622
0.3111022412776947,1.6860063076019287,-0.20400071144104004
0.32280927896499634,1.6839351654052734,-0.20291507244110107
0.3370216488838196,1.693150281906128,-0.2031761109828949
0.34328460693359375,1.664307951927185,-0.19885112345218658
0.3604251742362976,1.6886111497879028,-0.20076821744441986
0.3737500309944153,1.6938101053237915,-0.2004023939371109
0.38383710384368896,1.6837445497512817,-0.1982298493385315
0.3931153416633606,1.6697956323623657,-0.19560404121875763
0.4110938310623169,1.6935935020446777,-0.19730794429779053
0.43030259013175964,1.7210115194320679,-0.1993531882762909
0.44222331047058105,1.7181580066680908,-0.1978759914636612
0.462144136428833,1.74522864818573,-0.19982802867889404
0.47960150241851807,1.7608190774917603,-0.2004111111164093
0.49797388911247253,1.7801085710525513,-0.2012738436460495
0.5209352970123291,1.8141582012176514,-0.2037688046693802
0.5313596725463867,1.8032317161560059,-0.20118393003940582
0.5484422445297241,1.8145432472229004,-0.20107971131801605
0.5669733285903931,1.8293918371200562,-0.20124591886997223
0.5865998864173889,1.847878336906433,-0.20174327492713928
0.6041480302810669,1.8587791919708252,-0.20138606429100037
0.6269408464431763,1.8842254877090454,-0.2025582194328308
0.6463279724121094,1.8984216451644897,-0.20248302817344666
0.661881685256958,1.9015201330184937,-0.2010798305273056
0.6803458333015442,1.9117399454116821,-0.20038825273513794
0.6989690661430359,1.9218004941940308,-0.19966447353363037
0.7232112288475037,1.9462629556655884,-0.20040228962898254
0.7462509870529175,1.9669318199157715,-0.20061525702476501
0.7652977705001831,1.9765398502349854,-0.19962860643863678
0.8020648956298828,2.029235363006592,-0.20287182927131653
0.8176918625831604,2.0274431705474854,-0.2006276696920395
0.8435581922531128,2.0507731437683105,-0.20079773664474487
0.8755606412887573,2.0883047580718994,-0.20222432911396027
0.8944432735443115,2.0932600498199463,-0.20043328404426575
0.9279854893684387,2.1299281120300293,-0.2015397548675537
0.9490949511528015,2.1379313468933105,-0.19989700615406036
0.9876509308815002,2.1849217414855957,-0.20174524188041687
1.0122865438461304,2.199646472930908,-0.20052863657474518
1.0491210222244263,2.238640785217285,-0.2013874351978302
1.0817208290100098,2.2666001319885254,-0.20110081136226654
1.1225322484970093,2.3120880126953125,-0.20223258435726166
1.1382007598876953,2.304724931716919,-0.19867296516895294
1.1910624504089355,2.3700883388519287,-0.2011997252702713
1.2252535820007324,2.396751642227173,-0.2002919316291809
1.2377903461456299,2.381847620010376,-0.1958160102367401
1.268816351890564,2.401106119155884,-0.19404082000255585
1.316922664642334,2.4508612155914307,-0.1945863664150238
1.3654683828353882,2.500241279602051,-0.19491545855998993
1.3537920713424683,2.440268039703369,-0.1866767704486847
1.2996647357940674,2.305623769760132,-0.172908216714859
1.3354203701019287,2.3304591178894043,-0.1711115688085556
1.3706964254379272,2.3554210662841797,-0.1692425161600113
1.4279835224151611,2.4170587062835693,-0.16984272003173828
1.448885202407837,2.4140169620513916,-0.1655803620815277
1.4655001163482666,2.4042885303497314,-0.16083548963069916
1.4775524139404297,2.388052225112915,-0.1555722951889038
1.5166997909545898,2.414523124694824,-0.1529718041419983
1.554538607597351,2.4370574951171875,-0.1499033421278
1.5789706707000732,2.440221071243286,-0.1455443650484085
1.6895990371704102,2.5733468532562256,-0.14851747453212738
1.4135003089904785,2.120042085647583,-0.1179952546954155
1.427319049835205,2.111027240753174,-0.1131804883480072
1.4414474964141846,2.1016669273376465,-0.1082119420170784
1.4560372829437256,2.0918469429016113,-0.10303880274295807
1.451418399810791,2.0572001934051514,-0.09669551998376846
1.4474215507507324,2.0219788551330566,-0.0900861918926239
1.4518425464630127,1.9997775554656982,-0.08409055322408676
1.4646220207214355,1.9906604290008545,-0.07862655073404312
2.381552219390869,3.3632092475891113,0.2547520101070404
2.3608572483062744,3.386596441268921,0.2641187608242035
2.3498566150665283,3.421982526779175,0.27405673265457153
2.3444197177886963,3.472140073776245,0.2852717638015747
2.3061468601226807,3.4689815044403076,0.2915528416633606
2.296342134475708,3.5074779987335205,0.3011167049407959
1.5943704843521118,2.476263999938965,0.216902494430542
1.6407450437545776,2.589473247528076,0.2310962677001953
1.622212290763855,2.600661277770996,0.2362409383058548
1.5945302248001099,2.5990118980407715,0.24001145362854004
3.010775327682495,4.991091728210449,0.4683153033256531
2.9775185585021973,5.014703750610352,0.47740650177001953
2.961306095123291,5.068592071533203,0.4893922507762909
2.9338083267211914,5.110646724700928,0.5001946687698364
2.9130756855010986,5.161910057067871,0.5117365717887878
2.8710784912109375,5.171230316162109,0.5188348293304443
2.8656885623931885,5.2488932609558105,0.5327663421630859
2.839134454727173,5.29341459274292,0.543185830116272
2.7866451740264893,5.289654731750488,0.5486871600151062
1.8979986906051636,3.664336681365967,0.38389649987220764
1.8685611486434937,3.670171022415161,0.3882845342159271
1.8377792835235596,3.676464319229126,0.3924834728240967
1.8138558864593506,3.6964619159698486,0.3981671631336212
1.2303422689437866,2.553128480911255,0.2773788869380951
1.2123852968215942,2.561354160308838,0.2805948257446289
1.1855796575546265,2.552117109298706,0.28176233172416687
1.1682840585708618,2.5640153884887695,0.28519806265830994
1.1559827327728271,2.586286783218384,0.28977835178375244
1.1378612518310547,2.593985080718994,0.29267579317092896
1.5769253969192505,3.6652073860168457,0.4164712429046631
1.5636581182479858,3.7084202766418457,0.42401736974716187
1.5423901081085205,3.7336883544921875,0.4295475482940674
2.46280574798584,6.084348678588867,0.7042097449302673
2.437323570251465,6.144063949584961,0.7153015732765198
2.4090001583099365,6.2003493309021,0.7261558771133423
2.3746960163116455,6.246140956878662,0.7352869510650635
2.3344922065734863,6.27717399597168,0.7427406907081604
1.9789471626281738,5.439381122589111,0.6468568444252014
2.2845544815063477,6.417942523956299,0.7669897079467773
2.25419545173645,6.477323055267334,0.7779678106307983
2.223762273788452,6.540518283843994,0.7889525294303894
2.1910271644592285,6.600017070770264,0.7994818091392517
2.15899658203125,6.66298246383667,0.810501754283905
2.1100988388061523,6.669874668121338,0.8146578669548035
2.0431532859802246,6.621062755584717,0.8120790123939514
1.98611581325531,6.601358413696289,0.8127322196960449
1.925468921661377,6.570261001586914,0.8116636872291565
1.8663718700408936,6.542387962341309,0.8110030889511108
1.8056929111480713,6.502525329589844,0.8087965846061707
1.7511738538742065,6.4807448387146,0.8088158369064331
1.695231318473816,6.454982280731201,0.8083983063697815
0.8278948068618774,3.246382713317871,0.4076929986476898
1.5794486999511719,6.383554935455322,0.8038610219955444
0.8021495342254639,3.3441553115844727,0.422282338142395
1.4689741134643555,6.317477703094482,0.7999115586280823
1.4189802408218384,6.304612159729004,0.8005259037017822
1.3641339540481567,6.2647199630737305,0.7975815534591675
1.3179038763046265,6.266323089599609,0.7994636297225952
1.26170015335083,6.21820592880249,0.7950249910354614
1.1990023851394653,6.131540298461914,0.7856486439704895
1.1569511890411377,6.147146224975586,0.7893918752670288
1.1127439737319946,6.14707612991333,0.791130006313324
1.0669758319854736,6.139124870300293,0.7917161583900452
1.0209213495254517,6.130958557128906,0.7919121384620667
0.9670498967170715,6.072714328765869,0.7856647372245789
0.9188501238822937,6.048563003540039,0.7838611006736755
0.8650344610214233,5.974022388458252,0.7755048274993896
0.8181784749031067,5.941246032714844,0.772579550743103
0.7766018509864807,5.946579456329346,0.7744531631469727
0.737532377243042,5.974778652191162,0.7789477109909058
0.5821473002433777,5.006120204925537,0.6533821821212769
0.561501145362854,5.148615837097168,0.6727635860443115
0.5311593413352966,5.206182956695557,0.6810901165008545
0.3901873528957367,4.106738567352295,0.5379156470298767
0.3588227331638336,4.078372001647949,0.5347864031791687
0.3398696482181549,4.200388431549072,0.5511123538017273
0.30760109424591064,4.171720504760742,0.5477076172828674
0.27990275621414185,4.1968770027160645,0.5513898730278015
0.2507089376449585,4.198638916015625,0.5520243048667908
0.40935441851615906,7.762243747711182,1.0213500261306763
0.35569602251052856,7.772495746612549,1.0234733819961548
0.2988937795162201,7.736069202423096,1.01883864402771
0.24411682784557343,7.714683532714844,1.0162304639816284
0.18898512423038483,7.6658101081848145,1.010048747062683
0.13513782620429993,7.635902404785156,1.006410837173462
0.08188105374574661,7.613363742828369,1.0037897825241089
0.027891041710972786,7.594329833984375,1.0016857385635376
-0.02474534511566162,7.5711350440979,0.9983842372894287
-0.07706071436405182,7.5398383140563965,0.9940070509910583
-0.12920816242694855,7.523670196533203,0.9916737079620361
-0.18002626299858093,7.464555740356445,0.9837296605110168
-0.23143324255943298,7.447678565979004,0.9814003109931946
-0.28349798917770386,7.430414199829102,0.979067325592041
-0.33562931418418884,7.443852424621582,0.9803210496902466
-0.2810714840888977,5.403197288513184,0.711089015007019
-0.3198592960834503,5.424412250518799,0.7134251594543457
-0.35589733719825745,5.39897346496582,0.7096590995788574
-0.3929150402545929,5.380967617034912,0.7068999409675598
-0.42838507890701294,5.355040550231934,0.7031441926956177
-0.4623573422431946,5.317350387573242,0.6976251006126404
-0.43268728256225586,4.608466625213623,0.603946328163147
-0.465177446603775,4.613222122192383,0.6039220094680786
-0.49599936604499817,4.594564914703369,0.6008481979370117
-0.5257477164268494,4.571895599365234,0.5972914099693298
-0.5575512051582336,4.568262100219727,0.5962527990341187
-0.585222065448761,4.533707618713379,0.5910588502883911
-0.615373969078064,4.522082328796387,0.5886127948760986
-0.6469680070877075,4.517861366271973,0.5871463418006897
-0.6746978163719177,4.490485191345215,0.582714319229126
-0.7047253251075745,4.478214263916016,0.5802698731422424
-0.7327278852462769,4.454272747039795,0.576346218585968
-0.7648791074752808,4.456928730010986,0.5757783651351929
-0.7926746606826782,4.4365644454956055,0.5719490647315979
-0.816436767578125,4.393084526062012,0.5651633739471436
-0.8422083854675293,4.364774227142334,0.5603863596916199
-0.7325421571731567,3.659783124923706,0.4689321517944336
-0.761135458946228,3.6699788570404053,0.46931320428848267
-0.930431604385376,4.335656642913818,0.5532680749893188
-0.9663620591163635,4.35587739944458,0.5543767809867859
-0.992520272731781,4.33436918258667,0.5502245426177979
-1.0212794542312622,4.323983669281006,0.5475077033042908
-1.0457946062088013,4.294468402862549,0.542382538318634
-1.0774970054626465,4.294904708862305,0.541071355342865
-1.1036723852157593,4.2725419998168945,0.5367459058761597
-1.1306006908416748,4.257798194885254,0.5331982374191284
-1.1573790311813354,4.242884159088135,0.5296595692634583
-1.1801577806472778,4.212770938873291,0.5242404937744141
-1.2074064016342163,4.197302341461182,0.5206496119499207
-1.2371500730514526,4.188967227935791,0.5179464817047119
-1.2680349349975586,4.188183784484863,0.5159870982170105
-1.2882957458496094,4.153940677642822,0.5097953081130981
-1.3163707256317139,4.145495891571045,0.506805419921875
-1.3426274061203003,4.1292805671691895,0.5028483867645264
-1.3767902851104736,4.134759902954102,0.5015052556991577
-1.40303373336792,4.118104934692383,0.4975210428237915
-1.420563817024231,4.079633712768555,0.4906128942966461
-1.4454065561294556,4.0630621910095215,0.4863840937614441
-1.4756189584732056,4.060852527618408,0.48387831449508667
-1.5011794567108154,4.043604850769043,0.47954538464546204
-1.5325651168823242,4.0405378341674805,0.47687846422195435
-1.557154893875122,4.023228168487549,0.4723849892616272
-1.5811961889266968,4.005931377410889,0.4677916169166565
-1.605074405670166,3.9884886741638184,0.46321141719818115
-1.6299242973327637,3.9704535007476807,0.458484947681427
-1.6582010984420776,3.95918607711792,0.454510360956192
-1.6792956590652466,3.9338533878326416,0.4488678574562073
-1.7009612321853638,3.912299394607544,0.44350945949554443
-1.7381420135498047,3.926156759262085,0.4421748220920563
-1.758918046951294,3.9003312587738037,0.4362838864326477
-1.775179147720337,3.8635268211364746,0.42914673686027527
-1.8130325078964233,3.8764541149139404,0.4274769127368927
-1.8269957304000854,3.840280294418335,0.4202418327331543
-1.8524101972579956,3.8285789489746094,0.41572415828704834
-1.879111886024475,3.8160605430603027,0.41096231341362
-1.9097673892974854,3.810035467147827,0.40684273838996887
-1.9106844663619995,3.749089002609253,0.3967951834201813
-1.9462066888809204,3.7575929164886475,0.39404961466789246
-1.9715121984481812,3.7449045181274414,0.3890114426612854
-2.0014069080352783,3.7383840084075928,0.3844775855541229
-2.0235939025878906,3.718104362487793,0.37850630283355713
-1.7133197784423828,3.0988709926605225,0.3119901418685913
-1.7298716306686401,3.081191301345825,0.306801438331604
-0.8410016298294067,1.4738798141479492,0.14501430094242096
-0.84352046251297,1.4546945095062256,0.14139798283576965
-0.8609535694122314,1.4627701044082642,0.1403464674949646
-0.8706678748130798,1.4572386741638184,0.13794107735157013
-0.8848623037338257,1.4580191373825073,0.13603773713111877
-0.8869133591651917,1.4387407302856445,0.13226516544818878
-0.8962312340736389,1.4331902265548706,0.12969110906124115
-0.9055740237236023,1.4275383949279785,0.12709957361221313
-0.9031075239181519,1.4016227722167969,0.12254169583320618
-0.8934564590454102,1.366321325302124,0.11726038157939911
-0.912986695766449,1.3770204782485962,0.11590418219566345
-2.390561103820801,3.55373215675354,0.2928948402404785
-2.446218967437744,3.582564115524292,0.28872236609458923
-1.3334180116653442,1.9262710809707642,0.15154428780078888
-1.552159070968628,2.2113468647003174,0.16960571706295013
-1.223192811012268,1.7496297359466553,-0.09034236520528793
-1.3582733869552612,1.9738646745681763,-0.1070239394903183
-1.270895004272461,1.9052224159240723,-0.11251240968704224
-1.241460919380188,1.8916552066802979,-0.11606594175100327
-1.255335807800293,1.9428422451019287,-0.12342645972967148
-1.394256591796875,2.1916849613189697,-0.14384987950325012
-1.7380436658859253,2.8674733638763428,-0.2054261416196823
-1.7266433238983154,2.896608352661133,-0.21300241351127625
-0.8460948467254639,1.4914352893829346,-0.11766953766345978
-1.4900033473968506,2.671398401260376,-0.21533013880252838
-1.4524612426757812,2.6472198963165283,-0.2177017331123352
-1.387210488319397,2.571424961090088,-0.21561339497566223
-1.3442482948303223,2.536552667617798,-0.21679218113422394
-1.2919639348983765,2.480029582977295,-0.21576693654060364
-1.2532448768615723,2.4470393657684326,-0.21657797694206238
-1.209216594696045,2.4034996032714844,-0.2162560671567917
-1.1554336547851562,2.3385727405548096,-0.21382439136505127
-1.125109314918518,2.3183741569519043,-0.2152746170759201
-1.0836576223373413,2.273160219192505,-0.21423248946666718
-1.0605460405349731,2.266503095626831,-0.21664966642856598
-1.024658203125,2.231313705444336,-0.21626360714435577
-0.9913927912712097,2.1990840435028076,-0.21598216891288757
-0.9601297974586487,2.170098066329956,-0.215916708111763
-0.917827308177948,2.116098403930664,-0.21320846676826477
-0.8904110789299011,2.093684673309326,-0.21352265775203705
-0.8712512254714966,2.088778018951416,-0.21551556885242462
-0.8359520435333252,2.0441439151763916,-0.21333417296409607
-0.8024555444717407,2.0028750896453857,-0.2112918645143509
-0.7849916219711304,2.0011301040649414,-0.2134038209915161
-0.7472441792488098,1.9446121454238892,-0.20952096581459045
-0.7349774241447449,1.953144907951355,-0.21259117126464844
-0.7169370651245117,1.9471415281295776,-0.21395397186279297
-0.687178373336792,1.9080809354782104,-0.21163329482078552
-0.6709754467010498,1.9053282737731934,-0.21328940987586975
-0.652603805065155,1.8950031995773315,-0.21404454112052917
-0.6305071711540222,1.8735471963882446,-0.21340981125831604
-0.6123131513595581,1.862973928451538,-0.21394723653793335
-0.5896691083908081,1.837416410446167,-0.21271824836730957
-0.5742366909980774,1.8339097499847412,-0.21403704583644867
-0.551106870174408,1.8042511940002441,-0.2121877670288086
-0.5338332653045654,1.7930145263671875,-0.21237777173519135
-0.5167747139930725,1.7816181182861328,-0.2125312089920044
-0.4958505630493164,1.7550921440124512,-0.2108328938484192
-0.480480819940567,1.7470693588256836,-0.21133169531822205
-0.46587246656417847,1.7427818775177002,-0.2121461182832718
-0.44959649443626404,1.730819821357727,-0.21198821067810059
-0.4336632490158081,1.7186819314956665,-0.21178090572357178
-0.41980788111686707,1.7139332294464111,-0.2124733030796051
-0.40418410301208496,1.7015538215637207,-0.2121376097202301
-0.3919510841369629,1.7042300701141357,-0.21360528469085693
-0.37824806571006775,1.699199914932251,-0.21409134566783905
-0.3623093366622925,1.6826684474945068,-0.21310994029045105
-0.3513568639755249,1.6887707710266113,-0.2149956226348877
-0.3356480896472931,1.6720422506332397,-0.21381324529647827
-0.32367202639579773,1.6742439270019531,-0.21504800021648407
-0.31052109599113464,1.6686943769454956,-0.21527311205863953
-0.2975040376186371,1.6630373001098633,-0.21548299491405487
-0.2858535051345825,1.6649317741394043,-0.2166207879781723
-0.2728876769542694,1.6591229438781738,-0.21662810444831848
-0.25981560349464417,1.6532446146011353,-0.21664343774318695
-0.2460004985332489,1.6395608186721802,-0.21561533212661743
-0.2334846705198288,1.6334360837936401,-0.2155809998512268
-0.2173728346824646,1.6003754138946533,-0.21185673773288727
-0.20715108513832092,1.6094387769699097,-0.21364426612854004
-0.19403420388698578,1.5953669548034668,-0.2123669534921646
-0.18450437486171722,1.6119858026504517,-0.21519330143928528
-0.1716402918100357,1.5977271795272827,-0.21389751136302948
-0.1581621617078781,1.5756946802139282,-0.21136769652366638
-0.14714518189430237,1.5766865015029907,-0.211928129196167
-0.1368267834186554,1.5853122472763062,-0.21352559328079224
-0.1249765008687973,1.5784467458724976,-0.2130548357963562
-0.11454354971647263,1.5869331359863281,-0.21459992229938507
-0.10346037149429321,1.587645411491394,-0.2149600237607956
-0.092372827231884,1.5882803201675415,-0.21532009541988373
-0.07934214919805527,1.550178050994873,-0.21043123304843903
-0.06938695907592773,1.5738543272018433,-0.21394143998622894
-0.05785268917679787,1.5587944984436035,-0.21207785606384277
-0.046990808099508286,1.5591388940811157,-0.21223214268684387
-0.03648551180958748,1.5748854875564575,-0.2144944667816162
-0.02528734691441059,1.559599757194519,-0.21254034340381622
-0.014266579411923885,1.5597182512283325,-0.21269680559635162
-0.0034208702854812145,1.5597819089889526,-0.21268266439437866
0.007449854165315628,1.5675148963928223,-0.2136925905942917
0.01794244535267353,1.532599687576294,-0.20889924466609955
0.02896091155707836,1.5517927408218384,-0.2114916741847992
0.040146924555301666,1.5670396089553833,-0.2135372906923294
0.05071926489472389,1.551276683807373,-0.2111796736717224
0.06178797036409378,1.558655858039856,-0.21198770403862
0.07263975590467453,1.5582213401794434,-0.2117416113615036
0.0838899165391922,1.565442442893982,-0.21254540979862213
0.0929085835814476,1.5339529514312744,-0.20803532004356384
0.10532408952713013,1.5564908981323242,-0.21073168516159058
0.116715207695961,1.5635018348693848,-0.21133539080619812
0.12568877637386322,1.5395612716674805,-0.20776891708374023
0.13706980645656586,1.5464221239089966,-0.20837260782718658
0.14852562546730042,1.5532184839248657,-0.20884749293327332
0.16027207672595978,1.5599220991134644,-0.20923469960689545
0.16939310729503632,1.5434627532958984,-0.20653650164604187
0.18283605575561523,1.5654075145721436,-0.20898263156414032
0.19278471171855927,1.5564953088760376,-0.2073146253824234
0.20558606088161469,1.570589303970337,-0.20854070782661438
0.2166636735200882,1.5692119598388672,-0.20769213140010834
0.22866550087928772,1.5754467248916626,-0.2078687995672226
0.23845796287059784,1.566269040107727,-0.20602038502693176
0.25541913509368896,1.6029486656188965,-0.21015499532222748
0.26649901270866394,1.601280689239502,-0.2091100960969925
0.2775549292564392,1.5995372533798218,-0.20806637406349182
0.2923451364040375,1.6167322397232056,-0.20946446061134338
0.3007495105266571,1.5995581150054932,-0.20643213391304016
0.3163120150566101,1.6204016208648682,-0.20820553600788116
0.325988233089447,1.610734462738037,-0.2059861123561859
0.3403294086456299,1.6237696409225464,-0.20667415857315063
0.35514357686042786,1.63662850856781,-0.20730771124362946
0.3716549277305603,1.6569679975509644,-0.20889325439929962
0.3848535120487213,1.6620965003967285,-0.20838546752929688
0.396335631608963,1.6595795154571533,-0.20691907405853271
0.4078671634197235,1.6569666862487793,-0.2054440826177597
0.4119892120361328,1.624139428138733,-0.20023050904273987
0.4271787106990814,1.6364381313323975,-0.20055705308914185
0.4424735903739929,1.6486397981643677,-0.20076243579387665
0.45590656995773315,1.6532255411148071,-0.20003092288970947
0.4727398455142975,1.668866753578186,-0.2006099820137024
0.4932781457901001,1.6954761743545532,-0.2024553418159485
0.5071870684623718,1.6996890306472778,-0.20149724185466766
0.5336442589759827,1.744631290435791,-0.20530954003334045
0.5480815768241882,1.7485158443450928,-0.20423784852027893
0.5650537610054016,1.7596522569656372,-0.20399343967437744
0.5774850249290466,1.7558507919311523,-0.20192641019821167
0.6019192337989807,1.788892388343811,-0.20401519536972046
0.6193056702613831,1.7996327877044678,-0.20351332426071167
0.6434814929962158,1.8284858465194702,-0.20500047504901886
0.6562502980232239,1.8241937160491943,-0.20274792611598969
0.6821484565734863,1.8563835620880127,-0.2043910026550293
0.6978048086166382,1.8591293096542358,-0.20272456109523773
0.7204856872558594,1.879891276359558,-0.20299792289733887
0.7421290278434753,1.896789789199829,-0.20280534029006958
0.7695714831352234,1.9280239343643188,-0.20400600135326385
0.7871374487876892,1.9338040351867676,-0.20243127644062042
0.8126693367958069,1.9572334289550781,-0.20260268449783325
0.8445609211921692,1.994756817817688,-0.20417143404483795
0.8691014051437378,2.0141751766204834,-0.20376534759998322
0.8890581130981445,2.022759199142456,-0.20217087864875793
0.9220467209815979,2.0595035552978516,-0.20330220460891724
0.9544873237609863,2.092129945755005,-0.20384252071380615
0.9853549599647522,2.1210782527923584,-0.2039438784122467
1.0213627815246582,2.16040301322937,-0.20488843321800232
1.049690842628479,2.181722640991211,-0.2040027678012848
1.0837668180465698,2.213118076324463,-0.2039266973733902
1.1270681619644165,2.2615537643432617,-0.20520628988742828
1.165185809135437,2.2993967533111572,-0.20539884269237518
1.1952213048934937,2.3193886280059814,-0.20384499430656433
1.2349498271942139,2.3561625480651855,-0.20360177755355835
1.2510727643966675,2.3480045795440674,-0.1993713229894638
1.2742700576782227,2.3535914421081543,-0.19626164436340332
1.3377584218978882,2.430276393890381,-0.19877278804779053
1.2995703220367432,2.3226029872894287,-0.18625009059906006
1.3113116025924683,2.307387113571167,-0.181266650557518
1.3306249380111694,2.3056552410125732,-0.17733560502529144
1.3388947248458862,2.2831616401672363,-0.17164160311222076
1.3987914323806763,2.347738265991211,-0.17231057584285736
1.4486660957336426,2.3954551219940186,-0.17156273126602173
1.4650630950927734,2.385822057723999,-0.16647762060165405
1.4961789846420288,2.3990261554718018,-0.16285763680934906
1.5203486680984497,2.4026167392730713,-0.15849055349826813
1.5767861604690552,2.4548816680908203,-0.15701830387115479
1.6599797010421753,2.545447826385498,-0.15755107998847961
1.689736247062683,2.5542712211608887,-0.15276719629764557
1.3718297481536865,2.0444159507751465,-0.11790350824594498
1.4169178009033203,2.080169916152954,-0.11521502584218979
1.444165587425232,2.0901639461517334,-0.11086244136095047
1.4580743312835693,2.0807697772979736,-0.10538600385189056
1.4635180234909058,2.0581002235412598,-0.09902262687683105
1.4401090145111084,1.9983121156692505,-0.09104356169700623
1.4767210483551025,2.020237684249878,-0.0864899531006813
1.4761805534362793,1.9918032884597778,-0.07959949970245361
2.392488718032837,3.3541853427886963,0.2707482874393463
2.3776731491088867,3.38301157951355,0.2811430096626282
2.364382743835449,3.41998553276062,0.29215943813323975
2.4090940952301025,3.539733648300171,0.3100518584251404
2.318898916244507,3.458864450454712,0.3100205361843109
2.2962894439697266,3.4824917316436768,0.3190014660358429
2.329362630844116,3.590397357940674,0.33570340275764465
1.641526699066162,2.5691404342651367,0.24475346505641937
1.6303149461746216,2.594151020050049,0.25154685974121094
1.5778706073760986,2.552915334701538,0.25178858637809753
3.024630308151245,4.970664024353027,0.49787637591362
2.992018461227417,4.9984540939331055,0.5083009004592896
2.9677574634552,5.043552875518799,0.520203173160553
2.934652805328369,5.070927619934082,0.5300813317298889
2.9104931354522705,5.110781669616699,0.5410457253456116
2.8978376388549805,5.17506217956543,0.5545171499252319
2.865614414215088,5.209781169891357,0.5648536682128906
2.842496871948242,5.256900787353516,0.5762747526168823
2.8255438804626465,5.3136138916015625,0.5886521935462952
2.8122575283050537,5.381230354309082,0.6021866202354431
1.8828437328338623,3.6688177585601807,0.41450461745262146
1.8553998470306396,3.682155132293701,0.4199571907520294
1.829501748085022,3.694504976272583,0.4250842332839966
1.2425103187561035,2.5538249015808105,0.2963939905166626
1.2235203981399536,2.562582492828369,0.2997836470603943
1.192954659461975,2.5465643405914307,0.3002658784389496
1.1764591932296753,2.5581226348876953,0.30389726161956787
