X,Y,Z
0.9134182929992676,3.7572181224823,-0.5547674298286438
0.9283459782600403,3.706343173980713,-0.5440309643745422
0.9511175751686096,3.6892354488372803,-0.5379355549812317
0.9815990924835205,3.7019033432006836,-0.5362042188644409
1.0037727355957031,3.6805732250213623,-0.5294833779335022
1.024277925491333,3.6554737091064453,-0.5223309993743896
1.0496349334716797,3.6489474773406982,-0.5176019668579102
1.0726641416549683,3.634859323501587,-0.5117015242576599
1.0911446809768677,3.6057724952697754,-0.5037331581115723
1.1214370727539062,3.6133804321289062,-0.5008166432380676
1.1419318914413452,3.591391086578369,-0.4938005805015564
1.1667429208755493,3.5841212272644043,-0.4885936975479126
1.1890565156936646,3.5693211555480957,-0.482392281293869
1.2115424871444702,3.5542733669281006,-0.47614315152168274
1.2339270114898682,3.5390591621398926,-0.4699033200740814
1.2561918497085571,3.523730754852295,-0.4633236825466156
1.2858080863952637,3.530268669128418,-0.4596843421459198
1.3022856712341309,3.5001351833343506,-0.4512578845024109
1.329606294631958,3.498870611190796,-0.44656050205230713
1.6470364332199097,4.246238708496094,-0.5362388491630554
1.675321340560913,4.231900215148926,-0.528517484664917
1.6959376335144043,4.199472904205322,-0.5186532735824585
1.7253868579864502,4.188350200653076,-0.5114081501960754
1.7544426918029785,4.177156448364258,-0.5040558576583862
1.7799887657165527,4.158786773681641,-0.4957245886325836
1.8029344081878662,4.132853984832764,-0.4864010810852051
1.8351248502731323,4.1280598640441895,-0.4795874357223511
1.8606419563293457,4.108985424041748,-0.4710547924041748
1.88222074508667,4.082928657531738,-0.4616258442401886
1.9102414846420288,4.070776462554932,-0.4537866711616516
1.9359534978866577,4.050899982452393,-0.44485870003700256
1.957219123840332,4.024259567260742,-0.4353017210960388
1.991456389427185,4.025660991668701,-0.42867255210876465
2.006784439086914,3.9884560108184814,-0.4179164469242096
2.0348145961761475,3.9751007556915283,-0.4095407724380493
2.055095672607422,3.9479780197143555,-0.3997223377227783
2.0786540508270264,3.927684783935547,-0.39045000076293945
2.113060474395752,3.9278147220611572,-0.3832206726074219
2.13317608833313,3.9000372886657715,-0.3731374144554138
2.1521852016448975,3.872606039047241,-0.3630765676498413
2.1457149982452393,3.801172971725464,-0.34901389479637146
2.1726181507110596,3.786687135696411,-0.3399277329444885
2.1990692615509033,3.7721900939941406,-0.330903023481369
2.2084388732910156,3.7313249111175537,-0.3195742666721344
2.2337112426757812,3.7170205116271973,-0.3104948401451111
2.2679665088653564,3.71527361869812,-0.30214768648147583
2.2771172523498535,3.673809766769409,-0.29043930768966675
2.3056883811950684,3.6658923625946045,-0.2815627455711365
2.3480610847473145,3.676708936691284,-0.27364373207092285
2.3519725799560547,3.628558397293091,-0.2613104283809662
2.393000602722168,3.6397299766540527,-0.2532530128955841
2.4228806495666504,3.630017042160034,-0.24307973682880402
2.425856113433838,3.5817084312438965,-0.230396568775177
2.458038568496704,3.579307794570923,-0.22071976959705353
2.48276424407959,3.5628743171691895,-0.2095763385295868
2.488828420639038,3.5211284160614014,-0.1968502700328827
2.525611162185669,3.5243101119995117,-0.1864728480577469
2.564082622528076,3.5260472297668457,-0.17519792914390564
2.582240581512451,3.5036654472351074,-0.16269832849502563
2.7774782180786133,3.9290566444396973,0.3986479341983795
2.750399351119995,3.9561941623687744,0.4124606251716614
2.722270965576172,3.9743738174438477,0.4241279661655426
2.6961848735809326,4.0002312660217285,0.4366344213485718
2.6733806133270264,4.0329108238220215,0.44965729117393494
2.631732940673828,4.031188011169434,0.45803651213645935
2.610459566116333,4.0622992515563965,0.46997982263565063
2.593365430831909,4.104243278503418,0.48308026790618896
2.548154592514038,4.099276542663574,0.49040451645851135
2.5332651138305664,4.139275074005127,0.5026907920837402
2.49178409576416,4.140584468841553,0.5099956393241882
2.4698638916015625,4.1751251220703125,0.5213719606399536
2.432236671447754,4.178107261657715,0.5283434987068176
2.4174985885620117,4.221373081207275,0.5405042767524719
2.3853986263275146,4.238514423370361,0.5489128828048706
2.341902017593384,4.235022068023682,0.554651141166687
2.2561259269714355,4.14827299118042,0.5489555597305298
2.2304344177246094,4.1699347496032715,0.5574676394462585
2.214953660964966,4.216642379760742,0.5691373944282532
2.1796469688415527,4.225275993347168,0.5755919218063354
2.14900279045105,4.2399725914001465,0.5827013850212097
2.1190831661224365,4.254051685333252,0.5896185636520386
2.0950937271118164,4.282241344451904,0.5983426570892334
2.069272518157959,4.311033248901367,0.6070544123649597
2.037085771560669,4.325397491455078,0.6137043833732605
2.0066189765930176,4.338723182678223,0.6199783086776733
1.9792648553848267,4.358880519866943,0.6272661685943604
1.997816801071167,4.485540866851807,0.6496904492378235
1.9738911390304565,4.520597457885742,0.658883273601532
1.9644111394882202,4.591268062591553,0.6734205484390259
1.9261265993118286,4.589810848236084,0.6771979331970215
1.896793007850647,4.6095147132873535,0.6841248273849487
1.8676005601882935,4.633111476898193,0.6912882924079895
1.8179152011871338,4.606294631958008,0.6908186674118042
1.8127493858337402,4.694684982299805,0.7077529430389404
1.7824877500534058,4.713733673095703,0.7141164541244507
1.7494053840637207,4.72531270980835,0.7193841338157654
1.3244796991348267,3.657236099243164,0.5593050122261047
1.3042141199111938,3.684451103210449,0.5658385753631592
1.276869297027588,3.6934306621551514,0.569652259349823
1.616778016090393,4.785658836364746,0.7411559224128723
1.5965675115585327,4.836501121520996,0.752088189125061
1.5566685199737549,4.828470706939697,0.7538778185844421
1.554117202758789,4.942149639129639,0.7742511630058289
1.5029325485229492,4.904772758483887,0.7710771560668945
1.4586472511291504,4.885219097137451,0.7706485986709595
2.8586883544921875,9.822661399841309,1.554739236831665
1.405012607574463,4.955838203430176,0.7870680093765259
1.374070644378662,4.979907512664795,0.7933509945869446
1.3092412948608398,4.880945205688477,0.7796844840049744
1.275468349456787,4.897283554077148,0.7844709753990173
1.2424464225769043,4.9131669998168945,0.789175808429718
1.2200508117675781,4.9698991775512695,0.8004644513130188
1.1942403316497803,5.015280246734619,0.8100019097328186
1.1535062789916992,5.00053071975708,0.8095592856407166
1.1238274574279785,5.038426876068115,0.8174489140510559
1.0918141603469849,5.0647125244140625,0.823485791683197
1.0543041229248047,5.064292907714844,0.8252103328704834
1.0220617055892944,5.0861639976501465,0.8305777311325073
0.9836428165435791,5.077544689178467,0.8310090899467468
1.802667260169983,9.675196647644043,1.5864825248718262
1.7352159023284912,9.694628715515137,1.5921673774719238
1.6722519397735596,9.740172386169434,1.602227807044983
1.604561686515808,9.758637428283691,1.6079175472259521
1.5239779949188232,9.688875198364258,1.599088430404663
1.4483377933502197,9.652966499328613,1.5959409475326538
1.3692452907562256,9.582094192504883,1.5865585803985596
1.296730875968933,9.556639671325684,1.5840518474578857
1.226224660873413,9.542098999023438,1.5834201574325562
1.1615593433380127,9.572956085205078,1.5904009342193604
1.0967024564743042,9.595599174499512,1.5960735082626343
1.0229257345199585,9.548954010009766,1.5903279781341553
0.956306517124176,9.555360794067383,1.593307614326477
0.4067130386829376,4.374047756195068,0.7298034429550171
0.3740023374557495,4.353607654571533,0.7268787622451782
0.3376142978668213,4.282994270324707,0.715602457523346
0.3118755519390106,4.350464820861816,0.7274378538131714
0.2826491594314575,4.3677544593811035,0.7309160232543945
0.3255404829978943,5.638760566711426,0.9444153308868408
0.2861318290233612,5.6407856941223145,0.9450831413269043
0.24800528585910797,5.67335319519043,0.9507666826248169
0.20887522399425507,5.709535598754883,0.9571105241775513
0.17064855992794037,5.764676570892334,0.9666787385940552
0.1315315216779709,5.808000564575195,0.9743167161941528
0.09163901209831238,5.8394999504089355,0.9800230860710144
0.051233503967523575,5.863062858581543,0.9841804504394531
0.009782609529793262,5.86330509185791,0.984021782875061
-0.0467628613114357,8.841113090515137,1.4835553169250488
-0.10799197852611542,8.81750202178955,1.47944176197052
-0.11925467103719711,6.208964824676514,1.0417131185531616
-0.16053718328475952,6.134841442108154,1.0292712450027466
-0.06710146367549896,2.025282859802246,0.33980581164360046
-0.24495889246463776,6.093666076660156,1.0217918157577515
-0.38264426589012146,8.116209983825684,1.3601465225219727
-0.19417321681976318,3.5893545150756836,0.6011987328529358
-0.21722176671028137,3.5572404861450195,0.595531165599823
-0.5324986577033997,7.82645320892334,1.3096840381622314
-0.587812602519989,7.822685718536377,1.3085358142852783
-0.5371569395065308,6.5437541007995605,1.0938047170639038
-0.5928323864936829,6.659162521362305,1.111976981163025
-0.6272993087768555,6.5362958908081055,1.0904127359390259
-0.6570154428482056,6.382590293884277,1.0637961626052856
-0.7054949402809143,6.408714771270752,1.0671993494033813
-0.7509734630584717,6.411585807800293,1.0667917728424072
-0.7892462611198425,6.356800079345703,1.0567295551300049
-0.8258584141731262,6.298123359680176,1.0454678535461426
-0.8644074201583862,6.258321762084961,1.0374072790145874
-0.9047911763191223,6.229635715484619,1.0312296152114868
-0.9515112042427063,6.246460914611816,1.032644510269165
-1.0016119480133057,6.281964302062988,1.0371812582015991
-1.0559840202331543,6.339905738830566,1.04545259475708
-1.107344627380371,6.378603458404541,1.0499337911605835
-1.1577905416488647,6.409350395202637,1.053005576133728
-1.2145235538482666,6.466093063354492,1.060329794883728
-1.2657769918441772,6.492156028747559,1.0626620054244995
-1.3232901096343994,6.544192314147949,1.069247841835022
-1.3760545253753662,6.569319725036621,1.0714614391326904
-1.432645320892334,6.613096714019775,1.0762841701507568
-1.4685176610946655,6.558462619781494,1.064799427986145
-1.5054818391799927,6.515096187591553,1.0552723407745361
-1.537721872329712,6.452693462371826,1.0427290201187134
-0.6840455532073975,2.7846245765686035,0.44893842935562134
-0.7090954184532166,2.8025288581848145,0.4507910907268524
-0.7267292737960815,2.790346145629883,0.447633296251297
-0.7416419982910156,2.7707669734954834,0.44318902492523193
-0.7604162096977234,2.766000747680664,0.4411415457725525
-1.726482629776001,6.116697788238525,0.9727022051811218
-1.777787446975708,6.1348981857299805,0.9727324843406677
-1.804861307144165,6.067327976226807,0.9591736793518066
-1.8374170064926147,6.02603816986084,0.9495243430137634
-1.8666975498199463,5.977397441864014,0.938501238822937
-1.8989315032958984,5.939663887023926,0.9292688965797424
-1.9276041984558105,5.89059591293335,0.918302595615387
-1.9645732641220093,5.862910270690918,0.9106197357177734
-1.991714358329773,5.809641361236572,0.8991004228591919
-2.020904541015625,5.767673015594482,0.8889124989509583
-2.051912784576416,5.732972145080566,0.8797822594642639
-2.081216335296631,5.694472312927246,0.8701401948928833
-2.109882354736328,5.651803493499756,0.8598263263702393
-1.4940853118896484,3.9173548221588135,0.5932734608650208
-1.5114320516586304,3.882283926010132,0.5852832794189453
-1.5089589357376099,3.8007824420928955,0.570055365562439
-1.506908655166626,3.723050832748413,0.5555269718170166
-1.5218627452850342,3.688318967819214,0.5474807620048523
-1.5361249446868896,3.649496555328369,0.5387570261955261
-1.5555485486984253,3.625063419342041,0.5322723984718323
-1.5768331289291382,3.6080846786499023,0.5266109108924866
-1.6009092330932617,3.598147392272949,0.5219433903694153
-1.6153968572616577,3.5668487548828125,0.5142111778259277
-1.6132692098617554,3.4961280822753906,0.500682532787323
-1.6097891330718994,3.425780773162842,0.4874029755592346
-1.6229262351989746,3.3945183753967285,0.4795493483543396
-1.6455117464065552,3.3843231201171875,0.47461462020874023
-1.6749300956726074,3.3878579139709473,0.4716077148914337
-1.7026227712631226,3.3834476470947266,0.4672410190105438
-1.7864845991134644,3.489448308944702,0.4780707061290741
-2.751400947570801,5.2877960205078125,0.718255341053009
-2.797286033630371,5.291175365447998,0.7124080061912537
-2.8109078407287598,5.232343673706055,0.6981294751167297
-1.1681231260299683,2.138559579849243,0.2826174199581146
-1.1681407690048218,2.1036102771759033,0.27522748708724976
-2.5031769275665283,4.439528942108154,0.5747749209403992
-2.557471990585327,4.467769622802734,0.5723075866699219
-6.040178298950195,10.385392189025879,1.3151975870132446
-1.2250374555587769,2.073026657104492,0.2594653367996216
-1.2509078979492188,2.0852773189544678,0.2576860189437866
-2.922960042953491,4.802295207977295,0.5858743190765381
-2.923466920852661,4.730299949645996,0.5691707134246826
-2.9692654609680176,4.730495929718018,0.5610644221305847
-2.9877309799194336,4.6924848556518555,0.548089861869812
-3.027169942855835,4.686924934387207,0.5387541055679321
-3.040635347366333,4.6377105712890625,0.5239802002906799
-3.046858072280884,4.57895565032959,0.5081160664558411
-3.071847915649414,4.5541157722473145,0.4958835542201996
-3.093191623687744,4.5220842361450195,0.4826180338859558
-3.1056392192840576,4.4723219871521,0.46675267815589905
-2.8679356575012207,4.074594020843506,0.41548237204551697
-2.84657883644104,3.990699529647827,0.3971448242664337
-2.8999974727630615,4.0063157081604,0.387749582529068
-2.9305434226989746,3.994924783706665,0.37545737624168396
-2.935417652130127,3.948967933654785,0.35961616039276123
-2.4642372131347656,3.4759984016418457,-0.20131723582744598
-2.4283621311187744,3.481370449066162,-0.21358010172843933
-2.814776659011841,4.095552921295166,-0.2639246881008148
-2.281024932861328,3.372847318649292,-0.22787772119045258
-2.1889774799346924,3.2882654666900635,-0.23191021382808685
-2.2276673316955566,3.3974809646606445,-0.24913065135478973
-2.2061750888824463,3.419963836669922,-0.260275274515152
-2.1580841541290283,3.399038314819336,-0.26776546239852905
-2.1355879306793213,3.4170117378234863,-0.2780701816082001
-1.2773725986480713,2.077852725982666,-0.17435692250728607
-2.0968472957611084,3.4666261672973633,-0.2994009554386139
-2.080286741256714,3.4939119815826416,-0.30998265743255615
-2.099686861038208,3.585624933242798,-0.3264527916908264
-1.2199326753616333,2.1190645694732666,-0.19786857068538666
-1.208738088607788,2.1339125633239746,-0.20391888916492462
-2.583466053009033,4.63780403137207,-0.4532094895839691
-2.549102783203125,4.655625820159912,-0.4649042785167694
-2.5268023014068604,4.693155765533447,-0.47830891609191895
-2.511227607727051,4.744392395019531,-0.49326857924461365
-1.7568142414093018,3.3778958320617676,-0.3578714430332184
-1.7144200801849365,3.3551599979400635,-0.3620416820049286
-1.6907316446304321,3.3663382530212402,-0.36959606409072876
-1.6770015954971313,3.3983919620513916,-0.37945106625556946
-1.6771862506866455,3.462327003479004,-0.3930366337299347
-1.6939208507537842,3.561173677444458,-0.4106835126876831
-2.3312957286834717,4.990476608276367,-0.584313154220581
-2.2921957969665527,4.998781204223633,-0.5939318537712097
-2.2685937881469727,5.0423808097839355,-0.6076871156692505
-2.2261600494384766,5.043046474456787,-0.6162075996398926
-2.044989585876465,4.722815036773682,-0.5849741101264954
-2.0263307094573975,4.771886825561523,-0.5986881852149963
-1.9396637678146362,4.6598615646362305,-0.5919727683067322
-1.9034655094146729,4.665256977081299,-0.5999083518981934
-1.8345677852630615,4.58739709854126,-0.5969309210777283
-1.8507367372512817,4.725824356079102,-0.6220971345901489
-1.324027419090271,3.452971935272217,-0.4595692455768585
-0.926201343536377,2.4673123359680176,-0.3319421708583832
-2.0074026584625244,5.462835788726807,-0.742734968662262
-0.9541522860527039,2.653984785079956,-0.3645181357860565
-0.8847231268882751,2.517730712890625,-0.3492330312728882
-0.855444073677063,2.4904298782348633,-0.3487669825553894
-0.830534040927887,2.4737887382507324,-0.3496929407119751
-0.8155062198638916,2.486372709274292,-0.3546845614910126
-0.8048485517501831,2.5136940479278564,-0.361650288105011
-0.7947045564651489,2.544748544692993,-0.369280070066452
-0.7813364863395691,2.5645124912261963,-0.3752436339855194
-0.7699312567710876,2.5916168689727783,-0.3823445737361908
-0.7633624076843262,2.637338876724243,-0.3920166790485382
-0.7488110065460205,2.6570346355438232,-0.3978939950466156
-0.7362267971038818,2.6840600967407227,-0.4049045443534851
-0.7130881547927856,2.6737420558929443,-0.40634867548942566
-0.7107152938842773,2.7417640686035156,-0.4195152223110199
-0.6828472018241882,2.7124757766723633,-0.4177146852016449
-0.6682822704315186,2.7354698181152344,-0.4239686131477356
-0.650883138179779,2.7470805644989014,-0.4284873306751251
-0.6381781697273254,2.781240701675415,-0.43654826283454895
-0.6201981902122498,2.7927353382110596,-0.44078749418258667
-0.603729784488678,2.811652660369873,-0.44623735547065735
-0.5887694954872131,2.8379933834075928,-0.45289838314056396
-0.5742495059967041,2.8680295944213867,-0.46021154522895813
-0.5567190051078796,2.8867483139038086,-0.4654806852340698
-0.5378587245941162,2.897732973098755,-0.46941059827804565
-0.5216266512870789,2.9237711429595947,-0.47582006454467773
-0.5011507272720337,2.9269063472747803,-0.47854259610176086
-0.48501795530319214,2.9565539360046387,-0.4855100214481354
-0.7844507694244385,5.004966735839844,-0.8250511884689331
-0.7418666481971741,4.960141658782959,-0.820774257183075
-0.6948240995407104,4.876779556274414,-0.8100463151931763
-0.6479436159133911,4.785388946533203,-0.7979080677032471
-0.6101356148719788,4.754871845245361,-0.7952694892883301
-0.5569964647293091,4.5940375328063965,-0.7706270813941956
-0.5121201276779175,4.490209102630615,-0.7554913759231567
-0.48118874430656433,4.497035026550293,-0.7589176297187805
-0.4486329257488251,4.488350868225098,-0.7595490217208862
-0.4108232259750366,4.421994686126709,-0.7499048709869385
-0.3812122941017151,4.43976354598999,-0.7545444965362549
-0.34221717715263367,4.346019268035889,-0.7402593493461609
-0.310068815946579,4.321068286895752,-0.7376520037651062
-0.2789926528930664,4.307507038116455,-0.7364549040794373
-0.24858632683753967,4.301440715789795,-0.7363904714584351
-0.21707142889499664,4.272090911865234,-0.7323678135871887
-0.14881491661071777,3.404027223587036,-0.5843955278396606
-0.1546599119901657,4.208910942077637,-0.7234780788421631
-0.12320158630609512,4.136682510375977,-0.711419403553009
-0.09368924796581268,4.106563568115234,-0.7066282033920288
-0.0642075315117836,4.049292087554932,-0.6971896886825562
-0.03559405356645584,4.057257175445557,-0.6990205645561218
-0.0073148696683347225,4.026603698730469,-0.6937532424926758
0.020695975050330162,4.026589870452881,-0.6935632228851318
0.04889253154397011,4.041778564453125,-0.6960248351097107
0.07760336995124817,4.076014995574951,-0.7017989158630371
0.10499066114425659,4.040787220001221,-0.6955798864364624
0.13328051567077637,4.032401084899902,-0.6933717727661133
0.16186928749084473,4.046916484832764,-0.6951476335525513
0.19449037313461304,4.141990661621094,-0.7107748985290527
0.22246107459068298,4.125312328338623,-0.7072449326515198
0.25209394097328186,4.139254570007324,-0.7086135149002075
0.28133058547973633,4.137645244598389,-0.7070043087005615
0.3106737732887268,4.143539905548096,-0.7067302465438843
0.3382246196269989,4.126196384429932,-0.7025290727615356
0.37206751108169556,4.181554794311523,-0.7107264995574951
0.40733659267425537,4.24444055557251,-0.7194926142692566
0.43064266443252563,4.176711082458496,-0.7061144709587097
0.4685152769088745,4.254420280456543,-0.717386782169342
0.47838035225868225,4.083076477050781,-0.6867333054542542
0.5247942209243774,4.225386619567871,-0.7085652947425842
0.5666455626487732,4.317664623260498,-0.7215486168861389
0.5955630540847778,4.302616596221924,-0.7165377736091614
0.621046781539917,4.268359661102295,-0.7084259390830994
0.7345134019851685,4.813205718994141,-0.7961715459823608
0.755138099193573,4.72871208190918,-0.7789133787155151
0.7866705656051636,4.716419219970703,-0.7735984325408936
0.8240898251533508,4.738095283508301,-0.7738722562789917
0.8577449321746826,4.7328009605407715,-0.7696903347969055
0.8921233415603638,4.735006809234619,-0.7665213346481323
0.9294721484184265,4.752182960510254,-0.7653858661651611
0.9609293937683105,4.738820552825928,-0.7593606114387512
0.9892566800117493,4.71010160446167,-0.7509142756462097
1.0210591554641724,4.696187496185303,-0.7448259592056274
1.0536094903945923,4.689842700958252,-0.7394511103630066
1.0782928466796875,4.649411201477051,-0.728731632232666
1.1070650815963745,4.627604961395264,-0.7209976315498352
1.1338423490524292,4.598087310791016,-0.7121179699897766
1.162596344947815,4.5758442878723145,-0.7040761709213257
0.9636739492416382,3.6862611770629883,-0.5633336901664734
0.9892412424087524,3.680209159851074,-0.5585656762123108
1.0057315826416016,3.640383005142212,-0.5486999154090881
1.0375266075134277,3.656290054321289,-0.5472474694252014
1.0611300468444824,3.6422441005706787,-0.5408565998077393
1.0863556861877441,3.6355679035186768,-0.5356695652008057
1.1049600839614868,3.6064553260803223,-0.5271915793418884
1.1279270648956299,3.5919885635375977,-0.5209010243415833
1.1528820991516113,3.5848443508148193,-0.5154544711112976
1.1780925989151,3.5774471759796143,-0.5098118782043457
1.2029838562011719,3.569946765899658,-0.5042285919189453
1.2204673290252686,3.540231943130493,-0.4955211877822876
1.2425646781921387,3.525120496749878,-0.4887999892234802
1.2695155143737793,3.5245540142059326,-0.4839165508747101
1.2885384559631348,3.501941442489624,-0.47602882981300354
1.313537359237671,3.4934639930725098,-0.46995219588279724
1.331030249595642,3.4668874740600586,-0.4615406095981598
1.3549115657806396,3.458444833755493,-0.4553465247154236
1.3787107467651367,3.4498376846313477,-0.4491577744483948
1.3911632299423218,3.4121639728546143,-0.439158171415329
1.440869688987732,3.4638352394104004,-0.4405292570590973
1.7585391998291016,4.147737503051758,-0.5210128426551819
1.7839285135269165,4.129414081573486,-0.5122290849685669
1.8159276247024536,4.124919414520264,-0.5050640106201172
1.8385573625564575,4.098851680755615,-0.49526020884513855
1.8704841136932373,4.093929767608643,-0.48771539330482483
1.8984991312026978,4.08199405670166,-0.47944405674934387
1.9203460216522217,4.055559158325195,-0.46937790513038635
1.948882818222046,4.0428996086120605,-0.46089792251586914
1.9697250127792358,4.016451835632324,-0.4507288634777069
1.9923707246780396,3.993211269378662,-0.4408406913280487
2.025580406188965,3.990518569946289,-0.4331786632537842
2.048292636871338,3.96673846244812,-0.42320573329925537
2.071619749069214,3.9467694759368896,-0.41353723406791687
2.091074228286743,3.9197959899902344,-0.4032007157802582
2.114894390106201,3.8990840911865234,-0.3933015465736389
2.146265983581543,3.8917343616485596,-0.38459092378616333
2.13635516166687,3.813537120819092,-0.36908283829689026
2.162412166595459,3.799708366394043,-0.3598458468914032
2.1774280071258545,3.765049695968628,-0.34846657514572144
2.203112840652466,3.750946521759033,-0.3389921486377716
2.2327044010162354,3.7433457374572754,-0.329934298992157
2.246622323989868,3.708563804626465,-0.3183670938014984
2.2723708152770996,3.6936824321746826,-0.30847084522247314
2.305166006088257,3.6925101280212402,-0.2996676564216614
2.3177926540374756,3.657754421234131,-0.2879484295845032
2.339759349822998,3.635298252105713,-0.27681422233581543
2.372373342514038,3.633519172668457,-0.26739126443862915
2.392451763153076,3.611746311187744,-0.256335586309433
2.413519859313965,3.5890793800354004,-0.24479597806930542
2.4504377841949463,3.5930793285369873,-0.235043004155159
2.457089900970459,3.5513827800750732,-0.22193944454193115
2.481997489929199,3.534741163253784,-0.21014338731765747
2.531956911087036,3.557445526123047,-0.20059305429458618
2.5194039344787598,3.4902961254119873,-0.1855136752128601
2.5709006786346436,3.5114192962646484,-0.1746804267168045
2.183961868286133,2.9437596797943115,-0.1363266557455063
2.791133165359497,3.917334794998169,0.41815733909606934
2.773047924041748,3.9572134017944336,0.43396812677383423
2.7256531715393066,3.950838327407837,0.44396576285362244
2.7056968212127686,3.9819719791412354,0.4575977623462677
2.6742353439331055,4.001763820648193,0.46972665190696716
2.6591928005218506,4.043017387390137,0.48395058512687683
2.6151301860809326,4.037943363189697,0.4923393726348877
2.592167854309082,4.069835186004639,0.5047441720962524
2.5608770847320557,4.088266372680664,0.5154101252555847
2.546102285385132,4.128203868865967,0.5282251834869385
2.5016934871673584,4.1222453117370605,0.5350542068481445
2.469449996948242,4.140359401702881,0.5448828935623169
2.460211753845215,4.194180011749268,0.5591493248939514
2.422664165496826,4.196866035461426,0.5663375854492188
2.3993077278137207,4.226912975311279,0.5770299434661865
2.3746283054351807,4.257397651672363,0.5876542925834656
2.2847208976745605,4.168557167053223,0.5816389918327332
2.2441813945770264,4.1630048751831055,0.5867015719413757
2.217639207839966,4.184876441955566,0.5954779982566833
2.20039439201355,4.227856159210205,0.607057511806488
2.1756739616394043,4.2569379806518555,0.6167110800743103
2.1415741443634033,4.264460563659668,0.6230505704879761
2.1182806491851807,4.29230260848999,0.6323090195655823
2.086346387863159,4.306890487670898,0.6392548680305481
2.054126262664795,4.321321964263916,0.6461666822433472
2.0258638858795166,4.34217643737793,0.6539652943611145
2.0016837120056152,4.369422435760498,0.6626262664794922
1.9780391454696655,4.400390148162842,0.6719270944595337
2.0124869346618652,4.566172122955322,0.701514482498169
1.9479507207870483,4.508951187133789,0.6969549655914307
1.9561477899551392,4.618047714233398,0.718047559261322
1.9206759929656982,4.6235880851745605,0.7230542898178101
1.8844969272613525,4.629140377044678,0.7280930280685425
1.8532960414886475,4.649148941040039,0.7348987460136414
1.8303288221359253,4.6905388832092285,0.7451522350311279
1.785332202911377,4.673884391784668,0.7461665868759155
1.7498092651367188,4.67818546295166,0.7504251599311829
1.3380656242370605,3.6559817790985107,0.5893101692199707
1.3154479265213013,3.675855875015259,0.5949881672859192
1.284761667251587,3.673797369003296,0.59708172082901
1.6598014831542969,4.858769416809082,0.7929002642631531
1.606096863746643,4.810920715332031,0.7881999611854553
1.5705695152282715,4.817770957946777,0.7925088405609131
1.553984522819519,4.883155822753906,0.8062719702720642
1.5185469388961792,4.893568992614746,0.8106501698493958
1.4875059127807617,4.918491363525391,0.817482590675354
1.4522755146026611,4.928287506103516,0.8218169808387756
1.4337536096572876,4.9932169914245605,0.8353541493415833
1.3960756063461304,4.995144844055176,0.8384706377983093
1.3433136940002441,4.941036701202393,0.8317604064941406
1.2910020351409912,4.8865861892700195,0.8247381448745728
1.2587014436721802,4.9063334465026855,0.8302586078643799
1.2369463443756104,4.966884136199951,0.8427222967147827
1.2033792734146118,4.982436180114746,0.8476303815841675
1.1720926761627197,5.0051140785217285,0.8537590503692627
1.1399500370025635,5.0277934074401855,0.8595148324966431
1.1039284467697144,5.03530740737915,0.8625438809394836
1.0719022750854492,5.061393737792969,0.8688026070594788
1.0416531562805176,5.098637104034424,0.8770496249198914
1.0016030073165894,5.082591533660889,0.8761206269264221
1.7972303628921509,9.466564178466797,1.6352970600128174
1.7234710454940796,9.440292358398438,1.6335793733596802
1.6423841714859009,9.371891021728516,1.6241850852966309
1.567606806755066,9.340975761413574,1.6213810443878174
1.502828598022461,9.358663558959961,1.6270278692245483
1.4316939115524292,9.330121040344238,1.62467622756958
1.3560144901275635,9.266768455505371,1.616310715675354
1.295762538909912,9.309706687927246,1.6260645389556885
1.223111629486084,9.276272773742676,1.6219006776809692
1.1617658138275146,9.318519592285156,1.631018877029419
1.0950465202331543,9.3183012008667,1.632788062095642
1.032701015472412,9.34811019897461,1.6398756504058838
0.9600954055786133,9.281808853149414,1.6301723718643188
0.8983712196350098,9.318395614624023,1.6384979486465454
0.3883343040943146,4.353609085083008,0.7659555077552795
0.3530040383338928,4.298553466796875,0.7567328810691833
0.3248503804206848,4.3276238441467285,0.7623536586761475
0.2967139780521393,4.3603363037109375,0.7686576843261719
0.34661224484443665,5.675384044647217,1.001228928565979
0.3048091232776642,5.646753787994385,0.9969854354858398
0.2673482596874237,5.690895080566406,1.0051207542419434
0.22882986068725586,5.723289966583252,1.0110241174697876
0.189618319272995,5.747732639312744,1.0155739784240723
0.1507764458656311,5.798822402954102,1.0248851776123047
0.11033839732408524,5.830425262451172,1.030811071395874
0.07003001868724823,5.854044437408447,1.0353736877441406
0.029197195544838905,5.8389506340026855,1.0329537391662598
-0.01746407151222229,8.935521125793457,1.5803844928741455
-0.07926351577043533,8.885239601135254,1.571193814277649
-0.14062227308750153,8.788366317749023,1.5538413524627686
-0.1993575245141983,8.683403015136719,1.5351426601409912
-0.06048477813601494,2.022437334060669,0.3575321137905121
-0.22669683396816254,6.150516986846924,1.087311029434204
-0.26741498708724976,6.106673717498779,1.079009771347046
-0.18302039802074432,3.60758638381958,0.6370388865470886
-0.2079695463180542,3.5986328125,0.6350849866867065
-0.23339223861694336,3.6048877239227295,0.6358518600463867
-0.5629364252090454,7.847398281097412,1.3835008144378662
-0.6147500872612,7.809003829956055,1.376131296157837
-0.5703922510147095,6.6548004150390625,1.1720222234725952
-0.6138699650764465,6.616491317749023,1.164040446281433
-0.6381552219390869,6.398008823394775,1.1244804859161377
-0.6806153655052185,6.378470420837402,1.1199811697006226
-0.7310188412666321,6.427435874938965,1.127549648284912
-0.771983802318573,6.3919572830200195,1.1203546524047852
-0.8098520636558533,6.329400062561035,1.1084651947021484
-0.8481670022010803,6.28598165512085,1.099299430847168
-0.8864083886146545,6.246161937713623,1.090754747390747
-0.9292459487915039,6.2403764724731445,1.088213324546814
-0.9800324440002441,6.2837042808532715,1.0942662954330444
-1.0338165760040283,6.3340606689453125,1.1015338897705078
-1.0856491327285767,6.3727126121521,1.1068216562271118
-1.1363093852996826,6.403511047363281,1.110366940498352
-1.189186692237854,6.445401668548584,1.115507960319519
-1.242690086364746,6.48687219619751,1.1205967664718628
-1.2962067127227783,6.524115085601807,1.12497079372406
-1.3556715250015259,6.579507827758789,1.1324273347854614
-1.4111062288284302,6.615727424621582,1.136643409729004
-1.4535467624664307,6.591403484344482,1.130273461341858
-1.48643159866333,6.529496192932129,1.1169474124908447
-1.5247061252593994,6.49369478225708,1.1081714630126953
-0.6773757338523865,2.7979989051818848,0.47634539008140564
-0.6931638717651367,2.778564691543579,0.4719126522541046
-0.7106608152389526,2.7665021419525146,0.4687623381614685
-0.7318560481071472,2.7692723274230957,0.46810004115104675
-0.7486368417739868,2.757162570953369,0.46466025710105896
-0.7697702646255493,2.759718418121338,0.46368876099586487
-1.7617411613464355,6.1546950340271,1.031075119972229
-1.7915064096450806,6.098709583282471,1.0186543464660645
-1.824040412902832,6.0536394119262695,1.0081359148025513
-1.8591558933258057,6.019565105438232,0.9994099736213684
-1.8865795135498047,5.963416576385498,0.9864592552185059
-1.9208704233169556,5.9330902099609375,0.977931797504425
-1.9464600086212158,5.876880645751953,0.9652091264724731
-1.9800307750701904,5.842128753662109,0.9559889435768127
-2.0068867206573486,5.78894567489624,0.9438364505767822
-2.036487102508545,5.746779441833496,0.9333205223083496
-2.066602945327759,5.708283424377441,0.9230009913444519
-2.0943453311920166,5.6662139892578125,0.9122474789619446
-1.4838333129882812,3.932354688644409,0.6303390264511108
-1.5002368688583374,3.8937199115753174,0.6213594675064087
-1.5034414529800415,3.8226702213287354,0.6073017716407776
-1.5053207874298096,3.7519607543945312,0.5930308699607849
-1.5129152536392212,3.6995561122894287,0.5817206501960754
-1.5243340730667114,3.657905101776123,0.5721890926361084
-1.540798306465149,3.6265323162078857,0.5642135143280029
-1.5632108449935913,3.6092236042022705,0.5584577322006226
-1.5885411500930786,3.598897933959961,0.5535950064659119
-1.6063021421432495,3.5748071670532227,0.5464819073677063
-1.599669337272644,3.497844696044922,0.5313881039619446
-1.6058361530303955,3.4488685131073,0.5205717086791992
-1.6167643070220947,3.4102747440338135,0.5113574862480164
-1.6407251358032227,3.3995814323425293,0.5062140822410583
-1.663272500038147,3.3893842697143555,0.500982403755188
-1.6961561441421509,3.3998122215270996,0.49879392981529236
-1.691564917564392,3.3335397243499756,0.48527073860168457
-2.745877981185913,5.319140434265137,0.7681207656860352
-2.7823917865753174,5.301422595977783,0.7591580748558044
-2.8218095302581787,5.290670871734619,0.7507758140563965
-1.1708252429962158,2.1610567569732666,0.3039150834083557
-1.1709991693496704,2.126173496246338,0.2961439788341522
-2.5121142864227295,4.487246990203857,0.618918776512146
-2.5170154571533203,4.427764892578125,0.6043246984481812
-6.000894546508789,10.396598815917969,1.403523325920105
-6.065831661224365,10.348170280456543,1.3812456130981445
-1.2392812967300415,2.0809264183044434,0.2744680643081665
-2.894397497177124,4.787293910980225,0.6235929131507874
-2.9419169425964355,4.7960615158081055,0.6166731119155884
-2.9891085624694824,4.800244331359863,0.6087212562561035
-2.9793267250061035,4.711491584777832,0.5888466835021973
-3.0004372596740723,4.676400661468506,0.5756314992904663
-3.032766819000244,4.66151237487793,0.5647836923599243
-3.0495002269744873,4.619438648223877,0.5502215027809143
-3.074214458465576,4.5857977867126465,0.5361782312393188
-3.0909008979797363,4.547819137573242,0.5215665102005005
-3.1005284786224365,4.50022554397583,0.5058918595314026
-3.119023084640503,4.460474491119385,0.4902847111225128
-2.842632532119751,4.009303569793701,0.43043315410614014
-2.8730363845825195,3.998483419418335,0.4186714291572571
-2.912670612335205,3.9952306747436523,0.40667101740837097
-2.93450665473938,3.9709279537200928,0.392238974571228
-2.972822666168213,4.162848472595215,-0.2421133667230606
-2.442004680633545,3.4717788696289062,-0.214158296585083
-2.386385679244995,3.447911500930786,-0.22474223375320435
-2.8759994506835938,4.217948913574219,-0.28841233253479004
-2.2359323501586914,3.33172869682312,-0.23837211728096008
-2.2259933948516846,3.3702962398529053,-0.25150176882743835
-2.2271649837493896,3.424612522125244,-0.26561805605888367
-2.1614747047424316,3.377995252609253,-0.27167442440986633
-2.140626907348633,3.3995885848999023,-0.2828597128391266
-1.246109962463379,2.009857177734375,-0.17253819108009338
-1.239235520362854,2.0318500995635986,-0.17974385619163513
-2.0792791843414307,3.4666144847869873,-0.315711110830307
-2.104180335998535,3.5641684532165527,-0.3332940936088562
-2.1054091453552246,3.625659227371216,-0.3477926552295685
-1.192630410194397,2.0888164043426514,-0.20536862313747406
-1.1777894496917725,2.0966711044311523,-0.2109026312828064
-2.5657639503479004,4.645151138305664,-0.47785282135009766
-2.5388381481170654,4.6763715744018555,-0.4914388954639435
-2.5196290016174316,4.720777988433838,-0.5063099265098572
-1.7617104053497314,3.356640338897705,-0.3670535385608673
-1.7373641729354858,3.368399143218994,-0.3752879202365875
-1.701719045639038,3.3594906330108643,-0.3812919557094574
-1.681174635887146,3.3775899410247803,-0.39006420969963074
-1.6810457706451416,3.437375068664551,-0.40372779965400696
-1.697866678237915,3.53617787361145,-0.4221208393573761
-1.6968175172805786,3.6001973152160645,-0.4366396963596344
-2.312293291091919,4.995621681213379,-0.6150445342063904
-2.292241334915161,5.0461320877075195,-0.6306006908416748
-2.2588164806365967,5.0683159828186035,-0.6423542499542236
-2.1150259971618652,4.837808609008789,-0.6216526031494141
-2.0426266193389893,4.7621917724609375,-0.6201268434524536
-1.981704592704773,4.7109503746032715,-0.6214524507522583
-1.8850393295288086,4.573544979095459,-0.6109861731529236
-0.9783200025558472,2.422250270843506,-0.3275597095489502
-0.9583569169044495,2.421241044998169,-0.331313818693161
-0.959380567073822,2.474285840988159,-0.3424972593784332
-0.9236965775489807,2.4333996772766113,-0.34055188298225403
-0.8870353102684021,2.388606548309326,-0.3379843533039093
-0.878147542476654,2.4159982204437256,-0.3454676866531372
-0.8611018061637878,2.4214978218078613,-0.34984439611434937
-0.8539606928825378,2.4562156200408936,-0.35830289125442505
-0.836389422416687,2.461632490158081,-0.36254990100860596
-0.8260365724563599,2.488960027694702,-0.37008434534072876
-0.8132678866386414,2.5087971687316895,-0.37651270627975464
-0.7988990545272827,2.5249717235565186,-0.38220730423927307
-0.7831782698631287,2.5373740196228027,-0.387350857257843
-0.7741575241088867,2.5718319416046143,-0.3959003686904907
-0.7560827732086182,2.5765833854675293,-0.39991673827171326
-0.7439094185829163,2.6036293506622314,-0.4073050022125244
-0.7450658082962036,2.6789493560791016,-0.4222121834754944
-0.7341997623443604,2.713352680206299,-0.43079203367233276
-0.7151713967323303,2.71781587600708,-0.4346502721309662
-0.6970019936561584,2.7259128093719482,-0.43901485204696655
-0.6727460026741028,2.711545944213867,-0.43956953287124634
-0.6617031097412109,2.7494187355041504,-0.44858115911483765
-0.6476999521255493,2.7759461402893066,-0.45579737424850464
-0.6231550574302673,2.757258653640747,-0.4556117057800293
-0.6053771376609802,2.7685863971710205,-0.4600297808647156
-0.585521936416626,2.77232027053833,-0.4632318913936615
-0.5837662220001221,2.862698793411255,-0.48096132278442383
-0.5622454881668091,2.8586061000823975,-0.48290619254112244
-0.8584703803062439,4.531452178955078,-0.769352376461029
-0.8259191513061523,4.532826900482178,-0.7731456160545349
-0.7842345833778381,4.4847211837768555,-0.7685517072677612
-0.7382723689079285,4.401980876922607,-0.7578655481338501
-0.6934939622879028,4.3188581466674805,-0.746952474117279
-0.6521180868148804,4.250699043273926,-0.7379188537597656
-0.6095355153083801,4.1669535636901855,-0.7261084318161011
-0.5709230899810791,4.105769157409668,-0.7182044982910156
-0.5351946949958801,4.055659294128418,-0.7121482491493225
-0.5049458146095276,4.043523788452148,-0.7123138904571533
-0.4699125289916992,3.98918080329895,-0.704785168170929
-0.3510115444660187,3.169823169708252,-0.5616734027862549
-0.32735884189605713,3.1565256118774414,-0.5609771609306335
-0.30868422985076904,3.196699380874634,-0.5697687864303589
-0.1917172074317932,2.1412770748138428,-0.382438063621521
-0.17299707233905792,2.0963921546936035,-0.3752056956291199
-0.245542511343956,3.2515008449554443,-0.5831867456436157
-0.22448666393756866,3.2758748531341553,-0.5888370871543884
-0.20314431190490723,3.3078725337982178,-0.595536470413208
-0.18090839684009552,3.324390172958374,-0.5992684960365295
-0.15868662297725677,3.3445937633514404,-0.6037003993988037
-0.1379026174545288,3.4068961143493652,-0.6157798767089844
-0.11911787837743759,3.553595542907715,-0.6430947780609131
-0.09264373779296875,3.504324197769165,-0.6344554424285889
-0.06753188371658325,3.4663829803466797,-0.6278861165046692
-0.04314463213086128,3.443638324737549,-0.6240942478179932
-0.01914118602871895,3.4322545528411865,-0.6223881244659424
0.004745883401483297,3.451526165008545,-0.6258535981178284
0.02923991158604622,3.459136962890625,-0.6270060539245605
0.05340619385242462,3.4665791988372803,-0.6281617283821106
0.07767736911773682,3.4738528728485107,-0.6293163299560547
0.10227549076080322,3.488657236099243,-0.631768524646759
0.12735103070735931,3.5110673904418945,-0.6350739002227783
0.15357302129268646,3.5525007247924805,-0.6418372392654419
0.18140803277492523,3.6052393913269043,-0.6506421566009521
0.20648741722106934,3.604051113128662,-0.6497479677200317
0.23228242993354797,3.614274501800537,-0.6505115032196045
0.2590406835079193,3.6358604431152344,-0.6531081795692444
0.28611013293266296,3.6572511196136475,-0.6556850671768188
0.31329724192619324,3.6707448959350586,-0.6568427085876465
0.3412812352180481,3.695582866668701,-0.6599708795547485
0.3699978291988373,3.7241361141204834,-0.6632132530212402
0.395843505859375,3.7218735218048096,-0.6609865427017212
0.42996907234191895,3.7920548915863037,-0.6716183423995972
0.46142977476119995,3.8275222778320312,-0.6760485172271729
0.48610085248947144,3.8094303607940674,-0.6706426739692688
0.5212778449058533,3.871314764022827,-0.6791014671325684
0.5525071620941162,3.898603677749634,-0.6814619898796082
0.5904351472854614,3.9675259590148926,-0.6910637021064758
0.6185582876205444,3.9637999534606934,-0.6878378391265869
0.6522839069366455,3.998049020767212,-0.6907192468643188
0.70590740442276,4.145926475524902,-0.7131205201148987
0.7475858330726624,4.213629245758057,-0.7215854525566101
0.7811831831932068,4.231712818145752,-0.7215131521224976
0.8302489519119263,4.329090595245361,-0.7344304919242859
0.8796781897544861,4.4184088706970215,-0.7455824613571167
0.9159021377563477,4.439408302307129,-0.7451948523521423
0.9597762227058411,4.494039058685303,-0.7504035234451294
1.0085629224777222,4.56715202331543,-0.7584410309791565
1.0496944189071655,4.602332592010498,-0.7596230506896973
1.089246392250061,4.625795364379883,-0.758758008480072
1.1234302520751953,4.626500129699707,-0.7542004585266113
1.1483092308044434,4.589512825012207,-0.7435580492019653
1.180214762687683,4.58242130279541,-0.7373107671737671
1.206105351448059,4.552733421325684,-0.7273960709571838
1.2384227514266968,4.545076847076416,-0.7209491729736328
1.2691959142684937,4.533575057983398,-0.7140058875083923
1.281613826751709,4.458812236785889,-0.6969614624977112
1.3147101402282715,4.458276748657227,-0.6913481950759888
1.0906450748443604,3.606668710708618,-0.5548163652420044
1.1072324514389038,3.5701136589050293,-0.5446555018424988
1.1392478942871094,3.5852203369140625,-0.5424467325210571
1.1640806198120117,3.578124523162842,-0.5365440845489502
1.1840060949325562,3.5561602115631104,-0.5284522771835327
1.2114044427871704,3.555976390838623,-0.5235860347747803
1.233815312385559,3.5409440994262695,-0.5165488719940186
1.2510104179382324,3.5111801624298096,-0.5070661306381226
1.2739603519439697,3.499694347381592,-0.5003196597099304
1.3024643659591675,3.502479314804077,-0.49557244777679443
1.3201937675476074,3.476019859313965,-0.4866953194141388
1.3471803665161133,3.474864959716797,-0.48121997714042664
1.3716099262237549,3.4662208557128906,-0.47450321912765503
1.3899000883102417,3.4431188106536865,-0.4659159481525421
1.4111565351486206,3.4269793033599854,-0.45826542377471924
1.4259934425354004,3.396512031555176,-0.44867178797721863
1.4585165977478027,3.4088993072509766,-0.4446259140968323
1.4825036525726318,3.399449586868286,-0.4375883638858795
1.8263323307037354,4.1096110343933105,-0.5219647884368896
1.8518061637878418,4.090764999389648,-0.512462317943573
1.8766093254089355,4.071984767913818,-0.502873420715332
1.9080276489257812,4.067014694213867,-0.4949624836444855
1.9371533393859863,4.054324626922607,-0.4858528971672058
1.9619795083999634,4.034805774688721,-0.4760107100009918
1.9775041341781616,3.9979636669158936,-0.4640916883945465
2.0050747394561768,3.985259771347046,-0.4549756646156311
2.0331432819366455,3.972069025039673,-0.4456622302532196
2.060588836669922,3.9589426517486572,-0.436309814453125
2.0770747661590576,3.9249866008758545,-0.4245029091835022
2.1042354106903076,3.911515474319458,-0.4149743914604187
2.1318302154541016,3.8975672721862793,-0.40525639057159424
2.1546905040740967,3.8770813941955566,-0.3948076069355011
2.140751838684082,3.7922000885009766,-0.377972275018692
2.1677284240722656,3.777836799621582,-0.3679151237010956
2.2019078731536865,3.777014970779419,-0.35924839973449707
2.2074408531188965,3.7295455932617188,-0.34613892436027527
2.2288224697113037,3.7086448669433594,-0.33548250794410706
2.2630863189697266,3.7070343494415283,-0.3262579143047333
2.268101453781128,3.6591267585754395,-0.3128407597541809
2.309124231338501,3.6711313724517822,-0.30472031235694885
2.3474838733673096,3.6753957271575928,-0.29537487030029297
2.355687379837036,3.6339054107666016,-0.28233617544174194
2.3797390460968018,3.6190345287323,-0.27143004536628723
2.4225831031799316,3.628922700881958,-0.261670857667923
2.4343016147613525,3.59366774559021,-0.24868397414684296
2.440136671066284,3.55269718170166,-0.23545008897781372
2.491530418395996,3.5748488903045654,-0.22573135793209076
2.481980085372925,3.5108165740966797,-0.21042120456695557
2.5165345668792725,3.510894536972046,-0.19885198771953583
2.559520959854126,3.5190956592559814,-0.18688061833381653
2.573080062866211,3.4905006885528564,-0.17293958365917206
2.782496452331543,3.9388134479522705,0.4531828761100769
2.7515182495117188,3.9588871002197266,0.46719756722450256
2.718766927719116,3.9705138206481934,0.4791839122772217
2.7005367279052734,4.009506702423096,0.49445444345474243
2.6691181659698486,4.028931140899658,0.5070009231567383
2.623403787612915,4.020351886749268,0.5150842070579529
2.6122608184814453,4.0677409172058105,0.5301710367202759
2.5701959133148193,4.070038318634033,0.5392565131187439
2.5480048656463623,4.100822448730469,0.5517710447311401
2.5329368114471436,4.140624523162842,0.5652233362197876
2.4971182346343994,4.151884078979492,0.5744429230690002
2.472949743270874,4.182947635650635,0.5864344835281372
2.450906753540039,4.212532043457031,0.5977147817611694
2.4088027477264404,4.208620548248291,0.6043209433555603
2.391878604888916,4.252561569213867,0.6172958612442017
2.3519599437713623,4.255746364593506,0.6244047284126282
2.2641942501068115,4.16566276550293,0.6172745823860168
2.2309956550598145,4.173534393310547,0.6244809627532959
2.206416368484497,4.20286226272583,0.6346595287322998
2.1746902465820312,4.218164920806885,0.6425957083702087
2.154324531555176,4.253471374511719,0.653468906879425
2.1207523345947266,4.2605156898498535,0.6598774790763855
2.103553056716919,4.302364349365234,0.6715781092643738
2.06404185295105,4.303168773651123,0.6766732335090637
2.0449588298797607,4.345356464385986,0.6882445812225342
2.0139944553375244,4.358710289001465,0.695074737071991
1.9800899028778076,4.364651203155518,0.7006977796554565
2.0081629753112793,4.5119733810424805,0.7289124131202698
1.994781732559204,4.5716962814331055,0.742946982383728
1.958767056465149,4.58194637298584,0.7491001486778259
1.9397090673446655,4.626722812652588,0.7606952786445618
1.8982617855072021,4.617800712585449,0.763486921787262
1.860711932182312,4.61956787109375,0.7677865028381348
1.853539228439331,4.700403213500977,0.7850154042243958
1.8182826042175293,4.713147163391113,0.7910351753234863
1.7873895168304443,4.732237815856934,0.7979777455329895
1.358052134513855,3.672677755355835,0.6221874356269836
1.309798240661621,3.6197750568389893,0.6160133481025696
1.3052284717559814,3.6903703212738037,0.6305007934570312
1.2727707624435425,3.6846816539764404,0.6320646405220032
1.6244856119155884,4.814559459686279,0.8291394114494324
1.6051313877105713,4.868913650512695,0.8417261838912964
1.578005313873291,4.901199817657471,0.850583016872406
