X,Y,Z
-1.3515766859054565,3.451137065887451,-0.18425199389457703
-1.3448853492736816,3.508007764816284,-0.18892978131771088
-1.333803415298462,3.553821086883545,-0.19303038716316223
-1.2902427911758423,3.5116238594055176,-0.1923283487558365
-1.2682299613952637,3.5278139114379883,-0.19476795196533203
-1.2179960012435913,3.4668991565704346,-0.19286811351776123
-1.1793384552001953,3.4347963333129883,-0.1925058811903
-1.1317616701126099,3.3725767135620117,-0.1903911828994751
-1.093617558479309,3.3358120918273926,-0.18967610597610474
-1.0722236633300781,3.3508450984954834,-0.19179478287696838
-1.0408639907836914,3.336113929748535,-0.19221283495426178
-0.9980192184448242,3.2798409461975098,-0.19017715752124786
-0.9685136675834656,3.2641801834106445,-0.1904587596654892
-0.9500136375427246,3.285764217376709,-0.19288989901542664
-0.9129235744476318,3.2435381412506104,-0.19145607948303223
-0.8836912512779236,3.227285623550415,-0.19154202938079834
-0.8546822667121887,3.2107975482940674,-0.19161143898963928
-0.8195943832397461,3.1675117015838623,-0.19004586338996887
-0.7992188334465027,3.1806788444519043,-0.19179338216781616
-0.7674062848091125,3.1483070850372314,-0.19071945548057556
-0.7414995431900024,3.138411521911621,-0.1910007894039154
-0.7157981395721436,3.1283013820648193,-0.19126904010772705
-0.6830844283103943,3.08363676071167,-0.18939988315105438
-0.6598055362701416,3.0806615352630615,-0.18998771905899048
-0.634914219379425,3.0699007511138916,-0.19004839658737183
-0.6102602481842041,3.0589330196380615,-0.1900966316461563
-0.5848724246025085,3.0439772605895996,-0.18990454077720642
-0.5593839883804321,3.024915933609009,-0.1894429326057434
-0.5326309204101562,2.998013734817505,-0.18837018311023712
-0.5114870071411133,3.0016424655914307,-0.1891804337501526
-0.48911505937576294,2.99741792678833,-0.18950213491916656
-0.46429482102394104,2.9776394367218018,-0.18884745240211487
-0.4407139718532562,2.9614646434783936,-0.18841180205345154
-0.41668182611465454,2.9412765502929688,-0.18759983777999878
-0.39499321579933167,2.9363605976104736,-0.18773403763771057
-0.37046411633491516,2.9080796241760254,-0.18637710809707642
-0.34836599230766296,2.89506459236145,-0.18599700927734375
-0.32652464509010315,2.8858001232147217,-0.1858714073896408
-0.29769769310951233,2.8065762519836426,-0.1810997873544693
-0.2783867120742798,2.8124468326568604,-0.18178167939186096
-0.2576305866241455,2.802652597427368,-0.18145835399627686
-0.23915307223796844,2.8159990310668945,-0.1826396882534027
-0.2198488712310791,2.8253631591796875,-0.1835797280073166
-0.19958359003067017,2.81903076171875,-0.18339310586452484
-0.18040740489959717,2.8281171321868896,-0.18417176604270935
-0.1602301001548767,2.8215057849884033,-0.18393713235855103
-0.14039790630340576,2.8186416625976562,-0.1839543581008911
-0.12009578198194504,2.811758279800415,-0.18372125923633575
-0.10049590468406677,2.8125159740448,-0.18389375507831573
-0.08087151497602463,2.813141345977783,-0.1840033382177353
-0.060903988778591156,2.798042058944702,-0.1830928772687912
-0.04143163189291954,2.798391103744507,-0.18320156633853912
-0.021632373332977295,2.798607110977173,-0.1833120435476303
-0.0021624260116368532,2.7753005027770996,-0.18180915713310242
0.0171283558011055,2.775251865386963,-0.18175822496414185
0.036545515060424805,2.7828638553619385,-0.18221761286258698
0.05620107799768448,2.7981343269348145,-0.1831870824098587
0.07504185289144516,2.7742998600006104,-0.1816052496433258
0.09492231905460358,2.781498432159424,-0.18200534582138062
0.11360029876232147,2.765206813812256,-0.1807808130979538
0.1335281878709793,2.779939651489258,-0.18159352242946625
0.15283460915088654,2.778958559036255,-0.18138748407363892
0.1711941361427307,2.762279510498047,-0.18016617000102997
0.19123722612857819,2.7687952518463135,-0.18042416870594025
0.20981410145759583,2.7596545219421387,-0.17955611646175385
0.22695958614349365,2.7348525524139404,-0.17768101394176483
0.2459404021501541,2.733234405517578,-0.1773218810558319
0.2649582028388977,2.7314796447753906,-0.17696182429790497
0.2806253433227539,2.694668769836426,-0.17431464791297913
0.2893272042274475,2.603588104248047,-0.1680576652288437
0.31510019302368164,2.667369842529297,-0.17180785536766052
0.3364911675453186,2.6883621215820312,-0.1727970391511917
0.3618133068084717,2.7362327575683594,-0.17551147937774658
0.3854544758796692,2.7645297050476074,-0.17694951593875885
0.4044901728630066,2.7618513107299805,-0.1762796938419342
0.4235072731971741,2.7590420246124268,-0.17560985684394836
0.44509804248809814,2.771479606628418,-0.17591308057308197
0.46888941526412964,2.7952728271484375,-0.17693626880645752
0.4896913766860962,2.799663543701172,-0.1767279952764511
0.5120737552642822,2.81156325340271,-0.17684081196784973
0.5299551486968994,2.8003647327423096,-0.1755184829235077
0.5538389682769775,2.819636344909668,-0.17610710859298706
0.5750007033348083,2.823409080505371,-0.17572638392448425
0.5962263941764832,2.8270273208618164,-0.17533375322818756
0.6192981004714966,2.8380911350250244,-0.17526556551456451
0.6447612047195435,2.8604626655578613,-0.17590688169002533
0.6680566668510437,2.871190309524536,-0.17582419514656067
0.6916537880897522,2.8817031383514404,-0.1757243573665619
0.7097885012626648,2.869320869445801,-0.17421413958072662
0.7336097359657288,2.8794937133789062,-0.17394140362739563
0.7611977458000183,2.9046573638916016,-0.17458470165729523
0.7883948087692261,2.9257469177246094,-0.1749635636806488
0.812945544719696,2.9352829456329346,-0.17464092373847961
0.8375216722488403,2.944662094116211,-0.17426976561546326
0.86672043800354,2.9687986373901367,-0.17465457320213318
0.8903331160545349,2.9740989208221436,-0.17394360899925232
0.9075347185134888,2.9567391872406006,-0.17189845442771912
0.9433121681213379,2.998797655105591,-0.17330069839954376
0.9686688780784607,3.0071842670440674,-0.17267325520515442
0.9821443557739258,2.978266954421997,-0.16983473300933838
0.9999688863754272,2.9641849994659424,-0.16787829995155334
1.0040514469146729,2.9093000888824463,-0.16361775994300842
1.0138863325119019,2.872901201248169,-0.16043677926063538
1.0360615253448486,2.873363733291626,-0.15922705829143524
1.0784342288970947,2.9285964965820312,-0.1610192358493805
1.1840938329696655,3.1474454402923584,-0.1716442108154297
1.2101922035217285,3.150144338607788,-0.17039144039154053
1.2461235523223877,3.1781489849090576,-0.17045283317565918
1.2951139211654663,3.238583564758301,-0.1721363216638565
1.3376859426498413,3.2804064750671387,-0.17277564108371735
1.3549152612686157,3.2565433979034424,-0.16987547278404236
1.397385835647583,3.2938272953033447,-0.17018572986125946
1.1254308223724365,2.603917121887207,-0.13316865265369415
1.1523797512054443,2.6177940368652344,-0.13249245285987854
1.157655954360962,2.58138108253479,-0.12924644351005554
1.1791712045669556,2.5802998542785645,-0.1277499943971634
1.1933505535125732,2.5652589797973633,-0.1255483627319336
1.220536231994629,2.5784573554992676,-0.12470176070928574
1.2483177185058594,2.5912318229675293,-0.12378404289484024
1.7731853723526,3.616309881210327,-0.17056791484355927
1.8155866861343384,3.639012336730957,-0.1693442165851593
1.9386811256408691,3.8218839168548584,-0.17543141543865204
1.93960702419281,3.7601733207702637,-0.1701555997133255
1.3781808614730835,2.626856803894043,-0.1171199232339859
1.3849061727523804,2.59690260887146,-0.1140117272734642
1.3667516708374023,2.5225560665130615,-0.10899101942777634
1.3258799314498901,2.4070918560028076,-0.10223464667797089
1.3254411220550537,2.367239236831665,-0.09879376739263535
1.3084073066711426,2.300739288330078,-0.09428686648607254
1.3196582794189453,2.2853782176971436,-0.09192008525133133
1.3236100673675537,2.2560625076293945,-0.08893045037984848
1.3394006490707397,2.2468106746673584,-0.08670319616794586
1.3460215330123901,2.2247021198272705,-0.08399398624897003
1.3650249242782593,2.222346305847168,-0.081993967294693
1.3638896942138672,2.186398506164551,-0.07871229201555252
1.3741062879562378,2.170837640762329,-0.07617487758398056
1.3843072652816772,2.1551527976989746,-0.0735912173986435
1.3950148820877075,2.139002799987793,-0.07091386616230011
1.4092350006103516,2.1297414302825928,-0.06846118718385696
1.4164419174194336,2.1109397411346436,-0.06570026278495789
1.435506820678711,2.107558488845825,-0.0632566586136818
1.436302661895752,2.07867693901062,-0.06001976132392883
1.44974946975708,2.069396495819092,-0.057369429618120193
1.4731723070144653,2.0720627307891846,-0.05486041307449341
1.4589505195617676,2.0246827602386475,-0.05105298385024071
1.4539586305618286,1.989774465560913,-0.04749728739261627
1.464828372001648,1.9769978523254395,-0.0443914458155632
3.1844701766967773,4.457482814788818,0.159785658121109
3.1516406536102295,4.480511665344238,0.16647638380527496
2.5590388774871826,3.694058895111084,0.14179591834545135
2.5567538738250732,3.7522664070129395,0.1485615223646164
3.1591110229492188,4.706752777099609,0.19146884977817535
3.122403144836426,4.726261138916016,0.1972905397415161
3.113280773162842,4.7926506996154785,0.20514175295829773
1.638759732246399,2.5615556240081787,0.11206649988889694
1.6409651041030884,2.606260061264038,0.1164407879114151
1.6170845031738281,2.61183500289917,0.11905986070632935
3.0325686931610107,4.976216793060303,0.23103894293308258
3.0068199634552,5.014343738555908,0.2370193600654602
2.984950304031372,5.063429832458496,0.24338258802890778
2.9634780883789062,5.111907482147217,0.24967043101787567
2.798173427581787,4.9051079750061035,0.2431737780570984
2.7244741916656494,4.8569016456604,0.2442602962255478
2.674382448196411,4.853270053863525,0.2475178837776184
2.609936237335205,4.817121505737305,0.2488749474287033
2.559854507446289,4.803954601287842,0.25129422545433044
2.514211416244507,4.801380157470703,0.25414952635765076
2.4483747482299805,4.760607719421387,0.25489842891693115
2.3997395038604736,4.7501606941223145,0.2571796774864197
2.3335251808166504,4.7002177238464355,0.2571795582771301
1.2430320978164673,2.5494565963745117,0.14090797305107117
1.2242478132247925,2.5584261417388916,0.14277437329292297
1.2024812698364258,2.560009002685547,0.14420337975025177
1.1846418380737305,2.5682132244110107,0.14596398174762726
1.1662238836288452,2.5765275955200195,0.14774304628372192
1.156901240348816,2.606257915496826,0.150668665766716
1.1238362789154053,2.5823447704315186,0.1504974216222763
2.0630011558532715,4.832098960876465,0.2837798595428467
2.0383358001708984,4.867760181427002,0.28805434703826904
2.0191240310668945,4.921990394592285,0.29337266087532043
1.9920374155044556,4.958072185516357,0.2975371479988098
2.003514289855957,5.091840744018555,0.30761274695396423
2.0156407356262207,5.229246616363525,0.31796160340309143
1.9956905841827393,5.286767482757568,0.32353153824806213
1.9771811962127686,5.355945587158203,0.32970282435417175
1.946316123008728,5.391951560974121,0.33381155133247375
1.9052252769470215,5.398169040679932,0.3360706567764282
1.8891271352767944,5.4738335609436035,0.34264928102493286
1.3660330772399902,4.0494561195373535,0.2548742890357971
1.3363771438598633,4.0592217445373535,0.2567470967769623
1.3094635009765625,4.076059341430664,0.25904375314712524
1.280417561531067,4.0851616859436035,0.2608487010002136
1.2496627569198608,4.0864081382751465,0.26213595271110535
1.2267522811889648,4.113577365875244,0.26510217785835266
1.2018460035324097,4.137059688568115,0.2677040696144104
1.1960357427597046,4.231896877288818,0.2749389410018921
1.227836012840271,4.465755939483643,0.291276216506958
1.7064825296401978,6.379701614379883,0.4177195131778717
1.67183256149292,6.429001808166504,0.42258384823799133
0.8189885020256042,3.242910623550415,0.21391701698303223
1.5547144412994385,6.34972620010376,0.4202113747596741
0.7965493202209473,3.3566219806671143,0.2228468656539917
1.4543726444244385,6.325198173522949,0.4212653636932373
1.406091570854187,6.316007137298584,0.4219943583011627
1.3506003618240356,6.272162914276123,0.4204044044017792
1.293400764465332,6.224388599395752,0.41825366020202637
1.2415180206298828,6.1950860023498535,0.41733214259147644
1.1866039037704468,6.146193027496338,0.41509124636650085
1.1395108699798584,6.1312055587768555,0.4151306450366974
1.0893166065216064,6.0966668128967285,0.41385361552238464
1.0444250106811523,6.096510410308838,0.4147919714450836
0.9949700832366943,6.065197944641113,0.4134426712989807
0.9556699395179749,6.095099449157715,0.4162848889827728
0.9043121337890625,6.043739318847656,0.4135850667953491
0.8523101210594177,5.980356693267822,0.41006073355674744
0.8109784126281738,5.993880748748779,0.41183581948280334
0.7632875442504883,5.9568562507629395,0.4098924696445465
0.624387264251709,5.16115665435791,0.355630099773407
0.5668309330940247,4.979514122009277,0.3436029255390167
0.5487188696861267,5.13828706741333,0.3550732433795929
0.5211263298988342,5.223354816436768,0.3614905774593353
0.37741050124168396,4.074387073516846,0.2823985517024994
0.35384005308151245,4.1351447105407715,0.28684037923812866
0.3288264870643616,4.187998294830322,0.29075419902801514
0.2989223897457123,4.18239688873291,0.29062652587890625
0.26857298612594604,4.164902210235596,0.28968289494514465
0.13972440361976624,2.4354217052459717,0.16956210136413574
0.12315429747104645,2.4441051483154297,0.17030823230743408
0.10537488013505936,2.4293267726898193,0.16933512687683105
0.08754965662956238,2.406630516052246,0.16781733930110931
0.07007110118865967,2.3838043212890625,0.16629725694656372
0.053220055997371674,2.38423228263855,0.16640789806842804
0.036658741533756256,2.3845369815826416,0.16651661694049835
0.020777463912963867,2.4665591716766357,0.17228718101978302
0.003586544655263424,2.43936824798584,0.1703636199235916
-0.013332067057490349,2.431541681289673,0.1698010265827179
-0.09456786513328552,7.535745143890381,0.5262168049812317
-0.14681069552898407,7.527117729187012,0.5256159901618958
-0.19824306666851044,7.494757652282715,0.5233832597732544
-0.24928483366966248,7.465960502624512,0.5212006568908691
-0.30065977573394775,7.456299781799316,0.5202019810676575
-0.3527247905731201,7.461852550506592,0.5202890634536743
-0.29456615447998047,5.420281410217285,0.37773409485816956
-0.3327328562736511,5.425903797149658,0.3779434859752655
-0.3693986237049103,5.407930850982666,0.37652787566185
-0.4056597352027893,5.389736652374268,0.37491574883461
-0.44091954827308655,5.363549709320068,0.3726816177368164
-0.4706486463546753,5.271085739135742,0.3658611476421356
-0.446336954832077,4.635451316833496,0.32141414284706116
-0.47734153270721436,4.620645046234131,0.3200748562812805
-0.505978524684906,4.586269855499268,0.31739869713783264
-0.5366623997688293,4.5749831199646,0.316132515668869
-0.5677212476730347,4.563432216644287,0.3148234188556671
-0.5960657596588135,4.536286354064941,0.3124655783176422
-0.6254041194915771,4.516650199890137,0.3106399476528168
-0.6578666567802429,4.519965171813965,0.31040865182876587
-0.6862561106681824,4.496084690093994,0.30830806493759155
-0.7150923609733582,4.475870609283447,0.3062496781349182
-0.7470430135726929,4.47861909866333,0.3057886064052582
-0.7764387726783752,4.46577262878418,0.3042762279510498
-0.8033124804496765,4.437321662902832,0.3017113208770752
-0.8298282623291016,4.408713340759277,0.29915672540664673
-0.8506025671958923,4.353207588195801,0.2947198748588562
-0.7422825694084167,3.6634762287139893,0.24733798205852509
-0.767295241355896,3.6583874225616455,0.24633073806762695
-0.9288365244865417,4.281609535217285,0.28752240538597107
-0.9722127914428711,4.3359880447387695,0.2903974652290344
-1.0040796995162964,4.336804389953613,0.2896869480609894
-1.0323995351791382,4.322227478027344,0.2877873182296753
-1.0524510145187378,4.277349948883057,0.28385230898857117
-1.0834252834320068,4.277746200561523,0.28294166922569275
-1.1130563020706177,4.270227432250977,0.281500905752182
-1.1427162885665894,4.262481212615967,0.2800561785697937
-1.1664551496505737,4.231887340545654,0.27706509828567505
-1.1950565576553345,4.224005699157715,0.27544188499450684
-1.2214701175689697,4.208430767059326,0.27333009243011475
-1.2447401285171509,4.18137788772583,0.2704789638519287
-1.2691811323165894,4.157828330993652,0.26786282658576965
-1.2985502481460571,4.148858070373535,0.26618269085884094
-1.3266432285308838,4.140075206756592,0.2643868327140808
-1.349686861038208,4.116326332092285,0.2616226077079773
-1.3874598741531372,4.136779308319092,0.2616702914237976
-1.4085638523101807,4.105032920837402,0.2583947777748108
-1.4293304681777954,4.073179244995117,0.25513696670532227
-1.4548845291137695,4.055961608886719,0.2526879608631134
-1.484750509262085,4.053556442260742,0.25112539529800415
-1.509186029434204,4.036321640014648,0.24865536391735077
-1.5344698429107666,4.018558025360107,0.2461169958114624
-1.5624123811721802,4.007904529571533,0.24402859807014465
-1.5844643115997314,3.9825870990753174,0.2409406155347824
-1.6111007928848267,3.9720215797424316,0.23870474100112915
-1.6376663446426392,3.9612765312194824,0.23646880686283112
-1.665183424949646,3.9499268531799316,0.23414625227451324
-1.6880011558532715,3.927633285522461,0.23119083046913147
-1.7118792533874512,3.9089128971099854,0.2283344268798828
-1.7442175149917603,3.911822557449341,0.22672449052333832
-1.7479270696640015,3.8504111766815186,0.22139385342597961
-1.791060447692871,3.8737034797668457,0.22088894248008728
-1.8047202825546265,3.833035469055176,0.21674202382564545
-1.8339952230453491,3.8279199600219727,0.21445490419864655
-1.849111557006836,3.7947657108306885,0.21064065396785736
-1.8785055875778198,3.7891626358032227,0.20831169188022614
-1.9013699293136597,3.769155263900757,0.2051626294851303
-1.9197717905044556,3.742435932159424,0.20160292088985443
-1.9443864822387695,3.7298600673675537,0.19874832034111023
-1.9734296798706055,3.723567008972168,0.19615691900253296
-1.9919846057891846,3.696110963821411,0.1924094408750534
-1.7024141550064087,3.1075026988983154,0.15979982912540436
-1.7189897298812866,3.089569330215454,0.15683957934379578
-1.7240703105926514,3.051060199737549,0.1528453230857849
-0.8436387777328491,1.4687063694000244,0.07252461463212967
-0.853654682636261,1.462972640991211,0.0711979940533638
-0.8591449856758118,1.45075523853302,0.06953608989715576
-0.8687345385551453,1.4450981616973877,0.06817357987165451
-0.878787636756897,1.439074158668518,0.06673938035964966
-0.8885948061943054,1.433106780052185,0.06527168303728104
-0.9061387777328491,1.4406243562698364,0.0644080862402916
-0.8949228525161743,1.401586651802063,0.06141701713204384
-0.8771003484725952,1.352776050567627,0.05803468078374863
-0.8943480253219604,1.360228419303894,0.057061318308115005
-0.9446143507957458,1.4159718751907349,0.05798451602458954
-2.3904900550842285,3.530052661895752,0.1408693492412567
-1.3922297954559326,2.0277345180511475,0.07875268161296844
-1.313867211341858,1.8873993158340454,0.07121405750513077
-1.2398755550384521,1.7870110273361206,-0.05765986815094948
-1.2415741682052612,1.8189289569854736,-0.06124699115753174
-1.2680410146713257,1.8858015537261963,-0.06590083241462708
-1.3446019887924194,2.0317580699920654,-0.07355895638465881
-1.4186941385269165,2.179168701171875,-0.08159787207841873
-1.1653099060058594,1.8175286054611206,-0.07012684643268585
-1.5225576162338257,2.4137799739837646,-0.09584400802850723
-1.169267177581787,1.8840800523757935,-0.0768609419465065
-2.1272060871124268,3.6576077938079834,-0.1637943983078003
-0.825668215751648,1.443268895149231,-0.06596259027719498
-2.114039897918701,3.759188413619995,-0.175217866897583
-1.703482747077942,3.080803632736206,-0.14631806313991547
-2.0436484813690186,3.757605791091919,-0.18165946006774902
-2.0325517654418945,3.8033039569854736,-0.1870163083076477
-2.0047709941864014,3.817831039428711,-0.19084516167640686
-1.9709895849227905,3.817638397216797,-0.19379639625549316
-1.9399774074554443,3.8245532512664795,-0.19713029265403748
-1.8894741535186768,3.7929813861846924,-0.19832873344421387
-1.8622404336929321,3.806243658065796,-0.20180530846118927
-1.8255090713500977,3.797858476638794,-0.2040543258190155
-1.4987552165985107,3.175450325012207,-0.17282231152057648
-1.5265095233917236,3.295832633972168,-0.1816030889749527
-1.573548674583435,3.4629502296447754,-0.1931503266096115
-1.4667274951934814,3.288417339324951,-0.1855442076921463
-1.3980821371078491,3.1949195861816406,-0.18229137361049652
-1.3965033292770386,3.2549753189086914,-0.18771110475063324
-1.389862060546875,3.304267644882202,-0.19255179166793823
-1.3723781108856201,3.328300952911377,-0.1959461122751236
-1.3519114255905151,3.3449344635009766,-0.19886955618858337
-1.3192392587661743,3.332655668258667,-0.19997993111610413
-1.2713594436645508,3.2800612449645996,-0.1986314356327057
-1.227713942527771,3.234010696411133,-0.19757553935050964
-1.1830229759216309,3.184004306793213,-0.19625715911388397
-1.1629220247268677,3.199570655822754,-0.1988118439912796
-1.1256440877914429,3.1672585010528564,-0.1983698308467865
-1.090538740158081,3.1381375789642334,-0.1980738788843155
-1.054816484451294,3.104933977127075,-0.19748041033744812
-1.0325443744659424,3.112287998199463,-0.199418842792511
-1.0006649494171143,3.0897958278656006,-0.19934271275997162
-0.9622344970703125,3.044666290283203,-0.19777245819568634
-0.930652916431427,3.0176544189453125,-0.19732555747032166
-0.9163393974304199,3.046353340148926,-0.20052635669708252
-0.8771619200706482,2.992814064025879,-0.19817982614040375
-0.8554825782775879,2.9989774227142334,-0.19977474212646484
-0.8187342882156372,2.9484734535217285,-0.19754934310913086
-0.7839468717575073,2.9013195037841797,-0.19550539553165436
-0.7695934772491455,2.9292495250701904,-0.19848620891571045
-0.7362868189811707,2.885441303253174,-0.1964806169271469
-0.7117348909378052,2.875445604324341,-0.1967819482088089
-0.6880140900611877,2.865093946456909,-0.19702768325805664
-0.6610094308853149,2.8393523693084717,-0.1962059885263443
-0.6445479989051819,2.859034299850464,-0.19846111536026
-0.6152174472808838,2.821549415588379,-0.1966668665409088
-0.5868958830833435,2.7876837253570557,-0.19512633979320526
-0.562831461429596,2.768709897994995,-0.19459384679794312
-0.5428317785263062,2.7686541080474854,-0.1953916847705841
-0.5190773606300354,2.749346971511841,-0.1947370022535324
-0.4927413761615753,2.7145297527313232,-0.1929139792919159
-0.4746437966823578,2.7255992889404297,-0.19436483085155487
-0.4556483328342438,2.728775978088379,-0.19524669647216797
-0.4298669099807739,2.6894960403442383,-0.19308990240097046
-0.410970538854599,2.6923940181732178,-0.1938486397266388
-0.38641220331192017,2.6566097736358643,-0.19177457690238953
-0.36528077721595764,2.6438140869140625,-0.1913674771785736
-0.3458687961101532,2.638514995574951,-0.19149404764175415
-0.3241506516933441,2.613741874694824,-0.19020973145961761
-0.3031240999698639,2.592689037322998,-0.18907861411571503
-0.2849472463130951,2.594712018966675,-0.18959356844425201
-0.26518699526786804,2.5811030864715576,-0.18897289037704468
-0.24468708038330078,2.559608221054077,-0.18778276443481445
-0.22754400968551636,2.568974256515503,-0.18885740637779236
-0.20770302414894104,2.5471749305725098,-0.18752628564834595
-0.19046854972839355,2.556309938430786,-0.1884356290102005
-0.17259183526039124,2.557554006576538,-0.1887732446193695
-0.15450403094291687,2.558685302734375,-0.18911470472812653
-0.13794873654842377,2.5830140113830566,-0.1911781132221222
-0.11887844651937485,2.560546636581421,-0.18967100977897644
-0.10039536654949188,2.5457308292388916,-0.1886862814426422
-0.08252640068531036,2.5424630641937256,-0.18856558203697205
-0.06463605910539627,2.5468647480010986,-0.18902496993541718
-0.04693164676427841,2.5472400188446045,-0.18919262290000916
-0.029081519693136215,2.5358145236968994,-0.1883862316608429
-0.01145227625966072,2.5437467098236084,-0.1889641284942627
0.006186976097524166,2.5203917026519775,-0.1872270107269287
0.02401069365441799,2.52028489112854,-0.18722614645957947
0.04180007800459862,2.5356369018554688,-0.1883828043937683
0.058674342930316925,2.504136562347412,-0.18597835302352905
0.07678195834159851,2.527042865753174,-0.18755199015140533
0.09375710040330887,2.5108890533447266,-0.18623529374599457
0.11189071834087372,2.5257561206817627,-0.1872284859418869
0.12815077602863312,2.4937901496887207,-0.18475797772407532
0.14771820604801178,2.5317487716674805,-0.18739670515060425
0.1627129316329956,2.4918153285980225,-0.18419307470321655
0.18111442029476166,2.5061933994293213,-0.1850150227546692
0.19730505347251892,2.489363431930542,-0.18354137241840363
0.21623572707176208,2.5034565925598145,-0.18435300886631012
0.23361913859844208,2.501923084259033,-0.1839579939842224
0.2524702847003937,2.515789031982422,-0.18461142480373383
0.27152425050735474,2.5295135974884033,-0.18525882065296173
0.2846928834915161,2.4888916015625,-0.18193578720092773
0.3023114800453186,2.486849069595337,-0.18144124746322632
0.3156030774116516,2.4538145065307617,-0.1786440908908844
0.33358532190322876,2.4593443870544434,-0.17857322096824646
0.3472774028778076,2.433882474899292,-0.17626285552978516
0.3711060881614685,2.477696418762207,-0.17897139489650726
0.38621824979782104,2.459657907485962,-0.17720648646354675
0.41272059082984924,2.514647960662842,-0.18065258860588074
0.433976411819458,2.5348472595214844,-0.1814977526664734
0.4486900269985199,2.5165116786956787,-0.17959044873714447
0.4661647379398346,2.5133912563323975,-0.1787760853767395
0.48953744769096375,2.540756940841675,-0.18013092875480652
0.5074124336242676,2.537311315536499,-0.17923149466514587
0.5279936790466309,2.5490970611572266,-0.17934159934520721
0.5389613509178162,2.51499342918396,-0.17623576521873474
0.5564412474632263,2.511251211166382,-0.17526587843894958
0.590438187122345,2.5795652866363525,-0.17931236326694489
0.6139282584190369,2.5981862545013428,-0.1797928363084793
0.6354232430458069,2.6091418266296387,-0.17967955768108368
0.6571190357208252,2.6199185848236084,-0.17955128848552704
0.6753366589546204,2.615363121032715,-0.17836414277553558
0.7025517225265503,2.6445796489715576,-0.1794765144586563
0.7251303791999817,2.654733896255493,-0.179175466299057
0.7474958896636963,2.664811849594116,-0.1788378208875656
0.7744133472442627,2.68967342376709,-0.1794799119234085
0.7975340485572815,2.6992650032043457,-0.17908090353012085
0.8242173194885254,2.719857692718506,-0.1794046312570572
0.8407820463180542,2.706721305847168,-0.17736327648162842
0.8733973503112793,2.745610237121582,-0.17873501777648926
0.9019756317138672,2.769280195236206,-0.17907856404781342
0.9298905730247498,2.7889211177825928,-0.17913348972797394
0.9541987180709839,2.797288417816162,-0.1784207969903946
0.9860551357269287,2.8276588916778564,-0.1789970099925995
1.0147548913955688,2.8465964794158936,-0.17880553007125854
1.0225399732589722,2.8065998554229736,-0.17491494119167328
1.0597680807113647,2.847026824951172,-0.17603640258312225
1.0958327054977417,2.8835790157318115,-0.17679719626903534
1.1223958730697632,2.8943896293640137,-0.17592357099056244
1.1598258018493652,2.930114269256592,-0.17649045586585999
1.2079881429672241,2.990790367126465,-0.17851091921329498
1.2494405508041382,3.0329830646514893,-0.1793414205312729
1.2744470834732056,3.035388946533203,-0.17771528661251068
1.2719473838806152,2.973031759262085,-0.17232871055603027
1.1432753801345825,2.6208221912384033,-0.15030741691589355
1.1488347053527832,2.5843899250030518,-0.14666052162647247
1.169442057609558,2.583815097808838,-0.14497429132461548
1.17862868309021,2.5582926273345947,-0.14190059900283813
1.1996312141418457,2.557251453399658,-0.14014911651611328
1.2362332344055176,2.587526321411133,-0.14004945755004883
1.211025357246399,2.491515636444092,-0.1331297904253006
1.656500220298767,3.3509325981140137,-0.17670892179012299
1.688305139541626,3.357032060623169,-0.1746087670326233
1.8040392398834229,3.526007890701294,-0.18081970512866974
1.8547148704528809,3.56589674949646,-0.18017196655273438
1.410008430480957,2.666804075241089,-0.13267028331756592
1.45054030418396,2.698394298553467,-0.13209378719329834
1.4505749940872192,2.6541128158569336,-0.1277836263179779
1.4473390579223633,2.6070072650909424,-0.12335646897554398
1.4242968559265137,2.526101589202881,-0.11742197722196579
1.385897159576416,2.4178524017333984,-0.11021637916564941
1.3612539768218994,2.3375399112701416,-0.10446591675281525
1.3468278646469116,2.278229236602783,-0.0997348427772522
1.3460973501205444,2.2424240112304688,-0.09605807811021805
1.349426031112671,2.2131435871124268,-0.09265077114105225
1.3601980209350586,2.197469711303711,-0.08977914601564407
1.3620654344558716,2.16880464553833,-0.08643323928117752
1.3897567987442017,2.179107427597046,-0.08449479937553406
1.40017569065094,2.163236379623413,-0.08151978254318237
1.4098933935165405,2.14768123626709,-0.07856237143278122
1.4098039865493774,2.1150755882263184,-0.07481900602579117
1.4196616411209106,2.0991508960723877,-0.0717175155878067
1.4441691637039185,2.1061792373657227,-0.06938131898641586
1.447533369064331,2.080225706100464,-0.06577015668153763
1.465714454650879,2.077117681503296,-0.06287197768688202
1.456607699394226,2.0357775688171387,-0.0587407648563385
1.4661606550216675,2.0193583965301514,-0.05521266162395477
1.4787951707839966,2.0102128982543945,-0.05189399793744087
2.527555465698242,3.5631256103515625,0.1485246866941452
2.490678548812866,3.5697219371795654,0.15399006009101868
2.511314630508423,3.654900074005127,0.16251544654369354
2.4472110271453857,3.618040084838867,0.16554497182369232
2.3695919513702393,3.5617570877075195,0.16739925742149353
3.110182523727417,4.746937274932861,0.22847765684127808
3.1053102016448975,4.814965724945068,0.23708002269268036
1.6366554498672485,2.580598831176758,0.12986157834529877
1.6345285177230835,2.618659019470215,0.13444200158119202
1.5914558172225952,2.590090274810791,0.13549651205539703
3.012632369995117,4.986592769622803,0.2655688226222992
2.986220598220825,5.024858474731445,0.2721593976020813
2.9865033626556396,5.105923652648926,0.28096652030944824
2.86869478225708,4.989015102386475,0.2787879407405853
2.7871217727661133,4.931927680969238,0.2796543538570404
2.7085962295532227,4.872796058654785,0.280069500207901
2.665195941925049,4.874173164367676,0.2838519513607025
2.5996663570404053,4.838424205780029,0.2852855920791626
2.539422035217285,4.812772750854492,0.28729555010795593
2.475067377090454,4.771345138549805,0.2880590856075287
2.4097843170166016,4.725713729858398,0.28848761320114136
2.3559110164642334,4.704618453979492,0.2901868522167206
2.3073697090148926,4.6936235427856445,0.2924546003341675
1.24275541305542,2.574432134628296,0.16198107600212097
1.2114315032958984,2.5547034740448,0.1622481793165207
1.1848562955856323,2.5455193519592285,0.1631058305501938
1.1694204807281494,2.561098098754883,0.1655116081237793
1.154152274131775,2.5764384269714355,0.16789357364177704
1.1439749002456665,2.6021623611450195,0.17093324661254883
2.0732421875,4.808511257171631,0.31840962171554565
2.0471370220184326,4.844871520996094,0.3231271505355835
2.02512526512146,4.891891956329346,0.32859593629837036
1.999387502670288,4.927504539489746,0.3332598805427551
1.9794286489486694,4.977319717407227,0.3388999104499817
2.0242037773132324,5.19827127456665,0.3562721610069275
2.003164291381836,5.256290912628174,0.36240682005882263
1.979981541633606,5.310635566711426,0.368344247341156
1.9614883661270142,5.375407695770264,0.37498363852500916
1.9291740655899048,5.403431415557861,0.3790986239910126
1.909421682357788,5.472188472747803,0.3860342502593994
1.877386450767517,5.507769584655762,0.39048874378204346
1.9335519075393677,5.809418678283691,0.4139374792575836
1.3229906558990479,4.069503307342529,0.29136893153190613
1.2958147525787354,4.082179546356201,0.29368871450424194
1.2688599824905396,4.098652362823486,0.2962504029273987
1.2371773719787598,4.1000518798828125,0.2975660264492035
1.2121332883834839,4.123640060424805,0.3005095422267914
1.1831059455871582,4.13192892074585,0.3023334741592407
1.1584404706954956,4.154962062835693,0.3052457869052887
1.1529011726379395,4.249297618865967,0.31342974305152893
1.6879193782806396,6.405006408691406,0.47404924035072327
1.6478335857391357,6.439385890960693,0.47820883989334106
1.5909343957901,6.405333042144775,0.47728753089904785
1.5462883710861206,6.416078090667725,0.4796901345252991
0.7862409949302673,3.3650033473968506,0.25242987275123596
1.4287173748016357,6.319172382354736,0.47545763850212097
1.3629063367843628,6.233883380889893,0.47030141949653625
1.3216644525527954,6.258533954620361,0.47344884276390076
1.2693910598754883,6.225470542907715,0.4722216725349426
1.2103086709976196,6.153729438781738,0.46805286407470703
1.160875916481018,6.1313862800598145,0.4676390290260315
1.1202130317687988,6.154664516448975,0.4703698456287384
1.0638601779937744,6.089419364929199,0.4663497805595398
1.0170316696166992,6.073602676391602,0.46611902117729187
0.9759557247161865,6.088111400604248,0.46822330355644226
0.9292814135551453,6.071651458740234,0.46798354387283325
0.8833808302879333,6.054778099060059,0.46756845712661743
0.8283137083053589,5.972041130065918,0.46186405420303345
0.7851841449737549,5.969919681549072,0.46240514516830444
0.7399633526802063,5.94813346862793,0.4614376425743103
0.5932575464248657,5.055644512176514,0.3928266763687134
0.5575077533721924,5.05963659286499,0.3937913775444031
0.5320603847503662,5.1602067947387695,0.4021039605140686
0.39496445655822754,4.113174915313721,0.3208288252353668
0.36295202374458313,4.080894470214844,0.3186379075050354
0.3427480161190033,4.184202671051025,0.32705265283584595
0.3131295442581177,4.186480522155762,0.32760027050971985
0.2826499938964844,4.169090747833252,0.32661715149879456
0.2539847791194916,4.178711414337158,0.3275683522224426
0.13045679032802582,2.4265549182891846,0.19031235575675964
0.36235901713371277,7.752884387969971,0.6083853840827942
0.30639511346817017,7.727973461151123,0.6067970395088196
0.07620012015104294,2.3314173221588135,0.18317937850952148
0.061686910688877106,2.3980586528778076,0.18854527175426483
0.04587607458233833,2.4451494216918945,0.1922556757926941
0.08994260430335999,7.628270626068115,0.5998069047927856
0.035683706402778625,7.5975565910339355,0.5974379181861877
-0.01709538884460926,7.5898261070251465,0.5969043374061584
-0.06951449811458588,7.554471492767334,0.5942264199256897
-0.12175695598125458,7.5382256507873535,0.5930761694908142
-0.17297950387001038,7.4905104637146,0.5890287160873413
-0.2247149646282196,7.4813737869262695,0.588045597076416
-0.2759554088115692,7.436822414398193,0.5843046307563782
-0.32865530252456665,7.458096981048584,0.5857687592506409
-0.27349624037742615,5.359365463256836,0.42080268263816833
-0.31454697251319885,5.423451900482178,0.42569541931152344
-0.35102614760398865,5.405648231506348,0.4239003658294678
-0.38788118958473206,5.387556076049805,0.4220993220806122
-0.4245625436306,5.3770222663879395,0.42091792821884155
-0.4595591127872467,5.346827983856201,0.4182189702987671
-0.4296862483024597,4.622284889221191,0.3612733483314514
-0.46171629428863525,4.619238376617432,0.36072179675102234
-0.49243658781051636,4.600459575653076,0.3587195873260498
-0.5231941938400269,4.5892839431762695,0.35734009742736816
-0.5530250072479248,4.570153713226318,0.3553585410118103
-0.5828012228012085,4.550806999206543,0.35337769985198975
-0.6123351454734802,4.531267166137695,0.3514021337032318
-0.6431682109832764,4.519194602966309,0.34991970658302307
-0.6730120182037354,4.507050514221191,0.34829452633857727
-0.7021176815032959,4.490860939025879,0.3463760018348694
-0.7305842041969299,4.470611095428467,0.34416088461875916
-0.7602480053901672,4.457839488983154,0.34253841638565063
-0.7898144125938416,4.444863319396973,0.34091800451278687
-0.8138047456741333,4.401017665863037,0.33679795265197754
-0.8401570320129395,4.376328945159912,0.33407658338546753
-0.730804979801178,3.6714532375335693,0.279582679271698
-0.7561407685279846,3.66640043258667,0.27851560711860657
-0.7799952626228333,3.653515100479126,0.2768635153770447
-0.9561836123466492,4.3289055824279785,0.32724836468696594
-0.9856829643249512,4.322395324707031,0.32577577233314514
-1.0168862342834473,4.323278903961182,0.3248421549797058
-1.0425986051559448,4.301230430603027,0.32220354676246643
-1.068677306175232,4.278878211975098,0.319543719291687
-1.0969715118408203,4.263782501220703,0.3174290060997009
-1.1244103908538818,4.24868631362915,0.3152848482131958
-1.1531777381896973,4.241097450256348,0.31355002522468567
-1.18398916721344,4.240818977355957,0.3123679757118225
-1.2034002542495728,4.19901180267334,0.30813437700271606
-1.2330539226531982,4.1905317306518555,0.3063358962535858
-1.2576714754104614,4.167059421539307,0.30347940325737
-1.2813143730163574,4.143677711486816,0.3004743754863739
-1.3092864751815796,4.135066032409668,0.2985154986381531
-1.3324322700500488,4.111423969268799,0.2954881489276886
-1.3614994287490845,4.102036952972412,0.2934437394142151
-1.3950272798538208,4.107367515563965,0.29248473048210144
-1.4180041551589966,4.083140850067139,0.2893361747264862
-1.450670838356018,4.088351726531982,0.28818413615226746
-1.4728463888168335,4.063990116119385,0.28496062755584717
-1.492838740348816,4.031916618347168,0.2811799645423889
-1.524128794670105,4.028688907623291,0.27939513325691223
-1.5574018955230713,4.032823085784912,0.2780848443508148
-1.584393858909607,4.022463321685791,0.2756483554840088
-1.6026324033737183,3.990201950073242,0.27173054218292236
-1.6242406368255615,3.9647774696350098,0.2682567834854126
-1.6523253917694092,3.9533278942108154,0.2657008767127991
-1.6855394840240479,3.956411838531494,0.2640898823738098
-1.7010358572006226,3.9202170372009277,0.2597617506980896
-1.7303386926651,3.916074514389038,0.25757545232772827
-1.7574812173843384,3.9041500091552734,0.2548110783100128
-1.7753578424453735,3.870511293411255,0.2506111264228821
-1.8015038967132568,3.8585941791534424,0.24777355790138245
-1.8170545101165771,3.825592517852783,0.243535578250885
-1.8426915407180786,3.8134944438934326,0.24062860012054443
-1.8623367547988892,3.7867517471313477,0.2367352992296219
-1.8890525102615356,3.773686408996582,0.23367203772068024
-1.9174656867980957,3.7682764530181885,0.23097166419029236
-1.9351379871368408,3.74186635017395,0.22699852287769318
-1.9681082963943481,3.7424654960632324,0.2245739996433258
-1.9793773889541626,3.701362133026123,0.21964068710803986
-2.0151898860931396,3.708845376968384,0.217499777674675
-1.7080519199371338,3.094414234161377,0.17922599613666534
-1.7328773736953735,3.08970046043396,0.17665992677211761
-0.8462788462638855,1.484622836112976,0.08375191688537598
-0.844483494758606,1.4587390422821045,0.08114396035671234
-0.8579463362693787,1.4600019454956055,0.08004331588745117
-0.8680285215377808,1.4541155099868774,0.07847907394170761
-0.8781353831291199,1.448119044303894,0.07690449804067612
-0.8835316896438599,1.4357606172561646,0.07496491819620132
-0.9051832556724548,1.449971079826355,0.07439400255680084
-0.906887412071228,1.430544137954712,0.07199382036924362
-0.8725119233131409,1.3553351163864136,0.06682812422513962
-0.89401775598526,1.3693830966949463,0.06611049175262451
-0.9182609915733337,1.3862249851226807,0.0654275119304657
-2.4025015830993652,3.572796583175659,0.16459372639656067
-1.3765474557876587,1.9907371997833252,0.08695294708013535
-1.244633436203003,1.7735068798065186,0.07516368478536606
-2.587423324584961,3.4915668964385986,0.12772981822490692
-1.177061915397644,1.6831079721450806,-0.05842055752873421
-1.409827709197998,2.048997640609741,-0.07441547513008118
-1.2888740301132202,1.932625651359558,-0.0758550614118576
-1.520914912223816,2.317305326461792,-0.09418199956417084
-1.1889160871505737,1.8392354249954224,-0.07715733349323273
-1.3825329542160034,2.1740503311157227,-0.09399989247322083
-1.2587411403656006,2.0120091438293457,-0.0895250216126442
-1.1115572452545166,1.804628610610962,-0.08243022859096527
-0.8344518542289734,1.4469268321990967,-0.07251576334238052
-2.1460113525390625,3.78513503074646,-0.1936361938714981
-1.055010437965393,1.8913798332214355,-0.09861014038324356
-1.7078800201416016,3.113135814666748,-0.16532833874225616
-2.0256552696228027,3.757357358932495,-0.2031095325946808
-2.001842498779297,3.778696060180664,-0.20780983567237854
-1.97908616065979,3.7992353439331055,-0.212328240275383
-1.919851303100586,3.7505600452423096,-0.21288235485553741
-1.8083475828170776,3.5969290733337402,-0.20725682377815247
-1.7742494344711304,3.591914176940918,-0.20995210111141205
-1.5886240005493164,3.274324655532837,-0.1941155344247818
-1.5096169710159302,3.1692941188812256,-0.1903974413871765
-1.4865604639053345,3.1799850463867188,-0.19352760910987854
-1.4479050636291504,3.1547229290008545,-0.19437278807163239
-1.4546918869018555,3.2285687923431396,-0.2013382762670517
-1.4093866348266602,3.188814640045166,-0.20115609467029572
-1.3827874660491943,3.191753625869751,-0.20365670323371887
-1.325205683708191,3.1186869144439697,-0.2011563777923584
-1.2958991527557373,3.1096911430358887,-0.2027111053466797
-1.2530219554901123,3.0681588649749756,-0.2020186185836792
-1.219313621520996,3.047973155975342,-0.20264792442321777
-1.1930710077285767,3.045614242553711,-0.2044474184513092
-1.142431616783142,2.9772777557373047,-0.20171596109867096
-1.1076592206954956,2.9486234188079834,-0.20155656337738037
-1.0756945610046387,2.9270784854888916,-0.201786607503891
-1.0521659851074219,2.927182674407959,-0.20348525047302246
-1.0197795629501343,2.9013123512268066,-0.20335422456264496
-0.9868813157081604,2.871335506439209,-0.20286931097507477
-0.9564576745033264,2.848602771759033,-0.20273208618164062
-0.9252169728279114,2.8218748569488525,-0.2022867649793625
-0.893551766872406,2.791033983230591,-0.2014961689710617
-0.8760421872138977,2.8046085834503174,-0.20392653346061707
-0.8369438052177429,2.747215747833252,-0.20107537508010864
-0.8151294589042664,2.7455151081085205,-0.20221221446990967
-0.7848551273345947,2.7136614322662354,-0.20110918581485748
-0.7606829404830933,2.7001821994781494,-0.20133072137832642
-0.7336230874061584,2.6752336025238037,-0.20068611204624176
-0.7083441019058228,2.6577422618865967,-0.20045942068099976
-0.6768169403076172,2.6135544776916504,-0.19816789031028748
-0.6565521359443665,2.6105799674987793,-0.19898010790348053
-0.6365134716033936,2.6074142456054688,-0.19977286458015442
-0.6083953380584717,2.5700020790100098,-0.1979011595249176
-0.5907601118087769,2.5780153274536133,-0.1994158923625946
-0.5699728727340698,2.5706300735473633,-0.19973227381706238
-0.5438408851623535,2.536372184753418,-0.19794191420078278
-0.5293394923210144,2.5552597045898438,-0.20029772818088531
-0.5007641315460205,2.5053460597991943,-0.19718849658966064
-0.48130810260772705,2.501145601272583,-0.19758981466293335
-0.4629662036895752,2.5005671977996826,-0.198270782828331
-0.4441869556903839,2.495983600616455,-0.19863173365592957
-0.42022809386253357,2.460554599761963,-0.19653502106666565
-0.4042488932609558,2.4710536003112793,-0.19800929725170135
-0.3805560767650604,2.4353435039520264,-0.1957237273454666
-0.36172381043434143,2.4263389110565186,-0.19557197391986847
-0.343750536441803,2.42102313041687,-0.19571687281131744
-0.3248068690299988,2.407860279083252,-0.195232093334198
-0.30105942487716675,2.355947971343994,-0.19148534536361694
-0.2845437228679657,2.35795259475708,-0.19206646084785461
-0.2712600827217102,2.390819549560547,-0.19518354535102844
-0.25213322043418884,2.3693737983703613,-0.19386795163154602
-0.23641908168792725,2.3787710666656494,-0.19508203864097595
-0.21908444166183472,2.372573137283325,-0.19490177929401398
-0.20182201266288757,2.366255760192871,-0.1946725845336914
-0.1856042444705963,2.375359058380127,-0.19572652876377106
-0.1660497933626175,2.3338420391082764,-0.1926078051328659
-0.14930492639541626,2.3271381855010986,-0.19236521422863007
-0.13352839648723602,2.3358731269836426,-0.19327989220619202
-0.11645238846540451,2.321176528930664,-0.1922207474708557
-0.09964027255773544,2.3141465187072754,-0.19180725514888763
-0.0838184505701065,2.3225457668304443,-0.19267866015434265
-0.06699805706739426,2.299706220626831,-0.19096629321575165
-0.05132189393043518,2.31567645072937,-0.19235944747924805
-0.03506435453891754,2.3081881999969482,-0.1917683184146881
-0.018525268882513046,2.285017728805542,-0.18988382816314697
-0.002649569185450673,2.292872667312622,-0.19058576226234436
0.01317910011857748,2.2772600650787354,-0.18934598565101624
0.029201408848166466,2.2926886081695557,-0.1905779391527176
0.044976647943258286,2.2846555709838867,-0.1898212730884552
0.06126364320516586,2.29986310005188,-0.19100448489189148
0.07662506401538849,2.272146224975586,-0.1886311024427414
0.09258803725242615,2.2754569053649902,-0.18884478509426117
0.10839089751243591,2.27477765083313,-0.18861885368824005
0.12417779117822647,2.273993492126465,-0.18834055960178375
0.1404375284910202,2.2808711528778076,-0.1887052059173584
0.15765218436717987,2.2953786849975586,-0.1897042989730835
0.173601433634758,2.294250726699829,-0.18942277133464813
0.1895114630460739,2.2930238246917725,-0.18902717530727386
0.20606321096420288,2.2994508743286133,-0.18921545147895813
0.22123561799526215,2.290255069732666,-0.1881268322467804
0.24066556990146637,2.319648504257202,-0.19020646810531616
0.2559695243835449,2.310213327407837,-0.18911346793174744
0.27379554510116577,2.323897123336792,-0.18980930745601654
0.28793075680732727,2.306544780731201,-0.18792642652988434
0.3038949966430664,2.304546356201172,-0.18730606138706207
0.32018375396728516,2.302391290664673,-0.18667250871658325
0.3373050391674042,2.307866096496582,-0.18667307496070862
0.35087770223617554,2.2901451587677,-0.1846967339515686
0.37034279108047485,2.3108057975769043,-0.18577677011489868
0.38757795095443726,2.3159372806549072,-0.18560795485973358
0.4050208628177643,2.320920705795288,-0.18542806804180145
0.42354729771614075,2.3295514583587646,-0.18553325533866882
0.43744096159935,2.315166711807251,-0.18370498716831207
0.4616088271141052,2.354215383529663,-0.1860814243555069
0.4778621792793274,2.351046562194824,-0.18511416018009186
0.49742233753204346,2.362985610961914,-0.18533547222614288
0.5158148407936096,2.3670904636383057,-0.1849314272403717
0.535499095916748,2.378775119781494,-0.1849956065416336
0.5482927560806274,2.359954357147217,-0.1826801598072052
0.5663972496986389,2.3637747764587402,-0.182123601436615
0.5968820452690125,2.4165828227996826,-0.1853187084197998
0.6159266829490662,2.4199328422546387,-0.18467991054058075
0.6364697217941284,2.430823564529419,-0.18450014293193817
0.6571907997131348,2.441546678543091,-0.18430379033088684
0.679288923740387,2.455810785293579,-0.1843598186969757
0.6963732242584229,2.4511237144470215,-0.1829894334077835
0.7201662659645081,2.4687085151672363,-0.18321606516838074
0.7415027618408203,2.478769063949585,-0.18279904127120972
0.7675589323043823,2.5035617351531982,-0.1834573745727539
0.7873058319091797,2.5057077407836914,-0.1824253499507904
0.8107419610023499,2.5188159942626953,-0.18218517303466797
0.8429648876190186,2.557626724243164,-0.18367832899093628
0.867874026298523,2.574096441268921,-0.18351922929286957
0.8918783664703369,2.5866260528564453,-0.18305885791778564
0.9176580905914307,2.6025309562683105,-0.18280452489852905
0.9436620473861694,2.6182172298431396,-0.18250881135463715
0.9695074558258057,2.6338303089141846,-0.18207179009914398
1.0000293254852295,2.6600465774536133,-0.1823183000087738
1.0296440124511719,2.6822965145111084,-0.18225818872451782
