X,Y,Z
1.5065480470657349,4.819350719451904,0.30585014820098877
1.4788073301315308,4.852272987365723,0.30922016501426697
1.4295194149017334,4.814047813415527,0.30805039405822754
1.4091517925262451,4.872710704803467,0.3130914270877838
1.3851697444915771,4.919974327087402,0.317426860332489
1.340626835823059,4.891762733459473,0.31688448786735535
1.282847285270691,4.814382553100586,0.31298431754112244
1.2542920112609863,4.8459601402282715,0.3160962164402008
1.2301005125045776,4.896276950836182,0.3204607367515564
1.197041630744934,4.912380695343018,0.3226102888584137
1.1628235578536987,4.920486927032471,0.32422709465026855
1.1335103511810303,4.951217174530029,0.3272840976715088
1.1032851934432983,4.981906414031982,0.33018064498901367
1.0719131231307983,5.008591175079346,0.33283472061157227
1.0390355587005615,5.03134298324585,0.33526039123535156
1.0024996995925903,5.030710220336914,0.33611592650413513
0.9762659668922424,5.083412170410156,0.3405594527721405
2.12445068359375,11.498687744140625,0.7720001935958862
0.9172709584236145,5.169464111328125,0.34776103496551514
1.9076493978500366,11.220130920410156,0.7563668489456177
1.800399899482727,11.056062698364258,0.7468347549438477
1.6994596719741821,10.91411304473877,0.7387804985046387
1.6079120635986328,10.821444511413574,0.7340003848075867
1.49990713596344,10.60856819152832,0.720587968826294
1.4087496995925903,10.506911277770996,0.7147514820098877
1.3150933980941772,10.361800193786621,0.7059478759765625
1.2341142892837524,10.297065734863281,0.7026190161705017
1.1415345668792725,10.119391441345215,0.6915881633758545
1.0654690265655518,10.076639175415039,0.6895859241485596
0.9893475770950317,10.029498100280762,0.6869778037071228
0.3928394913673401,4.296252250671387,0.2945587635040283
0.36042019724845886,4.271684169769287,0.2931654751300812
0.33068516850471497,4.274056911468506,0.2936314344406128
0.301481693983078,4.283997535705566,0.29463207721710205
0.27624228596687317,4.3598713874816895,0.30005142092704773
0.2467106282711029,4.388948440551758,0.30217117071151733
0.21497881412506104,4.371091365814209,0.3010729253292084
0.18216487765312195,4.317959308624268,0.29755666851997375
0.14776453375816345,4.194477081298828,0.28919997811317444
0.11890096217393875,4.2070746421813965,0.29023581743240356
0.0909140333533287,4.293521404266357,0.2962185740470886
0.06041427701711655,4.255084037780762,0.2935403883457184
0.03160914406180382,4.376204967498779,0.3018835186958313
0.0011908208252862096,4.426978588104248,0.30538833141326904
-0.028689706698060036,4.298282146453857,0.29652681946754456
-0.055838461965322495,4.060276985168457,0.2801372706890106
-0.08383192867040634,4.052011966705322,0.27942124009132385
-0.11347205191850662,4.105884075164795,0.28297364711761475
-0.135512575507164,3.9180660247802734,0.2698872685432434
-0.16578751802444458,3.9910237789154053,0.2747812271118164
-0.19859221577644348,4.094887733459473,0.2818107306957245
-0.19681218266487122,3.5408661365509033,0.24358795583248138
-0.22082450985908508,3.531665086746216,0.24269388616085052
-0.2519734501838684,3.6272735595703125,0.2490057796239853
-0.2969247102737427,3.8858213424682617,0.2664903700351715
-0.319067120552063,3.8254358768463135,0.26209983229637146
-0.33979088068008423,3.753247022628784,0.25691744685173035
-0.3507084846496582,3.595672130584717,0.2458968460559845
-0.37142330408096313,3.5544469356536865,0.2426944375038147
-0.412742018699646,3.7029004096984863,0.25244301557540894
-0.43824511766433716,3.7000081539154053,0.2518698275089264
-0.46249422430992126,3.6813833713531494,0.25022926926612854
-0.4819558560848236,3.631751775741577,0.24650569260120392
-0.5065852999687195,3.624505043029785,0.24561874568462372
-0.5269127488136292,3.5901453495025635,0.24278144538402557
-0.5491980314254761,3.5710813999176025,0.24099579453468323
-0.5705034136772156,3.5441057682037354,0.23868317902088165
-0.5880511403083801,3.4978179931640625,0.23509393632411957
-0.5914897918701172,3.3746793270111084,0.22637292742729187
-1.1595149040222168,6.357700824737549,0.4254782199859619
-1.2044150829315186,6.35739278793335,0.42433464527130127
-1.2621444463729858,6.421788692474365,0.42751574516296387
-1.3157273530960083,6.4549055099487305,0.42858627438545227
-1.3669121265411377,6.476248741149902,0.4288959205150604
-0.7815994024276733,3.5799224376678467,0.23648051917552948
-0.7999811172485352,3.547964334487915,0.23363801836967468
-1.2392135858535767,5.327064514160156,0.3496755361557007
-1.2706061601638794,5.295723915100098,0.346498966217041
-0.689672589302063,2.7891507148742676,0.1819104701280594
-0.7013764381408691,2.7541165351867676,0.1790536642074585
-0.7263285517692566,2.7718889713287354,0.1796032190322876
-0.7360179424285889,2.7330751419067383,0.1764068305492401
-0.7621534466743469,2.754295587539673,0.17708422243595123
-0.7852641344070435,2.7640769481658936,0.17702984809875488
-0.8044902086257935,2.7586090564727783,0.17599232494831085
-0.9823479056358337,3.2834458351135254,0.20866551995277405
-1.004650354385376,3.2767770290374756,0.20730862021446228
-1.0143393278121948,3.2289488315582275,0.2033281922340393
-1.067178726196289,3.3186190128326416,0.2080174833536148
-1.0816848278045654,3.2852842807769775,0.20495906472206116
-1.113242268562317,3.3036322593688965,0.20513369143009186
-1.1192677021026611,3.248114824295044,0.20066601037979126
-1.1514804363250732,3.270024538040161,0.2009309083223343
-2.043959140777588,5.680355072021484,0.3471231162548065
-2.0710604190826416,5.633318901062012,0.34233829379081726
-2.09932541847229,5.589699745178223,0.3377818167209625
-2.1292757987976074,5.553476810455322,0.33361852169036865
-1.3908164501190186,3.556011915206909,0.2122717648744583
-1.4208803176879883,3.5610244274139404,0.21119457483291626
-1.4424370527267456,3.5440425872802734,0.20880982279777527
-1.4700485467910767,3.541242837905884,0.20725707709789276
-1.5808918476104736,3.7359793186187744,0.2171294093132019
-1.5918728113174438,3.6932430267333984,0.21305878460407257
-1.607505440711975,3.661046266555786,0.20959998667240143
-1.623247504234314,3.628596305847168,0.20612472295761108
-1.6420286893844604,3.6031229496002197,0.20306019484996796
-1.6548550128936768,3.567298650741577,0.19935594499111176
-1.675200343132019,3.5492937564849854,0.1966269314289093
-1.6892257928848267,3.5168206691741943,0.19307491183280945
-1.7068281173706055,3.4910807609558105,0.18988142907619476
-1.7344677448272705,3.486281394958496,0.1878289133310318
-1.7574259042739868,3.4748992919921875,0.18532082438468933
-1.7839020490646362,3.470292329788208,0.1831762045621872
-1.8112868070602417,3.46502423286438,0.1809229552745819
-2.471562623977661,4.647770404815674,0.23993360996246338
-2.4746899604797363,4.579867362976074,0.23365797102451324
-2.5084617137908936,4.570547103881836,0.23037779331207275
-1.2012416124343872,2.1541240215301514,0.10721093416213989
-2.540151596069336,4.481750965118408,0.22012172639369965
-2.5783398151397705,4.478105068206787,0.21685734391212463
-2.595609664916992,4.441201686859131,0.21200743317604065
-2.6215925216674805,4.41702938079834,0.2076738178730011
-1.2415201663970947,2.0590264797210693,0.09527146071195602
-1.2448792457580566,2.03424072265625,0.09255750477313995
-2.059366226196289,3.31599497795105,0.14824485778808594
-2.073746681213379,3.2887258529663086,0.1442943960428238
-2.1004438400268555,3.2811617851257324,0.14116881787776947
-2.6677162647247314,4.10929012298584,0.17320775985717773
-2.776350975036621,4.215689659118652,0.1738763004541397
-2.764883279800415,4.134474277496338,0.1664818674325943
-2.762906312942505,4.074806213378906,0.1600762903690338
-2.7891123294830322,4.057099342346191,0.15529488027095795
-2.8217763900756836,4.044170379638672,0.15036453306674957
-2.8385977745056152,4.013456344604492,0.14473912119865417
-2.8421926498413086,3.9631500244140625,0.1382313072681427
-2.8971784114837646,3.9814281463623047,0.1338219940662384
-2.8893439769744873,3.919590950012207,0.12669232487678528
-2.996769666671753,4.1945881843566895,-0.1082482859492302
-2.4363255500793457,3.46199631690979,-0.09397634118795395
-2.7852954864501953,4.023114204406738,-0.11452873051166534
-2.7284176349639893,4.000446319580078,-0.11866284161806107
-2.73569655418396,4.075512886047363,-0.1256726235151291
-2.210319757461548,3.3461813926696777,-0.1069829910993576
-2.1651721000671387,3.3289520740509033,-0.11002089828252792
-1.3047270774841309,2.039198875427246,-0.06951627135276794
-1.262715220451355,2.005662441253662,-0.07038483768701553
-1.2754312753677368,2.0574874877929688,-0.07415613532066345
-1.2682806253433228,2.0801339149475098,-0.07690462470054626
-2.011569023132324,3.355191469192505,-0.1271408647298813
-2.7460927963256836,4.653386116027832,-0.18031641840934753
-2.6769566535949707,4.61224365234375,-0.18259213864803314
-2.666010856628418,4.672407627105713,-0.18884094059467316
-1.2038230895996094,2.144578456878662,-0.08835320174694061
-2.6389427185058594,4.781235694885254,-0.20071732997894287
-2.6241817474365234,4.838070869445801,-0.20673024654388428
-1.8289438486099243,3.4306986331939697,-0.1491074115037918
-1.797769546508789,3.429388999938965,-0.15146160125732422
-1.762460708618164,3.4212162494659424,-0.15344783663749695
-1.7246968746185303,3.409686803817749,-0.15526503324508667
-1.7073568105697632,3.4357168674468994,-0.15869618952274323
-1.6884957551956177,3.4579319953918457,-0.16193154454231262
-2.427819013595581,5.064055442810059,-0.24027223885059357
-2.4075024127960205,5.1167216300964355,-0.2458883821964264
-1.698636531829834,3.677379608154297,-0.17889268696308136
-1.6660619974136353,3.674985885620117,-0.18094724416732788
-1.6380873918533325,3.683140277862549,-0.18339736759662628
-1.6082772016525269,3.6876115798950195,-0.1856391876935959
-1.5897510051727295,3.716736316680908,-0.18909794092178345
-1.5788562297821045,3.7635979652404785,-0.1934656947851181
-1.591629147529602,3.87223219871521,-0.20104849338531494
-1.566569209098816,3.890721321105957,-0.2039274424314499
-1.545949101448059,3.9198079109191895,-0.20736221969127655
-1.5242239236831665,3.9449126720428467,-0.21056918799877167
-1.5020488500595093,3.9699697494506836,-0.21375522017478943
-1.4676530361175537,3.966052293777466,-0.21530410647392273
-1.4245702028274536,3.9359993934631348,-0.21539266407489777
-1.3840683698654175,3.9089436531066895,-0.21557535231113434
-1.3427982330322266,3.87781023979187,-0.21550698578357697
-1.3052517175674438,3.857564926147461,-0.21590028703212738
-1.2673887014389038,3.8372058868408203,-0.21627259254455566
-1.2091164588928223,3.749434471130371,-0.21276554465293884
-0.9733549952507019,3.091684341430664,-0.17661240696907043
-0.9631615281105042,3.135612964630127,-0.18028677999973297
-0.9061682820320129,3.0264687538146973,-0.17503762245178223
-0.7961474061012268,2.7294836044311523,-0.15879201889038086
-0.7734623551368713,2.723763942718506,-0.15939442813396454
-0.756523609161377,2.7365386486053467,-0.161065012216568
-0.7352003455162048,2.7341997623443604,-0.16178368031978607
-0.7137951254844666,2.7317399978637695,-0.16243350505828857
-0.7049064040184021,2.77825927734375,-0.1660148799419403
-1.4897462129592896,6.050912380218506,-0.36335331201553345
-1.475698471069336,6.17856502532959,-0.37281695008277893
-1.4593673944473267,6.306450366973877,-0.38216346502304077
-1.4207128286361694,6.343113899230957,-0.3859565556049347
-1.3718173503875732,6.3337883949279785,-0.38696858286857605
-1.3269530534744263,6.34320592880249,-0.389146089553833
-1.2688947916030884,6.283357620239258,-0.3870488405227661
-1.2164329290390015,6.2499213218688965,-0.386292427778244
-0.9188995361328125,4.905414581298828,-0.3041902482509613
-0.8712320327758789,4.838764667510986,-0.3010519742965698
-0.823054850101471,4.764037132263184,-0.29739922285079956
-0.7847906351089478,4.73879337310791,-0.29681089520454407
-0.7435469627380371,4.694061756134033,-0.29477211833000183
-0.7047262191772461,4.660552978515625,-0.2934128940105438
-0.6709006428718567,4.657597541809082,-0.2939833104610443
-0.6389375329017639,4.669892311096191,-0.29553860425949097
-0.6073693633079529,4.681899070739746,-0.2970801591873169
-0.5773618221282959,4.7092084884643555,-0.2993850111961365
-0.5451399087905884,4.720844745635986,-0.3006846606731415
-0.5141690373420715,4.7438740730285645,-0.3027259111404419
-0.4796179533004761,4.731767177581787,-0.302535742521286
-0.5437744855880737,5.77125358581543,-0.369737833738327
-0.42050790786743164,4.823390483856201,-0.3094133138656616
-0.3914511203765869,4.884464263916016,-0.3137050271034241
-0.2552528381347656,3.491302251815796,-0.22450701892375946
-0.23151148855686188,3.5007450580596924,-0.22540174424648285
-0.20767199993133545,3.517834424972534,-0.2268071174621582
-0.2966286540031433,5.699202060699463,-0.3677143156528473
-0.25582894682884216,5.677745819091797,-0.36652302742004395
-0.21549122035503387,5.6598944664001465,-0.365580677986145
-0.17539481818675995,5.637858867645264,-0.3643835783004761
-0.13421185314655304,5.58437967300415,-0.36117270588874817
-0.09505605697631836,5.565681457519531,-0.3600403964519501
-0.05621363967657089,5.558413028717041,-0.35953930020332336
-0.014105211943387985,4.46720552444458,-0.2889450788497925
0.01678849756717682,4.4204182624816895,-0.28592202067375183
0.059496454894542694,5.468716621398926,-0.35374975204467773
0.09728793054819107,5.4525885581970215,-0.35260528326034546
0.1008758395910263,4.0683913230896,-0.2629026770591736
0.17075861990451813,5.376720428466797,-0.34721317887306213
0.20465077459812164,5.28583288192749,-0.3411298394203186
0.19495335221290588,4.267940521240234,-0.27527886629104614
0.22737181186676025,4.30929708480835,-0.2777188718318939
0.25279566645622253,4.2337164878845215,-0.2724703848361969
0.2815917432308197,4.22411584854126,-0.2714885473251343
0.31034231185913086,4.2143144607543945,-0.27050718665122986
0.338381290435791,4.196543216705322,-0.26902881264686584
0.37278032302856445,4.24845027923584,-0.2719823122024536
0.47603893280029297,5.02589750289917,-0.3211091458797455
0.5092071294784546,5.007025241851807,-0.3192755877971649
0.5489217638969421,5.049941062927246,-0.32139265537261963
0.325390100479126,1.509474754333496,-0.09181270003318787
1.0500496625900269,4.711921691894531,-0.28545430302619934
1.0862935781478882,4.7198004722595215,-0.28479519486427307
1.1101536750793457,4.674283981323242,-0.28068897128105164
1.140318512916565,4.65909481048584,-0.27844303846359253
1.16853928565979,4.6361188888549805,-0.2757464051246643
1.196850299835205,4.612884521484375,-0.27304160594940186
1.2269093990325928,4.597015380859375,-0.27077919244766235
1.25778067111969,4.584740161895752,-0.26853662729263306
1.2869495153427124,4.56865119934082,-0.2661125957965851
1.3140939474105835,4.544795989990234,-0.2632416784763336
1.3412342071533203,4.5207061767578125,-0.2603670358657837
1.3702497482299805,4.503960609436035,-0.25788769125938416
1.3944613933563232,4.472141742706299,-0.25439685583114624
1.4249095916748047,4.4626569747924805,-0.25222429633140564
1.4508802890777588,4.437993049621582,-0.24918779730796814
1.478031873703003,4.416810035705566,-0.2463567703962326
1.5058300495147705,4.3992919921875,-0.24366194009780884
1.2586562633514404,3.5974466800689697,-0.19778449833393097
1.2835161685943604,3.5887601375579834,-0.19581764936447144
1.3031294345855713,3.5651824474334717,-0.19304360449314117
1.602257251739502,4.2907395362854,-0.23054224252700806
1.6313493251800537,4.279897212982178,-0.22804538905620575
1.660290002822876,4.268886566162109,-0.2255365550518036
1.6886378526687622,4.253691673278809,-0.22275757789611816
1.7196521759033203,4.24559211730957,-0.22036975622177124
1.7413358688354492,4.215780258178711,-0.216816246509552
1.7697157859802246,4.204083442687988,-0.21413791179656982
1.7918955087661743,4.177835941314697,-0.21073298156261444
1.8214528560638428,4.165175437927246,-0.207927405834198
1.847152829170227,4.1454362869262695,-0.20481419563293457
1.8749217987060547,4.133091449737549,-0.20196951925754547
1.902637243270874,4.120544910430908,-0.19912169873714447
1.9243674278259277,4.093338489532471,-0.19552254676818848
1.9532865285873413,4.079760551452637,-0.19253192842006683
1.977250337600708,4.059660911560059,-0.18919971585273743
1.9973663091659546,4.03252649307251,-0.18554779887199402
2.028493881225586,4.025842666625977,-0.18278245627880096
2.0493569374084473,3.9978675842285156,-0.1790263056755066
2.0743699073791504,3.980686664581299,-0.17570048570632935
2.1012721061706543,3.9666941165924072,-0.17245927453041077
2.1247427463531494,3.945449113845825,-0.1688794195652008
2.129661798477173,3.889615535736084,-0.1638215035200119
2.126981019973755,3.824354410171509,-0.15838627517223358
2.1445443630218506,3.7967443466186523,-0.15455509722232819
2.1712656021118164,3.7816669940948486,-0.15107211470603943
2.1972696781158447,3.766754150390625,-0.1476217806339264
2.229997158050537,3.7657670974731445,-0.14466866850852966
2.2471120357513428,3.73750376701355,-0.140626922249794
2.2730531692504883,3.7219204902648926,-0.13696414232254028
2.298143148422241,3.7066173553466797,-0.13323093950748444
2.3263864517211914,3.6983158588409424,-0.12979328632354736
2.3477842807769775,3.6756420135498047,-0.12565110623836517
2.3683438301086426,3.6532576084136963,-0.12150603532791138
2.3876538276672363,3.6314520835876465,-0.11738865822553635
2.421530246734619,3.6278789043426514,-0.11360480636358261
2.445941925048828,3.611595392227173,-0.1094120666384697
2.4557385444641113,3.576679229736328,-0.10467243194580078
2.4846017360687256,3.566340923309326,-0.1004156619310379
2.517136335372925,3.562721014022827,-0.09626059979200363
2.5356316566467285,3.540100336074829,-0.09147512167692184
2.5877885818481445,3.5603840351104736,-0.08744801580905914
2.204763889312744,2.993870735168457,-0.06967464834451675
2.677429676055908,3.7789812088012695,0.11672427505254745
2.6590614318847656,3.8108346462249756,0.12206628173589706
2.6294186115264893,3.831186532974243,0.12703348696231842
2.5887651443481445,3.8303747177124023,0.13095998764038086
2.5689804553985596,3.862290143966675,0.13584735989570618
2.543782949447632,3.888110876083374,0.1404811143875122
2.512346029281616,3.899064540863037,0.14427846670150757
2.5003082752227783,3.9436769485473633,0.14928700029850006
2.4966371059417725,4.005776405334473,0.15504617989063263
2.468564748764038,4.022990703582764,0.15879316627979279
2.4477055072784424,4.053820610046387,0.16304869949817657
2.4550552368164062,4.135720252990723,0.16935421526432037
2.4172799587249756,4.1396918296813965,0.17239663004875183
2.3994975090026855,4.17690896987915,0.17679086327552795
2.3686296939849854,4.1943440437316895,0.18023350834846497
2.293762683868408,4.133219242095947,0.18024460971355438
2.2421841621398926,4.108001708984375,0.1816110908985138
2.2281320095062256,4.150975227355957,0.18596740067005157
2.1895110607147217,4.153695106506348,0.18845434486865997
2.1658451557159424,4.18353271484375,0.19214332103729248
2.140186309814453,4.205345153808594,0.19534525275230408
2.110839366912842,4.220017433166504,0.19822406768798828
2.0867111682891846,4.249267101287842,0.20166708528995514
2.0515432357788086,4.2575602531433105,0.20416665077209473
2.031522750854492,4.292940139770508,0.2078632116317749
1.9982467889785767,4.299795150756836,0.21017581224441528
1.9735908508300781,4.328204154968262,0.21344351768493652
1.9785135984420776,4.424332141876221,0.22006459534168243
1.9671144485473633,4.484734058380127,0.22493697702884674
1.922932505607605,4.469764709472656,0.2260269671678543
1.8943895101547241,4.490283489227295,0.22884337604045868
1.8765978813171387,4.539877414703369,0.23304644227027893
1.8493983745574951,4.567745685577393,0.23616522550582886
1.8273286819458008,4.605895519256592,0.23978543281555176
1.7946096658706665,4.6186203956604,0.24211879074573517
1.7644704580307007,4.638452053070068,0.2447056621313095
1.3444093465805054,3.612558603286743,0.1917269080877304
1.3182644844055176,3.6220927238464355,0.193381667137146
1.295620322227478,3.6384525299072266,0.19537115097045898
1.2826581001281738,3.684288501739502,0.19898498058319092
1.5956628322601318,4.6904072761535645,0.254642128944397
1.5618882179260254,4.70166015625,0.2565121352672577
1.5328466892242432,4.727512359619141,0.25919589400291443
1.5163155794143677,4.790055274963379,0.263883501291275
1.4846060276031494,4.808040142059326,0.2661663591861725
1.4718772172927856,4.88930606842041,0.2718577980995178
1.4367921352386475,4.899636745452881,0.2735593020915985
1.4155542850494385,4.958474159240723,0.2779945135116577
1.3891620635986328,4.998233318328857,0.2813652455806732
1.3033636808395386,4.819443225860596,0.27240610122680664
1.2728630304336548,4.84363317489624,0.2748357057571411
1.2421125173568726,4.8676323890686035,0.27711164951324463
1.2101465463638306,4.887651443481445,0.279180109500885
1.1792888641357422,4.911153793334961,0.2814554274082184
1.1469078063964844,4.926745891571045,0.2832815945148468
1.120566964149475,4.972708702087402,0.2868947982788086
1.0869060754776,4.988088607788086,0.28853508830070496
1.0555156469345093,5.014685153961182,0.2908337712287903
1.0199215412139893,5.021975994110107,0.29203036427497864
0.9826634526252747,5.017409324645996,0.292536199092865
2.1787264347076416,11.558303833007812,0.6757358908653259
2.0705347061157227,11.423494338989258,0.6694263815879822
1.9668669700622559,11.307114601135254,0.66391521692276
1.8572590351104736,11.14368724822998,0.6556388139724731
1.7586995363235474,11.02924919128418,0.6502298712730408
1.651216983795166,10.848543167114258,0.6409186720848083
1.5544726848602295,10.712995529174805,0.6342402696609497
1.4614211320877075,10.596104621887207,0.628239095211029
1.3653980493545532,10.4436674118042,0.6200618147850037
1.2783981561660767,10.344581604003906,0.6150590181350708
1.188718557357788,10.202094078063965,0.6074734926223755
1.1005041599273682,10.062854766845703,0.6000975966453552
1.027321696281433,10.039155006408691,0.5995408892631531
0.4092785120010376,4.29713773727417,0.2568392753601074
0.37846556305885315,4.29210901260376,0.2567635774612427
0.3455793559551239,4.259650707244873,0.25505685806274414
0.31594711542129517,4.269747257232666,0.25591257214546204
0.28670772910118103,4.279603481292725,0.2567630410194397
0.2631641924381256,4.386570930480957,0.26338064670562744
0.2295367419719696,4.33378267288208,0.2602987289428711
0.19849535822868347,4.319690704345703,0.2595521807670593
0.16320516169071198,4.204093933105469,0.2527179419994354
0.1363619565963745,4.2791619300842285,0.2573537528514862
0.10416797548532486,4.182546615600586,0.25167590379714966
0.07930842787027359,4.420979022979736,0.26605603098869324
0.046189941465854645,4.210881233215332,0.2533748745918274
0.01660391502082348,4.281288146972656,0.2575855553150177
-0.013570902869105339,4.4060750007629395,0.2650802731513977
-0.042190007865428925,4.207025527954102,0.25310468673706055
-0.06870575249195099,4.046787738800049,0.24347585439682007
-0.09855487197637558,4.120286464691162,0.24777504801750183
-0.12789295613765717,4.142899513244629,0.24897535145282745
-0.15284161269664764,4.028909206390381,0.2419791966676712
-0.17889834940433502,3.9849143028259277,0.23920650780200958
-0.18173544108867645,3.504622220993042,0.21027104556560516
-0.20931538939476013,3.557779312133789,0.213364377617836
-0.23083147406578064,3.5095767974853516,0.210236057639122
-0.278483122587204,3.822895050048828,0.22873826324939728
-0.31144359707832336,3.9025251865386963,0.2332463264465332
-0.33244991302490234,3.830366849899292,0.22869180142879486
-0.3459530472755432,3.6882221698760986,0.21998228132724762
-0.36412033438682556,3.6120386123657227,0.2152126133441925
-0.38443320989608765,3.5629029273986816,0.21192699670791626
-0.4272027611732483,3.7190346717834473,0.22085727751255035
-0.4518581032752991,3.708294153213501,0.21987366676330566
-0.4736534059047699,3.6741526126861572,0.21751317381858826
-0.49394482374191284,3.632159948348999,0.21470466256141663
-0.5178620219230652,3.617043972015381,0.2134360373020172
-0.5403783321380615,3.598015785217285,0.21185199916362762
-0.5614464282989502,3.5711443424224854,0.20982104539871216
-0.5689651966094971,3.463331460952759,0.20305877923965454
-0.5831319093704224,3.401677370071411,0.1990288496017456
-1.1250654458999634,6.299921989440918,0.36784952878952026
-1.1797747611999512,6.349495887756348,0.3698084354400635
-1.231202244758606,6.383505821228027,0.3707813322544098
-1.287034511566162,6.436216354370117,0.37284019589424133
-1.3448766469955444,6.492189407348633,0.3750760555267334
-1.3883984088897705,6.475133419036865,0.37309345602989197
-0.7863428592681885,3.5448403358459473,0.20370130240917206
-1.2214162349700928,5.333887577056885,0.30548417568206787
-1.2559795379638672,5.317925453186035,0.3035608232021332
-1.279313564300537,5.256263732910156,0.2990543842315674
-0.6972641944885254,2.780672311782837,0.15768033266067505
-0.7149800062179565,2.768159866333008,0.15644341707229614
-0.7269471883773804,2.7368483543395996,0.15411192178726196
-0.7506409287452698,2.750715970993042,0.15427671372890472
-0.7713735103607178,2.753127098083496,0.15380097925662994
-0.8054189085960388,2.8002798557281494,0.1558084636926651
-0.9290847778320312,3.1462135314941406,0.17433810234069824
-0.9655801653862,3.1882872581481934,0.175947368144989
-0.9894219636917114,3.189204454421997,0.17516401410102844
-1.0251593589782715,3.227114677429199,0.17640580236911774
-1.0748422145843506,3.3054556846618652,0.1798274964094162
-1.0883455276489258,3.2682278156280518,0.176922008395195
-1.1185827255249023,3.2828097343444824,0.17684775590896606
-1.133055329322815,3.2531397342681885,0.17429287731647491
-1.160172700881958,3.2602102756500244,0.17369557917118073
-1.4966588020324707,4.117732524871826,0.21815183758735657
-1.5252583026885986,4.107321262359619,0.21633891761302948
-1.5432144403457642,4.067338466644287,0.21296603977680206
-1.5030903816223145,3.8822522163391113,0.2019910216331482
-1.4086716175079346,3.5673577785491943,0.18439920246601105
-1.4515581130981445,3.6049509048461914,0.18511900305747986
-1.470699429512024,3.5804085731506348,0.18260125815868378
-1.557852864265442,3.7175445556640625,0.18826930224895477
-1.5843721628189087,3.710660457611084,0.18652018904685974
-1.5981894731521606,3.675060510635376,0.18332266807556152
-1.613477349281311,3.6428792476654053,0.18030478060245514
-1.632401704788208,3.6174192428588867,0.17759642004966736
-1.648159146308899,3.5846121311187744,0.17451491951942444
-1.6670223474502563,3.5630576610565186,0.17193078994750977
-1.677285075187683,3.523791551589966,0.16851630806922913
-1.6911197900772095,3.4912729263305664,0.16541321575641632
-1.708466649055481,3.4655208587646484,0.16262631118297577
-1.7392725944519043,3.4677393436431885,0.16107650101184845
-1.765666127204895,3.4632413387298584,0.1591958999633789
-1.788736343383789,3.4514846801757812,0.1569666862487793
-2.4369993209838867,4.623377323150635,0.20789407193660736
-2.468749523162842,4.606643199920654,0.2047441303730011
-2.489645004272461,4.5733160972595215,0.20078173279762268
-1.1901931762695312,2.1519644260406494,0.0932847410440445
-1.1745340824127197,2.0892553329467773,0.0893571600317955
-2.5714259147644043,4.501318454742432,0.18988846242427826
-2.5713343620300293,4.433952331542969,0.1843598634004593
-2.606205463409424,4.427281379699707,0.18137942254543304
-2.627462387084961,4.392118453979492,0.1770201474428177
-1.264774203300476,2.082052230834961,0.0825328454375267
-2.507256269454956,4.0680341720581055,0.158481165766716
-2.0704336166381836,3.3099942207336426,0.12661689519882202
-2.068331241607666,3.2560503482818604,0.12212999165058136
-2.123854398727417,3.2947981357574463,0.12103554606437683
-1.3416575193405151,2.052395820617676,0.07381894439458847
-2.737572193145752,4.125304698944092,0.14493274688720703
-2.762935161590576,4.103798866271973,0.14067935943603516
-2.289271593093872,3.3541886806488037,0.11207076907157898
-2.794933319091797,4.0349507331848145,0.13097140192985535
-2.812814235687256,4.003575801849365,0.12606807053089142
-2.82424259185791,3.9669339656829834,0.12100695073604584
-2.7370805740356445,3.7893130779266357,0.11146383732557297
-2.74996280670166,3.7559382915496826,0.10628612339496613
-2.8087542057037354,3.7855119705200195,0.10271981358528137
-2.467438220977783,3.4786152839660645,-0.08088494837284088
-2.414262056350708,3.4586215019226074,-0.08442391455173492
-2.771425724029541,4.03299617767334,-0.10284668952226639
-2.7727298736572266,4.09815788269043,-0.10878072679042816
-2.2049062252044678,3.3127310276031494,-0.09127680957317352
-2.177093744277954,3.3216421604156494,-0.09462583065032959
-2.1614296436309814,3.3503596782684326,-0.09848669171333313
-1.305527925491333,2.0574545860290527,-0.0623205304145813
-1.2701424360275269,2.033527135848999,-0.06330368667840958
-1.2677533626556396,2.0625081062316895,-0.06587459146976471
-1.2341856956481934,2.041750431060791,-0.06683772057294846
-2.0042574405670166,3.369173049926758,-0.11282306909561157
-2.690516710281372,4.596226692199707,-0.1572830229997635
-2.6674935817718506,4.636532783508301,-0.1620480716228485
-2.666677951812744,4.713277816772461,-0.16800516843795776
-2.6679539680480957,4.793011665344238,-0.17404811084270477
-2.629376173019409,4.8052449226379395,-0.17759840190410614
-2.6014010906219482,4.838044166564941,-0.18190017342567444
-1.8242695331573486,3.4515838623046875,-0.1319073736667633
-1.7820205688476562,3.429551362991333,-0.13311700522899628
-1.7444636821746826,3.418057680130005,-0.13464543223381042
-1.7195324897766113,3.430570125579834,-0.1371033936738968
-1.6991239786148071,3.4493348598480225,-0.13973097503185272
-2.4461827278137207,5.056657791137695,-0.2076035887002945
-2.419490098953247,5.095284938812256,-0.21183069050312042
-1.7149055004119873,3.6795411109924316,-0.1548619419336319
-1.6827129125595093,3.677112579345703,-0.1565830111503601
-1.6488100290298462,3.67095685005188,-0.1581152230501175
-1.625298261642456,3.689862012863159,-0.16065749526023865
-1.5950220823287964,3.6944499015808105,-0.16260983049869537
-1.5768580436706543,3.723346471786499,-0.16555255651474
-1.5972201824188232,3.8459091186523438,-0.1727229505777359
-1.5724016427993774,3.8644556999206543,-0.17517158389091492
-1.5473980903625488,3.8828423023223877,-0.17762812972068787
-1.5323537588119507,3.9264349937438965,-0.18125134706497192
-1.5077159404754639,3.9442219734191895,-0.1836683452129364
-1.4850614070892334,3.9693853855133057,-0.18635110557079315
-1.4565455913543701,3.979844808578491,-0.18831659853458405
-1.4360685348510742,4.012064456939697,-0.19131797552108765
-1.4101465940475464,4.029425144195557,-0.1936263144016266
-1.3843655586242676,4.046512603759766,-0.19588108360767365
-1.3578282594680786,4.06363582611084,-0.1980467289686203
-1.3310832977294922,4.080595970153809,-0.200220987200737
-1.3025329113006592,4.089712142944336,-0.20198898017406464
-0.9690567851066589,3.1187689304351807,-0.15505780279636383
-0.9447968602180481,3.117987632751465,-0.1559511125087738
-0.8187495470046997,2.772815465927124,-0.13947685062885284
-0.7882847785949707,2.7410004138946533,-0.13865934312343597
-0.7638906836509705,2.7275924682617188,-0.13875092566013336
-0.7428227663040161,2.7252652645111084,-0.13940457999706268
-0.7271528244018555,2.7455861568450928,-0.14113879203796387
-0.7144463062286377,2.7770798206329346,-0.1434369832277298
-0.6844322681427002,2.740368604660034,-0.14221172034740448
-1.4529430866241455,5.994293212890625,-0.31253084540367126
-1.4656473398208618,6.235815048217773,-0.3266405463218689
-1.4362705945968628,6.314583778381348,-0.3320785462856293
-1.388168215751648,6.30925989151001,-0.33309993147850037
-1.3422733545303345,6.3111114501953125,-0.33449915051460266
-1.2920938730239868,6.2896246910095215,-0.33465856313705444
-1.2445428371429443,6.27923059463501,-0.3353833854198456
-1.1893097162246704,6.234255313873291,-0.3340420722961426
-1.1361958980560303,6.19252347946167,-0.33285677433013916
-1.0772291421890259,6.111893653869629,-0.32956695556640625
-0.9598830342292786,5.67686128616333,-0.3070852756500244
-0.9377154111862183,5.791162490844727,-0.314248651266098
-0.9355518817901611,6.052087306976318,-0.32920101284980774
-0.6830744743347168,4.634527206420898,-0.25270184874534607
-0.6571139693260193,4.6855010986328125,-0.25610458850860596
-0.6311981678009033,4.740173816680908,-0.2597309350967407
-0.5850223302841187,4.639918327331543,-0.25486335158348083
-0.5524892210960388,4.643868446350098,-0.2555190622806549
-0.519304633140564,4.647659778594971,-0.2561872601509094
-0.4900507926940918,4.682173728942871,-0.25855496525764465
-0.45520246028900146,4.662140846252441,-0.25792139768600464
-0.42703500390052795,4.711767196655273,-0.2611558139324188
-0.47886964678764343,5.729051113128662,-0.3179002106189728
-0.26423245668411255,3.4572582244873047,-0.19205938279628754
-0.24412283301353455,3.5173654556274414,-0.19562678039073944
-0.2200925052165985,3.5267484188079834,-0.19638624787330627
-0.31727248430252075,5.724524974822998,-0.319169282913208
-0.2765578031539917,5.710999965667725,-0.3186013102531433
-0.23437997698783875,5.6738386154174805,-0.31666767597198486
-0.19354072213172913,5.640242576599121,-0.31494447588920593
-0.15391847491264343,5.6258440017700195,-0.31430622935295105
-0.11418739706277847,5.595569610595703,-0.3127947747707367
-0.07511459290981293,5.580624580383301,-0.31199395656585693
-0.03505614399909973,5.499116897583008,-0.3073825240135193
0.0025504406075924635,4.446185111999512,-0.248495951294899
0.0334843248128891,4.446061611175537,-0.24846979975700378
0.0791151225566864,5.463559627532959,-0.3053242564201355
0.11660388857126236,5.439489841461182,-0.30387628078460693
0.11573351174592972,4.077949523925781,-0.22763153910636902
0.18752293288707733,5.289242267608643,-0.2950194180011749
0.22266578674316406,5.2488579750061035,-0.29255974292755127
0.25740110874176025,5.212141513824463,-0.2903216481208801
0.24293605983257294,4.310717582702637,-0.23991985619068146
0.26957181096076965,4.258354663848877,-0.23667305707931519
0.2968466579914093,4.217466354370117,-0.23407654464244843
0.32551348209381104,4.207550525665283,-0.2332189530134201
0.35671770572662354,4.228529453277588,-0.23408359289169312
0.4580853581428528,5.014461994171143,-0.277241587638855
0.4942489564418793,5.026744842529297,-0.2773510217666626
0.507064700126648,4.809849739074707,-0.264841765165329
0.5059060454368591,4.500060558319092,-0.24729590117931366
0.19825130701065063,1.4846296310424805,-0.0810626894235611
0.3140067756175995,1.4806829690933228,-0.07808192074298859
0.32097434997558594,1.4632395505905151,-0.07684656977653503
1.0693422555923462,4.7177886962890625,-0.24676230549812317
1.1003762483596802,4.702706336975098,-0.24497844278812408
1.1290504932403564,4.679932117462158,-0.24268211424350739
1.1572993993759155,4.657028675079346,-0.24034087359905243
1.1858407258987427,4.633817672729492,-0.23798270523548126
1.2120885848999023,4.602899074554443,-0.2352510392665863
1.2440823316574097,4.59443473815918,-0.23368404805660248
1.274495244026184,4.582128047943115,-0.2318030595779419
1.3035808801651,4.565910816192627,-0.229698047041893
1.3287616968154907,4.534344673156738,-0.22681361436843872
1.360268473625183,4.52508020401001,-0.2250637263059616
1.380218267440796,4.478307723999023,-0.22146974503993988
1.41542387008667,4.483767986297607,-0.2203262597322464
1.441078543663025,4.459280967712402,-0.21771104633808136
1.469714641571045,4.441800117492676,-0.2154180407524109
1.494349718093872,4.413071155548096,-0.21260178089141846
1.5146420001983643,4.3732171058654785,-0.20924893021583557
1.2747138738632202,3.6014578342437744,-0.1710439920425415
1.2937800884246826,3.5781381130218506,-0.16866856813430786
1.5807881355285645,4.279381275177002,-0.2001812905073166
1.6207222938537598,4.293727397918701,-0.1992650181055069
1.6472978591918945,4.275337219238281,-0.19679154455661774
1.676139235496521,4.264212608337402,-0.19461385905742645
1.710845708847046,4.267329692840576,-0.1930818110704422
1.7301775217056274,4.230127811431885,-0.18969516456127167
1.7570393085479736,4.210685729980469,-0.18708941340446472
1.7853381633758545,4.198868751525879,-0.18476037681102753
1.8104544878005981,4.179697036743164,-0.1821191906929016
1.839228868484497,4.167218208312988,-0.17973729968070984
1.8585909605026245,4.133056640625,-0.1764203906059265
1.890316367149353,4.1273369789123535,-0.1742386668920517
1.9146251678466797,4.107608318328857,-0.17148368060588837
1.9391944408416748,4.087530612945557,-0.16869761049747467
1.9641635417938232,4.067027568817139,-0.16586758196353912
1.988355278968811,4.046662330627441,-0.1630096435546875
2.019226551055908,4.0401835441589355,-0.16063328087329865
2.0429141521453857,4.019606113433838,-0.15771234035491943
2.0636284351348877,3.9915459156036377,-0.15445399284362793
2.0852980613708496,3.967146635055542,-0.15132081508636475
2.1152052879333496,3.9602408409118652,-0.1488250195980072
2.134429693222046,3.9322574138641357,-0.14550569653511047
2.122654676437378,3.8453423976898193,-0.13994719088077545
2.137110710144043,3.810593605041504,-0.13636210560798645
2.166079044342041,3.8032920360565186,-0.1337583214044571
2.20371413230896,3.808802843093872,-0.13151441514492035
2.2182986736297607,3.7732789516448975,-0.12781111896038055
2.2395074367523193,3.7517409324645996,-0.12452127039432526
2.2721948623657227,3.750408411026001,-0.12193866074085236
2.2941055297851562,3.7279820442199707,-0.11852417141199112
2.310847282409668,3.699324607849121,-0.1149153932929039
2.3389647006988525,3.6909587383270264,-0.11192670464515686
2.360286235809326,3.6681792736053467,-0.1083148866891861
2.3938968181610107,3.6651055812835693,-0.10526509582996368
2.4174752235412598,3.649693250656128,-0.10183855891227722
2.437661647796631,3.6269335746765137,-0.09808078408241272
2.462435722351074,3.610257625579834,-0.09439052641391754
2.5035886764526367,3.6199913024902344,-0.09131013602018356
2.5145890712738037,3.583867311477661,-0.08692622929811478
2.5475165843963623,3.5798237323760986,-0.08322443068027496
2.5951833724975586,3.5986151695251465,-0.07999398559331894
2.615504741668701,3.574294328689575,-0.07540854811668396
2.1912295818328857,2.9555258750915527,-0.0589921772480011
2.6917786598205566,3.7693607807159424,0.09591874480247498
2.663515090942383,3.7892696857452393,0.100371353328228
2.640946865081787,3.814424991607666,0.10469439625740051
2.6158077716827393,3.8410465717315674,0.10901349037885666
2.583986282348633,3.8530147075653076,0.1126510500907898
2.5602447986602783,3.878082752227783,0.1165803000330925
2.5257933139801025,3.8911855220794678,0.12017564475536346
2.5024988651275635,3.915371894836426,0.12382537126541138
2.47416615486145,3.9332284927368164,0.12722790241241455
2.456636667251587,3.9716641902923584,0.13127794861793518
2.416039228439331,3.968982219696045,0.1338166445493698
2.3916287422180176,3.992737054824829,0.13721443712711334
2.36165452003479,4.010432720184326,0.14029543101787567
2.3360602855682373,4.0343146324157715,0.1435556560754776
2.325268507003784,4.080933570861816,0.14753223955631256
2.326279878616333,4.152007102966309,0.15238910913467407
2.253392457962036,4.09412956237793,0.1525014191865921
2.231437921524048,4.123799800872803,0.15573112666606903
2.2026681900024414,4.1391377449035645,0.15837515890598297
2.183361053466797,4.175705432891846,0.16177086532115936
2.1560633182525635,4.198544502258301,0.16462460160255432
2.1220386028289795,4.206999778747559,0.16689011454582214
2.0995779037475586,4.235592365264893,0.1698918491601944
2.0655369758605957,4.243519306182861,0.17199763655662537
2.0410473346710205,4.272567272186279,0.17493674159049988
2.007026433944702,4.279937267303467,0.1769598126411438
1.9804257154464722,4.300814151763916,0.1795002967119217
1.955781102180481,4.3291215896606445,0.18234485387802124
1.9779222011566162,4.464512825012207,0.189649760723114
1.9484657049179077,4.485865592956543,0.19216468930244446
1.93861722946167,4.549498558044434,0.19644908607006073
1.9069421291351318,4.562773704528809,0.19858390092849731
1.8615777492523193,4.547657489776611,0.19938498735427856
1.8169389963150024,4.5319647789001465,0.20010998845100403
1.7988340854644775,4.581050872802734,0.20368479192256927
1.7668483257293701,4.5933966636657715,0.2056158035993576
1.7442471981048584,4.631145000457764,0.20867475867271423
1.3351719379425049,3.625663995742798,0.16436262428760529
1.3023031949996948,3.61680269241333,0.16493818163871765
1.2780383825302124,3.6295228004455566,0.16647878289222717
1.645412802696228,4.778430938720703,0.22042566537857056
1.606871485710144,4.774981498718262,0.22147424519062042
1.5707658529281616,4.782796382904053,0.2229452133178711
1.5471020936965942,4.827322006225586,0.22612807154655457
1.5177127122879028,4.852924823760986,0.22842612862586975
1.4907115697860718,4.8856964111328125,0.23106859624385834
1.445328950881958,4.858541965484619,0.23084916174411774
1.4267891645431519,4.924920082092285,0.23494872450828552
1.3686202764511108,4.85624885559082,0.23263028264045715
1.3363264799118042,4.873260498046875,0.2343849539756775
1.289272665977478,4.833372592926025,0.23339299857616425
1.2536132335662842,4.834616661071777,0.23438768088817596
1.2248221635818481,4.866077899932861,0.23668420314788818
1.194105625152588,4.893731594085693,0.23882512748241425
1.1647425889968872,4.9248046875,0.24113425612449646
1.133912444114685,4.9479498863220215,0.24305826425552368
1.1011260747909546,4.963284969329834,0.24461406469345093
1.069379448890686,4.98613166809082,0.24643413722515106
1.0365241765975952,5.008953094482422,0.24820804595947266
1.0062686204910278,5.042921543121338,0.250542014837265
0.970965564250946,5.049788475036621,0.251535564661026
2.118000030517578,11.443974494934082,0.5715310573577881
2.0210626125335693,11.362326622009277,0.568892240524292
1.9064761400222778,11.184185028076172,0.5610518455505371
1.8047611713409424,11.058672904968262,0.5558289289474487
1.7015239000320435,10.909128189086914,0.5493932962417603
1.6014362573623657,10.758548736572266,0.54288649559021
1.50626540184021,10.626428604125977,0.5373066663742065
1.4137331247329712,10.513110160827637,0.5324594378471375
1.3282872438430786,10.433737754821777,0.5291574001312256
1.2286722660064697,10.22586441040039,0.5193430781364441
1.1471163034439087,10.144978523254395,0.5159754753112793
1.0638598203659058,10.032379150390625,0.5110001564025879
0.9955790638923645,10.055008888244629,0.512930691242218
0.3924102485179901,4.273353099822998,0.21817998588085175
0.3617582619190216,4.268210411071777,0.21809588372707367
0.3306361138820648,4.255066871643066,0.2176123559474945
0.3020869791507721,4.2728166580200195,0.21871836483478546
0.2755819857120514,4.325411319732666,0.22162148356437683
0.2466549128293991,4.358402252197266,0.22350332140922546
0.21308639645576477,4.297670841217041,0.2204502820968628
0.18286842107772827,4.2951507568359375,0.22039303183555603
0.15144792199134827,4.257330417633057,0.21853439509868622
0.12296696752309799,4.297268390655518,0.22067739069461823
0.09139765053987503,4.243420124053955,0.21801629662513733
0.06142563745379448,4.21274471282959,0.21647466719150543
0.032070375978946686,4.209170341491699,0.21624015271663666
0.002888514893129468,4.388744831085205,0.2254234105348587
-0.027611561119556427,4.380857944488525,0.22498719394207
-0.05415652319788933,4.048990249633789,0.20792460441589355
-0.08214004337787628,4.040717601776123,0.20749130845069885
-0.110650435090065,4.055654525756836,0.2081536203622818
-0.13824374973773956,4.039203643798828,0.20716187357902527
-0.24473032355308533,5.944200038909912,0.3046625256538391
-0.2831997573375702,5.8839216232299805,0.30138683319091797
-0.19532984495162964,3.536860942840576,0.18106037378311157
-0.22037675976753235,3.543214797973633,0.18129102885723114
-0.24378694593906403,3.5260541439056396,0.18020235002040863
-0.2965898811817169,3.8977348804473877,0.19895537197589874
-0.3215709626674652,3.872283458709717,0.19742529094219208
-0.3461301624774933,3.8388476371765137,0.19549573957920074
-0.3520415723323822,3.6228041648864746,0.1842937171459198
-0.374750554561615,3.5970091819763184,0.18277513980865479
-0.39950332045555115,3.594367265701294,0.1823248416185379
-0.7437363266944885,6.295867919921875,0.3188188374042511
-0.7849618196487427,6.267311096191406,0.31684044003486633
-0.8249403238296509,6.234667778015137,0.3146795630455017
-0.8596554398536682,6.166996479034424,0.3107730746269226
-0.8995262384414673,6.141636848449707,0.30892133712768555
-0.9416594505310059,6.135369300842285,0.30790361762046814
-0.530907928943634,3.305105447769165,0.16548912227153778
-0.553710401058197,3.301389455795288,0.16493715345859528
-0.5779924392700195,3.3051745891571045,0.16476446390151978
-0.6023213267326355,3.3087868690490723,0.16458994150161743
-0.6134272217750549,3.2432663440704346,0.1609003096818924
-0.6333391070365906,3.2275424003601074,0.15966875851154327
-0.6479907631874084,3.184859275817871,0.1571105420589447
-0.6619585156440735,3.142155170440674,0.15457187592983246
-0.6696704030036926,3.0726988315582275,0.15073634684085846
-0.6849179267883301,3.0413780212402344,0.14877192676067352
-0.7020622491836548,3.02148175239563,0.14728543162345886
-0.7138795256614685,2.9786386489868164,0.14468719065189362
-0.6930863857269287,2.8070409297943115,0.1358821541070938
-0.7029756307601929,2.7643706798553467,0.13335123658180237
-0.7221847176551819,2.7594478130340576,0.132654070854187
-0.7319179177284241,2.7205677032470703,0.13027061522006989
-0.756939172744751,2.738049030303955,0.13055646419525146
-0.7851023077964783,2.7666685581207275,0.13137786090373993
-0.8336911797523499,2.8623647689819336,0.13535362482070923
-0.9373199343681335,3.1369717121124268,0.14771905541419983
-0.9657387733459473,3.1528806686401367,0.14781302213668823
-0.9955583810806274,3.172283172607422,0.1479874700307846
-1.026511549949646,3.1952574253082275,0.1483350545167923
-1.0691378116607666,3.2512094974517822,0.15018779039382935
-1.1116899251937866,3.3029086589813232,0.151811420917511
-1.1320147514343262,3.2877960205078125,0.1503462940454483
-1.1567656993865967,3.2874999046325684,0.14947254955768585
-1.4751073122024536,4.102182388305664,0.18542586266994476
-1.4977279901504517,4.077419281005859,0.18323278427124023
-1.5287981033325195,4.074280261993408,0.18200300633907318
-1.5458492040634155,4.034492015838623,0.17914128303527832
-1.4975600242614746,3.831446886062622,0.16899673640727997
-1.5699214935302734,3.9372260570526123,0.17248398065567017
-2.2745516300201416,5.593269348144531,0.24336101114749908
-1.5672225952148438,3.778353214263916,0.1632433533668518
-1.581122636795044,3.738748073577881,0.16037237644195557
-1.5952509641647339,3.70308256149292,0.15760648250579834
-1.6046795845031738,3.656491994857788,0.15438255667686462
-1.6265547275543213,3.638336181640625,0.15236780047416687
-1.6453686952590942,3.6127896308898926,0.15004070103168488
-1.6600449085235596,3.5803425312042236,0.14739909768104553
-1.6654391288757324,3.530489444732666,0.1440245360136032
-1.6825767755508423,3.505115270614624,0.14164602756500244
-1.7000592947006226,3.479372978210449,0.13923536241054535
-1.717254400253296,3.453561544418335,0.1368390917778015
-1.7470654249191284,3.456157684326172,0.13550207018852234
-1.777010202407837,3.4584970474243164,0.13414767384529114
-1.786146640777588,3.4186642169952393,0.13112041354179382
-2.457050085067749,4.6229634284973145,0.17523163557052612
-2.4785542488098145,4.589399814605713,0.17184200882911682
-2.4973227977752686,4.552616119384766,0.16832992434501648
-1.2012982368469238,2.155324697494507,0.07864534109830856
-2.5403428077697754,4.484142303466797,0.16136889159679413
