X,Y,Z
-0.3028722107410431,2.3714230060577393,-0.19267535209655762
-0.28126034140586853,2.330894947052002,-0.18987740576267242
-0.26871731877326965,2.367594003677368,-0.19333301484584808
-0.2554515600204468,2.4003467559814453,-0.19636480510234833
-0.2340419739484787,2.355541706085205,-0.19305896759033203
-0.21762724220752716,2.357074737548828,-0.19355186820030212
-0.19954785704612732,2.339097499847412,-0.19244901835918427
-0.1829567551612854,2.3404176235198975,-0.19288744032382965
-0.16712245345115662,2.3493809700012207,-0.19385020434856415
-0.15119223296642303,2.3582351207733154,-0.19481468200683594
-0.13300858438014984,2.3281097412109375,-0.19256490468978882
-0.11722193658351898,2.3367278575897217,-0.19352631270885468
-0.10068391263484955,2.3374767303466797,-0.19379019737243652
-0.08327435702085495,2.3069865703582764,-0.19135691225528717
-0.06742779165506363,2.3152809143066406,-0.1921490728855133
-0.050972577184438705,2.300114154815674,-0.19100292026996613
-0.034731678664684296,2.2848312854766846,-0.18985478579998016
-0.018740909174084663,2.308368682861328,-0.19188693165779114
-0.002625058637931943,2.285088300704956,-0.1899217814207077
0.013326545245945454,2.2928388118743896,-0.1905452162027359
0.029187029227614403,2.284907102584839,-0.18987461924552917
0.045245010405778885,2.2924349308013916,-0.19049790501594543
0.0609670951962471,2.2842884063720703,-0.18977707624435425
0.07712483406066895,2.283816337585449,-0.18958114087581635
0.09268222004175186,2.275461435317993,-0.18874333798885345
0.10923998802900314,2.290332317352295,-0.18984068930149078
0.1243089959025383,2.273984909057617,-0.1883595883846283
0.14249373972415924,2.3119425773620605,-0.1913379728794098
0.15772171318531036,2.295375347137451,-0.18968643248081207
0.17361995577812195,2.294257164001465,-0.18932753801345825
0.18957029283046722,2.2930240631103516,-0.1889672726392746
0.2055118829011917,2.291680097579956,-0.18860697746276855
0.22218897938728333,2.2979795932769775,-0.18883797526359558
0.23835334181785583,2.296403408050537,-0.18829914927482605
0.2533901631832123,2.2870020866394043,-0.18713565170764923
0.27381497621536255,2.3238987922668457,-0.1897633820772171
0.2861199975013733,2.2910728454589844,-0.18670453131198883
0.3040589392185211,2.304518461227417,-0.18738248944282532
0.32024309039115906,2.302382707595825,-0.1866757869720459
0.3395131826400757,2.3232901096343994,-0.18785034120082855
0.35209065675735474,2.2978408336639404,-0.1852830946445465
0.37300196290016174,2.32615065574646,-0.18705672025680542
0.39041170477867126,2.3312506675720215,-0.186910480260849
0.4071142375469208,2.3324146270751953,-0.18634659051895142
0.42136380076408386,2.318079948425293,-0.1845434457063675
0.4425257444381714,2.341952085494995,-0.18579235672950745
0.45881184935569763,2.3388864994049072,-0.18490493297576904
0.4796695411205292,2.358624219894409,-0.18575888872146606
0.49587127566337585,2.355353355407715,-0.18471698462963104
0.5139859914779663,2.359522819519043,-0.18425153195858002
0.5304123759269714,2.3559672832489014,-0.18319208920001984
0.5521057844161987,2.37506103515625,-0.18389520049095154
0.5730432868003845,2.390218734741211,-0.18420292437076569
0.5931770205497742,2.40144944190979,-0.1841394454240799
0.6176745295524597,2.427532434463501,-0.185186967253685
0.640490710735321,2.4458794593811035,-0.18563833832740784
0.6575130820274353,2.441455364227295,-0.18436162173748016
0.6794642210006714,2.4557602405548096,-0.18438822031021118
0.6983839869499207,2.4586551189422607,-0.18352484703063965
0.7265436053276062,2.491204023361206,-0.18483541905879974
0.7416468858718872,2.4787254333496094,-0.1828097701072693
0.7657468914985657,2.495961904525757,-0.18296577036380768
0.7897782921791077,2.513099431991577,-0.18297934532165527
0.8200675249099731,2.548567533493042,-0.18430344760417938
0.8477551341056824,2.572462797164917,-0.1847260743379593
0.8743661642074585,2.5924699306488037,-0.18486540019512177
0.8947464227676392,2.5938804149627686,-0.18360884487628937
0.9253280758857727,2.6246249675750732,-0.18434041738510132
0.9537883996963501,2.6477177143096924,-0.18450169265270233
0.9749230146408081,2.6484532356262207,-0.18306177854537964
1.0033071041107178,2.667142868041992,-0.1828264445066452
1.0298212766647339,2.68222975730896,-0.18224196135997772
1.0622245073318481,2.7116191387176514,-0.1825975626707077
1.0881919860839844,2.7224526405334473,-0.18164773285388947
1.1248104572296143,2.758270025253296,-0.18232262134552002
1.16050386428833,2.790107250213623,-0.1825978010892868
1.1915333271026611,2.8110644817352295,-0.18209852278232574
1.1364961862564087,2.631179094314575,-0.16867536306381226
1.154799461364746,2.623344898223877,-0.16637133061885834
1.160147786140442,2.586975336074829,-0.16225972771644592
1.1778382062911987,2.5791189670562744,-0.15985924005508423
1.1919665336608887,2.56416654586792,-0.1570553332567215
1.226496696472168,2.5911993980407715,-0.1567515879869461
1.2478598356246948,2.5897910594940186,-0.1546919047832489
1.4986553192138672,3.057894229888916,-0.18022562563419342
1.5665279626846313,3.142014741897583,-0.1826310157775879
1.621917963027954,3.1973116397857666,-0.18318937718868256
1.6744616031646729,3.2451155185699463,-0.18321405351161957
1.4224205017089844,2.7123470306396484,-0.15080128610134125
1.4258923530578613,2.6753628253936768,-0.14641815423965454
1.4556666612625122,2.6860995292663574,-0.14456555247306824
1.4631322622299194,2.655503034591675,-0.14043442904949188
1.4768961668014526,2.639089822769165,-0.1370851993560791
1.4619026184082031,2.571537494659424,-0.13110093772411346
1.4582915306091309,2.5242836475372314,-0.12617501616477966
1.4673365354537964,2.5011041164398193,-0.12247787415981293
1.4021514654159546,2.353898525238037,-0.11280752718448639
1.375914216041565,2.274190902709961,-0.10652364045381546
1.373152494430542,2.2348666191101074,-0.10221853852272034
1.362932801246643,2.1862363815307617,-0.09753774851560593
1.3859699964523315,2.190335512161255,-0.09516596049070358
1.384594202041626,2.154306411743164,-0.0909334346652031
1.4029265642166138,2.1518661975860596,-0.08817490190267563
1.4085700511932373,2.1296029090881348,-0.08455292880535126
1.4233989715576172,2.119847059249878,-0.08130907267332077
1.4416097402572632,2.117081642150879,-0.07830852270126343
1.4491969347000122,2.097797155380249,-0.07456496357917786
1.441312551498413,2.055833578109741,-0.06998653709888458
1.4543159008026123,2.046769142150879,-0.06657082587480545
1.458945393562317,2.0243642330169678,-0.06254692375659943
1.467835783958435,2.008373260498047,-0.058635782450437546
1.4806054830551147,1.9990849494934082,-0.05486955866217613
2.2850520610809326,3.198420286178589,0.1476641148328781
2.2613561153411865,3.214937925338745,0.15363188087940216
2.5453312397003174,3.678036689758301,0.1815086007118225
2.59867525100708,3.811544418334961,0.1934802532196045
3.145961284637451,4.689575672149658,0.24453608691692352
2.41430926322937,3.6573450565338135,0.19555069506168365
3.104933738708496,4.776683330535889,0.2613757848739624
1.6501020193099976,2.580540895462036,0.14429010450839996
1.6432334184646606,2.6124107837677,0.14909523725509644
1.5962015390396118,2.5771801471710205,0.14985185861587524
3.0106348991394043,4.940549850463867,0.2924569845199585
2.9806556701660156,4.976503372192383,0.2997846305370331
2.9749934673309326,5.047562122344971,0.3089136481285095
2.929781675338745,5.051033020019531,0.3138918876647949
2.816474437713623,4.940348148345947,0.31147560477256775
2.768242120742798,4.940366268157959,0.3158781826496124
2.6898016929626465,4.880988121032715,0.3162190914154053
2.6273388862609863,4.84812068939209,0.3180765211582184
2.5637545585632324,4.815542697906494,0.31973031163215637
2.5102920532226562,4.799334526062012,0.3223724663257599
2.442913055419922,4.750509738922119,0.3225792348384857
2.387770891189575,4.725783348083496,0.32439425587654114
2.326869010925293,4.690568923950195,0.325177401304245
1.225494384765625,2.5166239738464355,0.17617936432361603
1.2364840507507324,2.5847511291503906,0.18261419236660004
1.20182204246521,2.5578837394714355,0.18236218392848969
1.1815448999404907,2.5628669261932373,0.18427090346813202
1.1591583490371704,2.5643603801727295,0.18593411147594452
1.158214807510376,2.6116058826446533,0.19087329506874084
2.0761890411376953,4.770802974700928,0.3513868749141693
2.0608081817626953,4.828083515167236,0.3582763969898224
2.0345020294189453,4.864315986633301,0.36346447467803955
2.01162052154541,4.911469459533691,0.36955726146698
1.9917166233062744,4.96132755279541,0.37575963139533997
2.4250004291534424,6.164127826690674,0.46989336609840393
2.367173194885254,6.144510746002197,0.4712781012058258
1.998233437538147,5.3008198738098145,0.4089251756668091
1.9699690341949463,5.3443474769592285,0.41470375657081604
1.9405351877212524,5.379700183868408,0.41976919770240784
2.0792176723480225,5.892466068267822,0.46233290433883667
2.0664825439453125,5.991523265838623,0.4725313186645508
2.010676860809326,5.969121932983398,0.47302618622779846
1.9557547569274902,5.950177192687988,0.4738335609436035
1.9095149040222168,5.948556423187256,0.47590216994285583
1.8808616399765015,6.002330780029297,0.4824352562427521
1.8590694665908813,6.082205295562744,0.49100571870803833
1.8176186084747314,6.102606773376465,0.494598925113678
1.787903904914856,6.163867473602295,0.5015469789505005
1.7575207948684692,6.224974155426025,0.5085346102714539
1.7305203676223755,6.296931266784668,0.5164205431938171
1.7016304731369019,6.365035533905029,0.5240421295166016
1.6716433763504028,6.437146186828613,0.5316686630249023
0.8203864097595215,3.2545652389526367,0.2696707248687744
1.5558170080184937,6.365513801574707,0.5291680097579956
0.7983964085578918,3.3679394721984863,0.2808695137500763
1.449689269065857,6.310223579406738,0.5279288291931152
1.3976222276687622,6.285874843597412,0.5273932814598083
1.3496216535568237,6.280247688293457,0.5282682776451111
1.2962826490402222,6.2515363693237305,0.5272398591041565
1.2333927154541016,6.164849758148193,0.5212751626968384
1.1779191493988037,6.108130931854248,0.517827033996582
1.1324713230133057,6.100711345672607,0.5185676217079163
1.087243676185608,6.09692907333374,0.5192717909812927
1.038046956062317,6.073765277862549,0.5183284878730774
0.9962586164474487,6.088508129119873,0.520625114440918
0.953910231590271,6.09514856338501,0.5222364664077759
0.902255117893219,6.039910316467285,0.5185620188713074
0.8475345373153687,5.957293510437012,0.5124626159667969
0.8120360374450684,6.017118453979492,0.5183314085006714
0.7543290257453918,5.902907371520996,0.5092127919197083
0.6223976016044617,5.158355236053467,0.4456322491168976
0.5706482529640198,5.023262977600098,0.43460726737976074
0.5501415133476257,5.162471294403076,0.44733455777168274
0.4080856740474701,4.101132392883301,0.3558332026004791
0.37730851769447327,4.08839750289917,0.3550478518009186
0.35124653577804565,4.121918201446533,0.35829249024391174
0.3281543552875519,4.197943687438965,0.3652571439743042
0.29783686995506287,4.184549808502197,0.3644619882106781
0.2679709792137146,4.174820899963379,0.3640013337135315
0.2398802787065506,4.20377779006958,0.3667979836463928
0.38885393738746643,7.769364356994629,0.678162693977356
0.33384013175964355,7.756298542022705,0.6773062944412231
0.27890828251838684,7.735060691833496,0.6757669448852539
0.22365672886371613,7.686202526092529,0.6718431115150452
0.16857540607452393,7.6564249992370605,0.6696228384971619
0.11511746048927307,7.645720958709717,0.6688167452812195
0.061429113149642944,7.591859817504883,0.6640482544898987
0.008566724136471748,7.599886894226074,0.6647255420684814
-0.04406527802348137,7.576415061950684,0.6626800298690796
-0.09716255217790604,7.540895462036133,0.6596133708953857
-0.14890103042125702,7.508913993835449,0.6568871140480042
-0.20047353208065033,7.492168426513672,0.6552370190620422
-0.25146153569221497,7.463416576385498,0.6523737907409668
-0.3022187650203705,7.43820858001709,0.6498537659645081
-0.35622990131378174,7.486506462097168,0.6537857055664062
-0.29679346084594727,5.428310871124268,0.47385722398757935
-0.334031343460083,5.418379783630371,0.4728275537490845
-0.37046998739242554,5.400457859039307,0.4709008038043976
-0.40600788593292236,5.374547481536865,0.4681735038757324
-0.4431251883506775,5.37167501449585,0.4674774706363678
-0.22124943137168884,2.4691102504730225,0.214678555727005
-0.23615720868110657,2.4442989826202393,0.2123374342918396
-0.4757869243621826,4.591053485870361,0.39850053191185
-0.5083257555961609,4.595466136932373,0.398368775844574
-0.5381298661231995,4.576474189758301,0.3961392045021057
-0.5691717863082886,4.564951419830322,0.39456886053085327
-0.5987832546234131,4.545536518096924,0.3923432230949402
-0.6282452940940857,4.525918483734131,0.3901210427284241
-0.657417356967926,4.50611686706543,0.38790619373321533
-0.688341498374939,4.501593112945557,0.38678476214408875
-0.7178932428359985,4.485252857208252,0.3845963776111603
-0.7473068833351135,4.472653865814209,0.3827650249004364
-0.7770306468009949,4.4597859382629395,0.3809204697608948
-0.8038774132728577,4.431391716003418,0.3777722120285034
-0.8289239406585693,4.39518928527832,0.373985230922699
-0.8522323966026306,4.355157375335693,0.3696325421333313
-0.7454870939254761,3.673968553543091,0.3110174238681793
-0.7674270272254944,3.6536402702331543,0.30852484703063965
-0.9423766732215881,4.336910724639893,0.3653094172477722
-0.9724397659301758,4.330390930175781,0.363863468170166
-1.0022863149642944,4.323707580566406,0.36235159635543823
-1.0339182615280151,4.324403762817383,0.36125823855400085
-1.0539323091506958,4.279623508453369,0.3564097285270691
-1.0755873918533325,4.242246627807617,0.3522009551525116
-1.1149247884750366,4.27247428894043,0.3536028265953064
-1.1385433673858643,4.242198944091797,0.3500118851661682
-1.163942813873291,4.219301700592041,0.346869558095932
-1.1914405822753906,4.207732200622559,0.34461626410484314
-1.2199609279632568,4.199711322784424,0.3426688313484192
-1.2423467636108398,4.168929576873779,0.3388604521751404
-1.2667583227157593,4.145451545715332,0.3356684446334839
-1.3028581142425537,4.158908367156982,0.33541595935821533
-1.3285022974014282,4.142786026000977,0.33260586857795715
-1.3539501428604126,4.126518726348877,0.3298066258430481
-1.3846486806869507,4.124716758728027,0.32815447449684143
-1.4158384799957275,4.122533798217773,0.3264581263065338
-1.4367746114730835,4.090700626373291,0.32243290543556213
-1.4622621536254883,4.073577404022217,0.3193712830543518
-1.4869555234909058,4.056525230407715,0.31632712483406067
-1.514394998550415,4.046555042266846,0.3138415515422821
-1.5369174480438232,4.021572589874268,0.31016823649406433
-1.5733623504638672,4.032754898071289,0.30929386615753174
-1.5953301191329956,4.0075531005859375,0.3054596483707428
-1.622067928314209,3.997013568878174,0.30272817611694336
-1.6489049196243286,3.9862253665924072,0.29997920989990234
-1.673620581626892,3.967668294906616,0.29659250378608704
-1.6919983625411987,3.9346373081207275,0.29215264320373535
-1.7174443006515503,3.9195637702941895,0.28889310359954834
-1.737181544303894,3.894010543823242,0.2848672866821289
-1.7569992542266846,3.868211269378662,0.280823290348053
-1.7839372158050537,3.8560867309570312,0.27772316336631775
-1.807468056678772,3.836719512939453,0.2741190195083618
-1.8333725929260254,3.824643135070801,0.2708333134651184
-1.8552860021591187,3.805617094039917,0.2671067416667938
-1.8778172731399536,3.786081552505493,0.2632904350757599
-1.9006623029708862,3.766166925430298,0.25942254066467285
-1.9262675046920776,3.753371238708496,0.2559871971607208
-1.9401799440383911,3.7200701236724854,0.25107717514038086
-1.9836339950561523,3.7415177822113037,0.24978992342948914
-2.0060019493103027,3.7209627628326416,0.2456105798482895
-1.6943260431289673,3.091649293899536,0.20171697437763214
-1.7145434617996216,3.0806901454925537,0.19853630661964417
-1.719358205795288,3.042419910430908,0.19362333416938782
-0.839370846748352,1.4610621929168701,0.09170649945735931
-0.8573514223098755,1.468780755996704,0.0909188985824585
-0.8549681305885315,1.4431325197219849,0.08802255243062973
-0.8724436163902283,1.4509748220443726,0.08717100322246552
-0.8866344690322876,1.4516044855117798,0.08578138053417206
-0.8925980925559998,1.4388777017593384,0.0835684984922409
-0.8894228935241699,1.4133614301681519,0.08063765615224838
-0.8904754519462585,1.3943183422088623,0.07806220650672913
-0.9044498205184937,1.3947112560272217,0.07652059197425842
-0.8985319137573242,1.3660547733306885,0.07337016612291336
-0.9486183524131775,1.4219197034835815,0.07466503232717514
-2.3811092376708984,3.515735387802124,0.18006610870361328
-1.3922841548919678,2.0267045497894287,0.1011311262845993
-1.2110950946807861,1.7392970323562622,0.08445865660905838
-1.375479817390442,1.98239004611969,-0.07670063525438309
-1.3867231607437134,2.0313713550567627,-0.08211560547351837
-1.3548308610916138,2.015103816986084,-0.08467983454465866
-1.1828131675720215,1.7871487140655518,-0.07789221405982971
-1.3479862213134766,2.0708024501800537,-0.09348000586032867
-1.2007635831832886,1.8730040788650513,-0.08719506859779358
-1.4827611446380615,2.350334405899048,-0.11269398778676987
-2.1341471672058105,3.66990327835083,-0.1993137001991272
-0.9141697883605957,1.6254898309707642,-0.09200681000947952
-1.7064656019210815,3.086416721343994,-0.178139790892601
-1.9197239875793457,3.5298244953155518,-0.20748558640480042
-1.6825733184814453,3.1477818489074707,-0.18829716742038727
-1.6213818788528442,3.0872650146484375,-0.18785271048545837
-1.6731276512145996,3.240389585494995,-0.20033694803714752
-1.6216667890548706,3.196383476257324,-0.2007664442062378
-1.587863564491272,3.1869521141052246,-0.2031715214252472
-1.5425693988800049,3.15254282951355,-0.20389655232429504
-1.4986021518707275,3.1172993183135986,-0.2043980062007904
-1.4466524124145508,3.064079999923706,-0.20359963178634644
-1.4064106941223145,3.0353336334228516,-0.20427724719047546
-1.36814546585083,3.0097768306732178,-0.20513209700584412
-1.3296095132827759,2.9798872470855713,-0.20553648471832275
-1.2898015975952148,2.9461264610290527,-0.20558150112628937
-1.2331135272979736,2.8727784156799316,-0.20270223915576935
-1.2185384035110474,2.8957135677337646,-0.20655599236488342
-1.175650954246521,2.8500454425811768,-0.20547573268413544
-1.1468563079833984,2.836350917816162,-0.206595316529274
-1.104909896850586,2.7899842262268066,-0.20518150925636292
-1.0623224973678589,2.7395195960998535,-0.2033938318490982
-1.0376081466674805,2.7321290969848633,-0.20471486449241638
-1.0032354593276978,2.6990737915039062,-0.20411556959152222
-0.9732517600059509,2.6767165660858154,-0.2041335552930832
-0.951442301273346,2.6761088371276855,-0.20578159391880035
-0.9108763933181763,2.6200015544891357,-0.20309564471244812
-0.8875830173492432,2.611368417739868,-0.20403915643692017
-0.861482560634613,2.5953192710876465,-0.2043456882238388
-0.829771101474762,2.5604751110076904,-0.20304860174655914
-0.8045732378959656,2.543853759765625,-0.2031632363796234
-0.7765079736709595,2.5157511234283447,-0.20231562852859497
-0.7499959468841553,2.491114854812622,-0.20172138512134552
-0.7345156669616699,2.5037059783935547,-0.20399564504623413
-0.7078689336776733,2.478848457336426,-0.20323824882507324
-0.6862894892692566,2.4686124324798584,-0.2036314457654953
-0.6599043607711792,2.439377784729004,-0.2024359405040741
-0.6368052363395691,2.421233892440796,-0.20208154618740082
-0.6119163036346436,2.395390033721924,-0.2009696662425995
-0.5899419784545898,2.3807268142700195,-0.2008027881383896
-0.5678865909576416,2.3619511127471924,-0.2002442628145218
-0.5478888154029846,2.3505687713623047,-0.2003057897090912
-0.5296239256858826,2.346665382385254,-0.20089370012283325
-0.5080506801605225,2.3274285793304443,-0.20012134313583374
-0.4881885051727295,2.3156635761260986,-0.19999752938747406
-0.46974048018455505,2.307461738586426,-0.2001572549343109
-0.4551795423030853,2.318211793899536,-0.2019692361354828
-0.43742042779922485,2.31361985206604,-0.20229820907115936
-0.4127776622772217,2.2706058025360107,-0.19925202429294586
-0.3925863802433014,2.250399112701416,-0.19820402562618256
-0.3768771290779114,2.2529995441436768,-0.19915248453617096
-0.34944313764572144,2.1824891567230225,-0.19360309839248657
-0.33289626240730286,2.1771347522735596,-0.1936751753091812
-0.3220715820789337,2.2101573944091797,-0.19717611372470856
-0.3052891492843628,2.204613447189331,-0.19725821912288666
-0.29398998618125916,2.2374794483184814,-0.20078100264072418
-0.27551618218421936,2.2162420749664307,-0.19941362738609314
-0.2572503387928009,2.1948816776275635,-0.19790701568126678
-0.24270404875278473,2.2043139934539795,-0.19918373227119446
-0.22418241202831268,2.174936294555664,-0.19695499539375305
-0.20879483222961426,2.176415205001831,-0.197531595826149
-0.19365231692790985,2.1777689456939697,-0.19803673028945923
-0.17843319475650787,2.179032802581787,-0.1984289288520813
-0.16061078011989594,2.145275115966797,-0.19563663005828857
-0.14565704762935638,2.1463072299957275,-0.19602157175540924
-0.1295117735862732,2.1317172050476074,-0.19499200582504272
-0.11379992961883545,2.1170029640197754,-0.19388101994991302
-0.09938127547502518,2.1254982948303223,-0.19480134546756744
-0.08484954386949539,2.133894920349121,-0.19572319090366364
-0.06898597627878189,2.103311538696289,-0.19307689368724823
-0.05430034548044205,2.1115050315856934,-0.19400081038475037
-0.03947601839900017,2.104041337966919,-0.19341498613357544
-0.02483750693500042,2.104261875152588,-0.1934482753276825
-0.010141927748918533,2.0966012477874756,-0.19276630878448486
0.0044915503822267056,2.127736806869507,-0.1956610381603241
0.019338015466928482,2.1043105125427246,-0.19354870915412903
0.033844731748104095,2.096351146697998,-0.1927829384803772
0.048414021730422974,2.096078634262085,-0.19263844192028046
0.06343022733926773,2.111257553100586,-0.19392265379428864
0.07727580517530441,2.0874545574188232,-0.19163551926612854
0.09164771437644958,2.0829923152923584,-0.19113461673259735
0.10639356076717377,2.08231258392334,-0.1909041702747345
0.12107019126415253,2.085435628890991,-0.1909477412700653
0.13657069206237793,2.10010027885437,-0.19205474853515625
0.15283964574337006,2.1224095821380615,-0.19386592507362366
0.16421686112880707,2.0786662101745605,-0.18965491652488708
0.18252848088741302,2.1201298236846924,-0.1931324452161789
0.1971907764673233,2.118860960006714,-0.19264312088489532
0.21261878311634064,2.125232696533203,-0.19285637140274048
0.22823618352413177,2.1314828395843506,-0.19306297600269318
0.24481463432312012,2.1453511714935303,-0.19396553933620453
0.25900715589523315,2.1359004974365234,-0.19266405701637268
0.277731329202652,2.164991617202759,-0.19477863609790802
0.2885220944881439,2.1322333812713623,-0.19133804738521576
0.30004218220710754,2.107123851776123,-0.18860295414924622
0.31814897060394287,2.12813401222229,-0.19000458717346191
0.336736261844635,2.148977756500244,-0.1912715584039688
0.3515377342700958,2.1466805934906006,-0.19043415784835815
0.36767059564590454,2.151946783065796,-0.1902729868888855
0.3860490024089813,2.1685678958892822,-0.19111251831054688
0.4025317430496216,2.173560619354248,-0.19092953205108643
0.4160558879375458,2.163172483444214,-0.18928244709968567
0.44185906648635864,2.213730573654175,-0.19290931522846222
0.4508410394191742,2.180222272872925,-0.18922172486782074
0.45706310868263245,2.135249137878418,-0.1845671832561493
0.47615838050842285,2.1510984897613525,-0.18518619239330292
0.5065692663192749,2.2161757946014404,-0.18987637758255005
0.5283143520355225,2.239206075668335,-0.19090710580348969
0.5511760115623474,2.2658591270446777,-0.19224119186401367
0.5593827962875366,2.2318577766418457,-0.18843282759189606
0.5807228684425354,2.250640630722046,-0.18906989693641663
0.604120135307312,2.276832103729248,-0.19019101560115814
0.625129222869873,2.2914602756500244,-0.1903114765882492
0.6389214992523193,2.2796857357025146,-0.18824928998947144
0.6634052991867065,2.3052356243133545,-0.18926391005516052
0.6815242171287537,2.3081912994384766,-0.1883486807346344
0.7018114328384399,2.3185160160064697,-0.18795247375965118
0.7272055745124817,2.343454122543335,-0.18870112299919128
0.7541424036026001,2.3718695640563965,-0.18970613181591034
0.7730674147605896,2.374098062515259,-0.18860380351543427
0.801636815071106,2.4058420658111572,-0.18971936404705048
0.8218004703521729,2.4115242958068848,-0.1887396275997162
0.8409857749938965,2.413300037384033,-0.18743568658828735
0.863342821598053,2.422093391418457,-0.18662995100021362
0.901436448097229,2.4747791290283203,-0.1891579031944275
0.9250552654266357,2.4870035648345947,-0.18846319615840912
0.9585831165313721,2.5245134830474854,-0.18965093791484833
0.9761719107627869,2.517928123474121,-0.1874673217535019
1.0098005533218384,2.5509586334228516,-0.1881856769323349
1.0446442365646362,2.5875649452209473,-0.18904030323028564
1.0651353597640991,2.587801456451416,-0.18719537556171417
1.096562385559082,2.6129024028778076,-0.18709418177604675
1.1362290382385254,2.6555380821228027,-0.18817797303199768
1.1391035318374634,2.6120169162750244,-0.18306538462638855
1.1472257375717163,2.5830655097961426,-0.1790141761302948
1.1745096445083618,2.5966484546661377,-0.17789293825626373
1.1828110218048096,2.567323923110962,-0.17379966378211975
1.2037525177001953,2.5663671493530273,-0.17161256074905396
1.2313745021820068,2.5793631076812744,-0.1702403724193573
1.3732575178146362,2.8271737098693848,-0.1841500997543335
1.4586262702941895,2.9505696296691895,-0.18955907225608826
1.4894174337387085,2.961574077606201,-0.18758825957775116
1.5234171152114868,2.9795284271240234,-0.1859598159790039
1.4500380754470825,2.789381504058838,-0.17145980894565582
1.4315152168273926,2.7068088054656982,-0.16369841992855072
1.4389086961746216,2.676537036895752,-0.15921349823474884
1.4529542922973633,2.6602444648742676,-0.15555809438228607
1.4597088098526,2.6299965381622314,-0.15105511248111725
1.4454104900360107,2.562185525894165,-0.14442609250545502
1.4337736368179321,2.501664876937866,-0.13824696838855743
1.446364164352417,2.4855599403381348,-0.1346254050731659
1.4754638671875,2.495817184448242,-0.1322920024394989
1.4645239114761353,2.4389212131500244,-0.12641072273254395
1.4297406673431396,2.346109628677368,-0.11878901720046997
1.3883192539215088,2.2434797286987305,-0.1107635498046875
1.3956563472747803,2.2206685543060303,-0.10676953941583633
1.3893271684646606,2.1786372661590576,-0.10189146548509598
1.3952336311340332,2.1564395427703857,-0.09796634316444397
1.4188002347946167,2.1598713397979736,-0.0950554832816124
1.4246453046798706,2.1374332904815674,-0.09094730019569397
1.4232906103134155,2.105576276779175,-0.08650114387273788
1.4423667192459106,2.1021814346313477,-0.08304338157176971
1.451645016670227,2.086423397064209,-0.0790848433971405
1.451855182647705,2.057812452316284,-0.0745856836438179
1.4708470106124878,2.05403733253479,-0.07075634598731995
1.4562389850616455,2.00693678855896,-0.06555400043725967
1.4698811769485474,1.9971007108688354,-0.06134531646966934
2.26507568359375,3.1972413063049316,0.16787515580654144
2.2580156326293945,3.2352702617645264,0.17527242004871368
2.589658737182617,3.769437551498413,0.21032026410102844
3.1655142307281494,4.684507846832275,0.26883363723754883
3.1477108001708984,4.728869915008545,0.27814003825187683
2.415391206741333,3.6878886222839355,0.22206412255764008
3.0931601524353027,4.800946235656738,0.2955945134162903
1.632124662399292,2.572415590286255,0.16159802675247192
1.6211243867874146,2.5975208282470703,0.16639460623264313
1.5727845430374146,2.5629730224609375,0.1672356277704239
2.998507261276245,4.963894367218018,0.32934561371803284
2.9833908081054688,5.017965793609619,0.3383450210094452
2.959430694580078,5.063321113586426,0.34666338562965393
2.85545015335083,4.9698920249938965,0.34538641571998596
2.786038637161255,4.928243637084961,0.34722620248794556
2.7220864295959473,4.896627902984619,0.34958401322364807
2.6536550521850586,4.858248710632324,0.3512289226055145
2.5962109565734863,4.835752010345459,0.35382601618766785
2.5308291912078857,4.7950873374938965,0.3549421727657318
2.476651668548584,4.774658203125,0.3573206663131714
2.4058291912078857,4.723036766052246,0.357162743806839
2.3592183589935303,4.715633869171143,0.360226035118103
2.308980703353882,4.696688652038574,0.3622443675994873
1.231576681137085,2.5511698722839355,0.19865401089191437
1.209401249885559,2.5529463291168213,0.20053695142269135
1.1856236457824707,2.5510005950927734,0.2021263837814331
1.1709927320480347,2.5661346912384033,0.20498739182949066
1.157841444015503,2.5847227573394775,0.20814192295074463
1.1485815048217773,2.6142210960388184,0.21210606396198273
2.0717885494232178,4.812121391296387,0.39333316683769226
2.046257495880127,4.84808349609375,0.39909428358078003
2.0257742404937744,4.894315719604492,0.4056720435619354
1.9945344924926758,4.915211200714111,0.4101885259151459
1.9673670530319214,4.950992107391357,0.41570085287094116
2.407693862915039,6.191856861114502,0.5231035351753235
2.3552968502044678,6.18660306930542,0.5257563591003418
2.2916722297668457,6.147782802581787,0.5254871845245361
2.2607054710388184,6.19618034362793,0.5326641201972961
1.9620331525802612,5.500621795654297,0.47524920105934143
2.127692222595215,6.106513023376465,0.530301034450531
2.0679590702056885,6.073222637176514,0.5300162434577942
1.9849416017532349,5.9652910232543945,0.5231277346611023
1.9275987148284912,5.930552959442139,0.5226113200187683
1.9096087217330933,6.021878242492676,0.5329110026359558
1.901044249534607,6.1506853103637695,0.5466397404670715
1.878461480140686,6.234585762023926,0.5564126372337341
1.8261178731918335,6.217368125915527,0.5571550726890564
1.7891547679901123,6.252091884613037,0.5625733733177185
1.7603747844696045,6.320587158203125,0.570816159248352
1.7353872060775757,6.407886028289795,0.5806569457054138
1.6954885721206665,6.4464430809021,0.5861800312995911
0.8334141373634338,3.260967969894409,0.2975149154663086
1.5876511335372925,6.397155284881592,0.585608720779419
0.8024652004241943,3.3325142860412598,0.30606532096862793
1.473434329032898,6.316102981567383,0.5816503167152405
1.4147359132766724,6.269461154937744,0.5789623260498047
1.3704084157943726,6.279070854187012,0.5814419388771057
1.3146554231643677,6.231127738952637,0.5785815119743347
1.268117070198059,6.224661350250244,0.5795841813087463
1.2123534679412842,6.172140598297119,0.5760769844055176
1.1554754972457886,6.115568161010742,0.5720137357711792
1.104445219039917,6.081324577331543,0.5700246095657349
1.059125542640686,6.073408126831055,0.5705060362815857
1.011650562286377,6.049771308898926,0.5695222020149231
0.9743925333023071,6.087218761444092,0.5743165016174316
0.9284104704856873,6.078512668609619,0.5744642019271851
0.872515082359314,5.996266841888428,0.5675729513168335
0.8221533298492432,5.9443535804748535,0.5635583400726318
0.780641496181488,5.9498114585876465,0.5649911165237427
0.7353830337524414,5.924089431762695,0.563482940196991
0.5882701873779297,5.025111198425293,0.47879019379615784
0.5629097819328308,5.1257476806640625,0.4888848066329956
0.532799243927002,5.18752384185791,0.49528825283050537
0.3956303000450134,4.138138294219971,0.3955230414867401
0.3602934181690216,4.0671305656433105,0.38916972279548645
0.3421325385570526,4.1934943199157715,0.40172621607780457
0.3118198812007904,4.187992095947266,0.4016745388507843
0.28119081258773804,4.170634746551514,0.40022343397140503
0.2535891830921173,4.199633598327637,0.4032413363456726
0.41377487778663635,7.754092693328857,0.7450036406517029
0.36097854375839233,7.780012130737305,0.7479974627494812
0.30472511053085327,7.751214504241943,0.7457759380340576
0.24879933893680573,7.687007904052734,0.7401177287101746
0.19503113627433777,7.680762767791748,0.7395626306533813
0.1407891809940338,7.643040180206299,0.7360122203826904
0.08730504661798477,7.624377250671387,0.7343322038650513
0.03330794721841812,7.609232425689697,0.7330286502838135
-0.019575210288167,7.58593225479126,0.7309718728065491
-0.07193752378225327,7.550606727600098,0.727742612361908
-0.12407951802015305,7.53441047668457,0.725871741771698
-0.17581821978092194,7.510080814361572,0.7232537269592285
-0.22683148086071014,7.469848155975342,0.7191407680511475
-0.27858588099479675,7.440896511077881,0.7161475419998169
-0.33064141869544983,7.446584224700928,0.7165270447731018
-0.2790503203868866,5.4326348304748535,0.5226150751113892
-0.31526491045951843,5.407346248626709,0.5197259187698364
-0.3516494035720825,5.389577865600586,0.5175876021385193
-0.3907186686992645,5.4025444984436035,0.5184187293052673
-0.4251202940940857,5.361001968383789,0.5140520334243774
-0.45929867029190063,5.323117256164551,0.5100659728050232
-0.43088048696517944,4.6190667152404785,0.4422922432422638
-0.4622524678707123,4.612208366394043,0.441047728061676
-0.49453607201576233,4.608943462371826,0.4401581585407257
-0.5245074033737183,4.5900559425354,0.4378089904785156
-0.5545252561569214,4.57094144821167,0.4354577660560608
-0.5843029022216797,4.55163049697876,0.4331125020980835
-0.6148360371589661,4.539844512939453,0.43146824836730957
-0.6421546936035156,4.5047502517700195,0.42734095454216003
-0.6724467873573303,4.496506690979004,0.42580223083496094
-0.7021917104721069,4.484195709228516,0.42389702796936035
-0.7320728302001953,4.471644878387451,0.4219854176044464
-0.7605032324790955,4.451226234436035,0.4193553924560547
-0.7885640859603882,4.430656909942627,0.4166643023490906
-0.8151291608810425,4.402255058288574,0.4130041003227234
-0.8400328159332275,4.3699846267700195,0.40902984142303467
-0.7308567762374878,3.6661217212677,0.3423635959625244
-0.7547799944877625,3.6534438133239746,0.3404015600681305
-0.7818163633346558,3.655827045440674,0.33985939621925354
-0.9612111449241638,4.345508098602295,0.4029391407966614
-0.9839339256286621,4.308663368225098,0.3983670473098755
-1.0168603658676147,4.317163944244385,0.3980117440223694
-1.0446949005126953,4.302669048309326,0.39554327726364136
-1.0726311206817627,4.287932395935059,0.39306584000587463
-1.0970335006713867,4.257816314697266,0.3891867399215698
-1.1259950399398804,4.250429153442383,0.38720831274986267
-1.1526374816894531,4.235403537750244,0.3844822645187378
-1.1812632083892822,4.227694034576416,0.3824385404586792
-1.2063121795654297,4.2046122550964355,0.3789910078048706
-1.2349978685379028,4.192411422729492,0.3765209913253784
-1.2595219612121582,4.169040679931641,0.3730500340461731
-1.285406470298767,4.153191566467285,0.3700685501098633
-1.3205413818359375,4.166865825653076,0.3697291612625122
-1.3442180156707764,4.143130779266357,0.3660676181316376
-1.3759549856185913,4.141118049621582,0.3642931282520294
-1.4022167921066284,4.124286651611328,0.3612601161003113
-1.4224532842636108,4.092854022979736,0.35677337646484375
-1.4525296688079834,4.0907673835754395,0.3548063337802887
-1.4694408178329468,4.051832675933838,0.34966421127319336
-1.5031031370162964,4.056311130523682,0.34822773933410645
-1.5263431072235107,4.031208515167236,0.3442385792732239
-1.5538488626480103,4.020925521850586,0.3414381742477417
-1.5779640674591064,4.003398418426514,0.33792173862457275
-1.610627293586731,4.007408142089844,0.33623477816581726
-1.6383731365203857,3.99639630317688,0.3332306742668152
-1.6605836153030396,3.9705920219421387,0.32897549867630005
-1.6875818967819214,3.9594480991363525,0.3258874714374542
-1.7045552730560303,3.9269657135009766,0.3209560811519623
-1.7259271144866943,3.905103921890259,0.3169226050376892
-1.7530721426010132,3.893261194229126,0.31361958384513855
-1.767683982849121,3.8526535034179688,0.30798497796058655
-1.7936885356903076,3.8408851623535156,0.3046005666255951
-1.8091322183609009,3.8080413341522217,0.29949069023132324
-1.8414419889450073,3.8101136684417725,0.29711806774139404
-1.8714420795440674,3.8044376373291016,0.29403966665267944
-1.8914515972137451,3.777388095855713,0.28927987813949585
-1.9199514389038086,3.772016763687134,0.28605911135673523
-1.9305247068405151,3.731827974319458,0.28022897243499756
-1.9597887992858887,3.725644111633301,0.27686718106269836
-1.99677312374115,3.7327916622161865,0.27444666624069214
-2.021864175796509,3.7195560932159424,0.270414263010025
-1.7074480056762695,3.091963768005371,0.22213420271873474
-1.7321478128433228,3.0873899459838867,0.21911293268203735
-0.830523669719696,1.4564229249954224,0.10204139351844788
-0.8482000231742859,1.4643746614456177,0.1012333333492279
-0.8696132302284241,1.4790900945663452,0.10082972049713135
-0.8677597045898438,1.4531190395355225,0.09758511185646057
-0.8819407820701599,1.4538140296936035,0.09612416476011276
-0.8834517002105713,1.4347330331802368,0.09332925081253052
-0.8968539834022522,1.4357242584228516,0.09182967990636826
-0.9066413640975952,1.429693579673767,0.08979099243879318
-0.9082998037338257,1.410246729850769,0.08686598390340805
-0.8938349485397339,1.3686057329177856,0.08261758089065552
-0.9027741551399231,1.3628498315811157,0.08054355531930923
-2.3928487300872803,3.558321237564087,0.20544323325157166
-2.4557201862335205,3.6009023189544678,0.20288754999637604
-1.2562183141708374,1.8166494369506836,0.09972461313009262
-1.3047635555267334,1.8591073751449585,0.0991438627243042
-1.3535529375076294,1.9356566667556763,-0.07890614867210388
-1.5024333000183105,2.183785915374756,-0.09327487647533417
-1.2020145654678345,1.8023027181625366,-0.0833941400051117
-1.224939227104187,1.8665307760238647,-0.08954355865716934
-1.4110027551651,2.1830012798309326,-0.10818251222372055
-1.2587103843688965,1.9791163206100464,-0.10117504745721817
-1.123818039894104,1.7964186668395996,-0.09461189061403275
-1.1153022050857544,1.8107305765151978,-0.0979650542140007
-2.1238770484924316,3.620907783508301,-0.21079470217227936
-0.8716913461685181,1.5370944738388062,-0.09346406906843185
-1.7254077196121216,3.0929744243621826,-0.19183267652988434
-1.7130464315414429,3.1218223571777344,-0.19735561311244965
-1.6808236837387085,3.116870164871216,-0.20068173110485077
-1.6395337581634521,3.094435453414917,-0.20284892618656158
-1.621421217918396,3.1124861240386963,-0.2074671983718872
-1.576046347618103,3.07859206199646,-0.20854464173316956
-1.5132136344909668,3.0096397399902344,-0.20706799626350403
-1.481383204460144,2.9991021156311035,-0.20943200588226318
-1.4396085739135742,2.9672014713287354,-0.21024426817893982
-1.3931691646575928,2.9243927001953125,-0.21007634699344635
-1.337254285812378,2.860015630722046,-0.20821444690227509
-1.3007639646530151,2.8337209224700928,-0.20895864069461823
-1.2601251602172852,2.7963035106658936,-0.20878790318965912
-1.2180482149124146,2.7551028728485107,-0.20817242562770844
-1.1838308572769165,2.731560707092285,-0.2088402509689331
-1.143153190612793,2.689429998397827,-0.20793360471725464
-1.1138168573379517,2.671963930130005,-0.20885591208934784
-1.0829578638076782,2.6507627964019775,-0.20937460660934448
-1.04935884475708,2.622112989425659,-0.2092180848121643
-1.0091218948364258,2.5749878883361816,-0.20752567052841187
-0.9827513098716736,2.559943199157715,-0.2083040475845337
-0.9523345232009888,2.5337984561920166,-0.2080923467874527
-0.9207191467285156,2.5038068294525146,-0.20744648575782776
-0.8857423067092896,2.4624645709991455,-0.20579823851585388
-0.8630661964416504,2.4538071155548096,-0.20684322714805603
-0.8357656598091125,2.4301352500915527,-0.2065601348876953
-0.8072500228881836,2.402642250061035,-0.20578622817993164
-0.7852373719215393,2.393366813659668,-0.2065519541501999
-0.7613415122032166,2.376387596130371,-0.20660996437072754
-0.7246866226196289,2.3184030055999756,-0.2030816674232483
-0.7128199338912964,2.338200569152832,-0.20622356235980988
-0.6872854828834534,2.313210964202881,-0.20536111295223236
-0.6709287166595459,2.317852020263672,-0.2071116864681244
-0.6389411687850952,2.266125440597534,-0.2037838101387024
-0.6210788488388062,2.2628653049468994,-0.2047772854566574
-0.6027686595916748,2.2596170902252197,-0.20564594864845276
-0.5828608870506287,2.2486205101013184,-0.2057885378599167
-0.5528719425201416,2.195909023284912,-0.20207422971725464
-0.5375381112098694,2.1995790004730225,-0.20352700352668762
-0.51849764585495,2.1880276203155518,-0.2035023272037506
-0.5010137557983398,2.183993339538574,-0.2041006088256836
-0.4805130362510681,2.164573907852173,-0.20324113965034485
-0.46542397141456604,2.1677510738372803,-0.2044898271560669
-0.44399362802505493,2.140354633331299,-0.20285090804100037
-0.4281814694404602,2.1395020484924316,-0.2036006599664688
-0.3966354429721832,2.0583982467651367,-0.1966618001461029
-0.3807714283466339,2.0533840656280518,-0.1969505250453949
-0.3657824695110321,2.0520596504211426,-0.19759300351142883
-0.3560938537120819,2.081287145614624,-0.2011946588754654
-0.34273627400398254,2.0913267135620117,-0.20279748737812042
-0.32417425513267517,2.0705883502960205,-0.20142866671085358
-0.3079789876937866,2.0611836910247803,-0.201147198677063
-0.29141783714294434,2.0478010177612305,-0.2004774510860443
-0.2792263925075531,2.0651142597198486,-0.2027917355298996
-0.25980544090270996,2.0283937454223633,-0.19965042173862457
-0.247432142496109,2.045541763305664,-0.20181643962860107
-0.23117457330226898,2.031728506088257,-0.20094241201877594
-0.21620789170265198,2.025493621826172,-0.20081333816051483
-0.2005428820848465,2.0114212036132812,-0.1998586654663086
-0.1857633739709854,2.004986524581909,-0.19954948127269745
-0.171066552400589,1.9984456300735474,-0.19923730194568634
-0.15418817102909088,1.9646834135055542,-0.19621747732162476
-0.14107617735862732,1.9734176397323608,-0.19744080305099487
-0.1268465518951416,1.9665559530258179,-0.19703854620456696
-0.11267503350973129,1.959605097770691,-0.19653168320655823
-0.09823133051395416,1.9447884559631348,-0.19524294137954712
-0.08343067020177841,1.9221103191375732,-0.19317397475242615
-0.0703166052699089,1.9303866624832153,-0.19422025978565216
-0.05732377618551254,1.9463515281677246,-0.1959608644247055
-0.04303485155105591,1.9156103134155273,-0.1929210126399994
-0.02953897789120674,1.9080828428268433,-0.19222722947597504
-0.016183070838451385,1.9237805604934692,-0.1938839554786682
-0.002778251888230443,1.9082914590835571,-0.1924057900905609
0.010535807348787785,1.9160388708114624,-0.19317542016506195
0.02374563366174698,1.9081557989120483,-0.19230639934539795
0.037164341658353806,1.9157248735427856,-0.19300392270088196
0.05027984827756882,1.907658338546753,-0.1921355128288269
0.06404955685138702,1.915031909942627,-0.19283072650432587
0.07736435532569885,1.9145605564117432,-0.19262924790382385
0.09066730737686157,1.9140028953552246,-0.1923689991235733
0.10394982993602753,1.9133535623550415,-0.19210907816886902
0.11867102235555649,1.9358882904052734,-0.19418372213840485
0.1307627260684967,1.911760926246643,-0.19158409535884857
0.1439938247203827,1.9108487367630005,-0.19119688868522644
0.1584981232881546,1.9253448247909546,-0.19231227040290833
0.17528441548347473,1.9629617929458618,-0.1957370638847351
0.18968622386455536,1.969477653503418,-0.19606053829193115
0.1964227259159088,1.8985308408737183,-0.18868693709373474
0.21298301219940186,1.9280929565429688,-0.19117960333824158
0.2222224473953247,1.8918863534927368,-0.1871323436498642
0.2305387556552887,1.8517799377441406,-0.1827242374420166
0.24746821820735931,1.8810265064239502,-0.1851692497730255
0.2607838809490204,1.8792870044708252,-0.18455784022808075
0.2788255214691162,1.912137746810913,-0.18719981610774994
0.2943742573261261,1.9256160259246826,-0.18793071806430817
0.3052578270435333,1.9082471132278442,-0.18565787374973297
0.31980809569358826,1.913823127746582,-0.18562664091587067
0.3357760012149811,1.9269537925720215,-0.18631821870803833
0.35483992099761963,1.9552544355392456,-0.18830551207065582
0.3719061017036438,1.97196364402771,-0.18918001651763916
0.39008280634880066,1.992326021194458,-0.1903921514749527
0.41557544469833374,2.046825408935547,-0.19484345614910126
0.4273950159549713,2.0325686931610107,-0.1926998645067215
0.4474385976791382,2.05623722076416,-0.19402173161506653
0.4633280038833618,2.0608017444610596,-0.19355027377605438
0.47762760519981384,2.0576467514038086,-0.19235436618328094
0.49375152587890625,2.061950922012329,-0.19185960292816162
0.5117185115814209,2.073716878890991,-0.1919803023338318
0.5357598662376404,2.1079325675964355,-0.19407014548778534
0.5532029867172241,2.115617513656616,-0.19371676445007324
0.5719951391220093,2.126865863800049,-0.19367064535617828
0.5930443406105042,2.145456552505493,-0.1942836493253708
0.6099286079406738,2.1489505767822266,-0.19339978694915771
0.6314576268196106,2.1672017574310303,-0.19378690421581268
0.6486548185348511,2.1703872680664062,-0.1928318291902542
0.6717677712440491,2.1920042037963867,-0.19349294900894165
0.6846391558647156,2.1800076961517334,-0.19116035103797913
0.7090725302696228,2.205075979232788,-0.19196215271949768
0.7402304410934448,2.248318910598755,-0.19428156316280365
0.7608526349067688,2.258026361465454,-0.19367040693759918
0.7766050696372986,2.252819299697876,-0.19177670776844025
0.8102240562438965,2.298999786376953,-0.19413910806179047
0.8311782479286194,2.308244228363037,-0.19330048561096191
0.8537647724151611,2.3209197521209717,-0.1927223652601242
0.8784370422363281,2.3368563652038574,-0.19234426319599152
0.9113683104515076,2.3745243549346924,-0.19371911883354187
0.9374082684516907,2.393860101699829,-0.19346222281455994
0.9623247981071472,2.409327983856201,-0.19286346435546875
0.9879295229911804,2.424395799636841,-0.19215916097164154
1.0275437831878662,2.471482992172241,-0.19390898942947388
1.0442955493927002,2.464653253555298,-0.19132867455482483
1.0841257572174072,2.5113883018493652,-0.19285498559474945
1.1171802282333374,2.539698362350464,-0.1928524225950241
1.147638201713562,2.560495376586914,-0.19221508502960205
1.173502802848816,2.5704004764556885,-0.19061364233493805
1.1908303499221802,2.562633991241455,-0.1876964122056961
1.221763014793396,2.5827879905700684,-0.18676261603832245
1.2499008178710938,2.5954935550689697,-0.18521825969219208
1.3464969396591187,2.7481582164764404,-0.1934395432472229
1.375691294670105,2.760061264038086,-0.19149065017700195
1.4175258874893188,2.79599928855896,-0.19114001095294952
1.4745595455169678,2.8590452671051025,-0.19247937202453613
1.4360172748565674,2.738685369491577,-0.18146932125091553
1.4433050155639648,2.7086007595062256,-0.1765599399805069
1.4006359577178955,2.585660219192505,-0.16566647589206696
1.3982712030410767,2.5382931232452393,-0.15970343351364136
1.4323936700820923,2.5597195625305176,-0.15808174014091492
1.4204654693603516,2.4994888305664062,-0.15144197642803192
1.430057168006897,2.476229429244995,-0.14698156714439392
1.4352480173110962,2.4463369846343994,-0.1421610713005066
1.4596482515335083,2.450254201889038,-0.13922345638275146
1.4842923879623413,2.4538748264312744,-0.13621564209461212
1.4931817054748535,2.4303882122039795,-0.13161830604076385
1.4535259008407593,2.3312277793884277,-0.12304285168647766
1.4104456901550293,2.2294437885284424,-0.1145593523979187
1.3925012350082397,2.167023181915283,-0.1080687865614891
1.407008409500122,2.1578147411346436,-0.1043594628572464
1.4167078733444214,2.142282724380493,-0.10034710168838501
1.4163719415664673,2.1098546981811523,-0.0953611508011818
1.4370396137237549,2.1101906299591064,-0.09186919778585434
1.439827799797058,2.0847811698913574,-0.08717818558216095
1.445367693901062,2.062074899673462,-0.08244688808917999
1.4678270816802979,2.0655019283294678,-0.07876034080982208
