X,Y,Z
-0.9028502702713013,2.788172483444214,-0.1996559053659439
-0.8705152869224548,2.7533795833587646,-0.19853512942790985
-0.8490482568740845,2.7517893314361572,-0.19979408383369446
-0.8138090372085571,2.705374240875244,-0.19765028357505798
-0.7912976145744324,2.6997461318969727,-0.19844652712345123
-0.7676841020584106,2.6902318000793457,-0.19896511733531952
-0.7447496652603149,2.680382013320923,-0.19942344725131989
-0.7198488116264343,2.6628544330596924,-0.19926446676254272
-0.686091959476471,2.61126708984375,-0.19641484320163727
-0.6694795489311218,2.623514413833618,-0.19835767149925232
-0.6396169066429138,2.5827157497406006,-0.1962849348783493
-0.6234464049339294,2.5945792198181152,-0.19819043576717377
-0.5999213457107544,2.5760316848754883,-0.197692409157753
-0.5834402441978455,2.5877113342285156,-0.19944794476032257
-0.5560566782951355,2.549806594848633,-0.19737917184829712
-0.5379632711410522,2.5535953044891357,-0.1985388845205307
-0.5123820900917053,2.5190279483795166,-0.19669899344444275
-0.4931604266166687,2.5148463249206543,-0.19709476828575134
-0.47686129808425903,2.5258407592773438,-0.19864943623542786
-0.45423588156700134,2.502229928970337,-0.19748455286026
-0.43649715185165405,2.50531005859375,-0.19843453168869019
-0.41520780324935913,2.485165596008301,-0.19753548502922058
-0.39404287934303284,2.464888334274292,-0.1964736133813858
-0.37554094195365906,2.459836483001709,-0.19661353528499603
-0.3594570755958557,2.470048666000366,-0.19798049330711365
-0.33663326501846313,2.4338974952697754,-0.19564081728458405
-0.31971514225006104,2.4361186027526855,-0.19637522101402283
-0.2973487377166748,2.395750045776367,-0.19350452721118927
-0.2769424617290497,2.366790771484375,-0.1915525197982788
-0.26808109879493713,2.438286781311035,-0.1977451890707016
-0.2511466443538666,2.4400441646575928,-0.19830118119716644
-0.23165078461170197,2.418459892272949,-0.19696567952632904
-0.2126937061548233,2.3967182636260986,-0.1954525262117386
-0.19531993567943573,2.390352725982666,-0.19519954919815063
-0.17980630695819855,2.407155752182007,-0.19684860110282898
-0.16042812168598175,2.3694732189178467,-0.19404800236225128
-0.145062655210495,2.3938357830047607,-0.1963312327861786
-0.12749378383159637,2.3792245388031006,-0.1952531635761261
-0.11088170111179352,2.380040407180786,-0.19544969499111176
-0.09368978440761566,2.365178346633911,-0.19436700642108917
-0.07685786485671997,2.35408353805542,-0.19360153377056122
-0.060890983790159225,2.381795883178711,-0.19603297114372253
-0.04351752623915672,2.3393430709838867,-0.1925371289253235
-0.027532894164323807,2.3668367862701416,-0.19480763375759125
-0.010897142812609673,2.3319315910339355,-0.19195149838924408
0.0053465478122234344,2.3475208282470703,-0.19326098263263702
0.022096499800682068,2.3629939556121826,-0.19456811249256134
0.03799983114004135,2.3316545486450195,-0.19186273217201233
0.054213155061006546,2.331345796585083,-0.19172148406505585
0.07042402774095535,2.3309240341186523,-0.19158023595809937
0.0875200480222702,2.353731393814087,-0.19335640966892242
0.10390657931566238,2.353076696395874,-0.1932135969400406
0.12014036625623703,2.3445327281951904,-0.192262202501297
0.13687649369239807,2.3514404296875,-0.1925876885652542
0.15396758913993835,2.3621137142181396,-0.19322888553142548
0.16785095632076263,2.326063632965088,-0.19005943834781647
0.1845996379852295,2.3326308727264404,-0.19038423895835876
0.2030199021100998,2.3545873165130615,-0.19179807603359222
0.21785229444503784,2.3376598358154297,-0.19005125761032104
0.2348296344280243,2.343881130218506,-0.19019585847854614
0.25196507573127747,2.349972724914551,-0.19033540785312653
0.26963862776756287,2.3598074913024902,-0.1907845139503479
0.2852990925312042,2.3501739501953125,-0.1895051747560501
0.2990606129169464,2.3288869857788086,-0.1873016357421875
0.31624045968055725,2.3345274925231934,-0.18727397918701172
0.33357352018356323,2.3400332927703857,-0.18723958730697632
0.35042205452919006,2.3415591716766357,-0.186893492937088
0.36805030703544617,2.3468027114868164,-0.1866869479417801
0.3842236399650574,2.344273567199707,-0.18587607145309448
0.4030858278274536,2.3569741249084473,-0.1862746626138687
0.41949087381362915,2.3541746139526367,-0.18545031547546387
0.437288373708725,2.358921766281128,-0.1852208524942398
0.4549790918827057,2.3635830879211426,-0.18484286963939667
0.47763383388519287,2.390970468521118,-0.1862252652645111
0.49577292799949646,2.395308494567871,-0.1858176290988922
0.5197884440422058,2.4261538982391357,-0.18745861947536469
0.5400069952011108,2.4377758502960205,-0.18758414685726166
0.567139744758606,2.4796721935272217,-0.1899016797542572
0.5907134413719177,2.50228214263916,-0.19070827960968018
0.6099180579185486,2.5057833194732666,-0.19006071984767914
0.6273672580718994,2.5015647411346436,-0.18883074820041656
0.6524826288223267,2.527430534362793,-0.18982164561748505
0.6777962446212769,2.5531256198883057,-0.19069033861160278
0.6986809968948364,2.5597140789031982,-0.19010472297668457
0.7227832078933716,2.5774073600769043,-0.1903427243232727
0.7471649050712585,2.5948894023895264,-0.19055557250976562
0.771619439125061,2.612222909927368,-0.1906663179397583
0.8018503785133362,2.648038387298584,-0.19204889237880707
0.8156865835189819,2.6276113986968994,-0.18932196497917175
0.8505402207374573,2.6739678382873535,-0.1913985311985016
0.8691571354866028,2.6680943965911865,-0.1897227168083191
0.9033968448638916,2.7102861404418945,-0.19132119417190552
0.9319106340408325,2.733708381652832,-0.19155438244342804
0.9584798812866211,2.749417543411255,-0.19120943546295166
0.9949543476104736,2.7904233932495117,-0.19255943596363068
1.0168849229812622,2.790942430496216,-0.1910732239484787
1.0466866493225098,2.8133440017700195,-0.19099324941635132
1.0754979848861694,2.8318088054656982,-0.19061972200870514
1.1092973947525024,2.8607418537139893,-0.19088517129421234
1.1453644037246704,2.892819404602051,-0.19129300117492676
1.1824897527694702,2.9285171031951904,-0.19182629883289337
1.21860671043396,2.9602644443511963,-0.19204580783843994
1.263176679611206,3.00946044921875,-0.19330526888370514
1.2242852449417114,2.8609249591827393,-0.18191011250019073
1.142843246459961,2.620138168334961,-0.16481703519821167
1.1478086709976196,2.5840063095092773,-0.16077429056167603
1.1718682050704956,2.5904579162597656,-0.1593734174966812
1.1817536354064941,2.5646491050720215,-0.15595991909503937
1.2010332345962524,2.5601282119750977,-0.15383225679397583
1.2252177000045776,2.5660886764526367,-0.15224051475524902
1.6056575775146484,3.3052210807800293,-0.1935911327600479
1.6355516910552979,3.3081343173980713,-0.1911846250295639
1.7125948667526245,3.4050405025482178,-0.19410313665866852
1.799220085144043,3.5187785625457764,-0.1977418065071106
1.4018479585647583,2.6966984272003174,-0.1493295431137085
1.4245901107788086,2.6937427520751953,-0.146833136677742
1.4430012702941895,2.684079170227051,-0.14398866891860962
1.4570529460906982,2.667740821838379,-0.1407642364501953
1.4315882921218872,2.579458713531494,-0.13377298414707184
1.397750735282898,2.47780442237854,-0.12619218230247498
1.356462836265564,2.366745710372925,-0.11824808269739151
1.3406530618667603,2.3039016723632812,-0.11289063096046448
1.3426369428634644,2.2711997032165527,-0.1089877113699913
1.364363431930542,2.2720160484313965,-0.10668877512216568
1.3446999788284302,2.206488847732544,-0.10130199044942856
1.3638567924499512,2.204014301300049,-0.09876861423254013
1.3750571012496948,2.1879568099975586,-0.09557905793190002
1.3727444410324097,2.1525838375091553,-0.09157109260559082
1.3953537940979004,2.156740665435791,-0.08923941105604172
1.3910349607467651,2.1177377700805664,-0.0850011482834816
1.409621238708496,2.1149237155914307,-0.08219405263662338
1.4298770427703857,2.115551233291626,-0.0795237198472023
1.4335318803787231,2.089564085006714,-0.07566831260919571
1.4471912384033203,2.080242395401001,-0.07243327051401138
1.4607768058776855,2.070838212966919,-0.06912022829055786
1.470825433731079,2.054232597351074,-0.06533171981573105
1.4516150951385498,2.0007951259613037,-0.060514699667692184
1.4698007106781006,1.9972882270812988,-0.05701923370361328
2.5045337677001953,3.531677484512329,0.14511863887310028
2.486982583999634,3.562869071960449,0.1516476571559906
2.5413827896118164,3.6959009170532227,0.16235630214214325
3.1746010780334473,4.695409297943115,0.2126145213842392
2.431245803833008,3.6520931720733643,0.16984039545059204
3.14550518989563,4.798559188842773,0.22878298163414001
3.100318193435669,4.808993816375732,0.23478680849075317
1.6248819828033447,2.5603933334350586,0.12774023413658142
1.6354725360870361,2.6181249618530273,0.13336266577243805
1.578847885131836,2.570406675338745,0.13348624110221863
3.031224489212036,5.016490936279297,0.2653035819530487
3.0081276893615723,5.057332992553711,0.27204179763793945
2.990797758102417,5.112553596496582,0.2794910967350006
2.879774808883667,5.009740829467773,0.27825528383255005
2.7924954891204834,4.937954902648926,0.278248131275177
2.7332537174224854,4.91274881362915,0.2807328701019287
2.6610875129699707,4.867621898651123,0.2818216383457184
2.591581106185913,4.825142860412598,0.2829705774784088
2.5372092723846436,4.805217742919922,0.28522148728370667
2.480163335800171,4.777583599090576,0.2869117259979248
2.423522472381592,4.753831386566162,0.28859826922416687
2.3516554832458496,4.698116302490234,0.28828510642051697
2.301470994949341,4.679237365722656,0.29001790285110474
1.228239893913269,2.5425148010253906,0.15917448699474335
1.2180330753326416,2.568890333175659,0.1623082309961319
1.192555546760559,2.5634946823120117,0.16342392563819885
1.1742924451828003,2.5717878341674805,0.1653670221567154
1.1547456979751587,2.576227903366089,0.167040154337883
1.1442965269088745,2.6020772457122803,0.1700724959373474
2.075533151626587,4.816126823425293,0.31719639897346497
2.0465290546417236,4.845236778259277,0.32149428129196167
2.0246002674102783,4.888003826141357,0.3266397714614868
2.0007059574127197,4.9270830154418945,0.33158019185066223
1.976780652999878,4.9701008796691895,0.3366556167602539
2.0205626487731934,5.1914496421813965,0.3539009988307953
2.0054919719696045,5.263874530792236,0.36105817556381226
1.9837380647659302,5.317687511444092,0.36693596839904785
1.9599931240081787,5.36778450012207,0.3726067841053009
1.931836485862732,5.410900115966797,0.3775879144668579
1.9060723781585693,5.465250492095947,0.3833927810192108
1.8746166229248047,5.50062894821167,0.38784554600715637
1.9163633584976196,5.753688335418701,0.4077111482620239
1.931764841079712,5.9371490478515625,0.4228091239929199
1.8916739225387573,5.9580206871032715,0.42616909742355347
1.8630659580230713,6.019879341125488,0.43246862292289734
1.8403544425964355,6.099967002868652,0.4400903582572937
1.8098728656768799,6.153575420379639,0.4458150565624237
1.785172939300537,6.229526042938232,0.45321181416511536
1.7598639726638794,6.309380054473877,0.4607585668563843
1.7258408069610596,6.363008499145508,0.4662923216819763
1.6892893314361572,6.412923812866211,0.471628874540329
1.6483376026153564,6.439478874206543,0.4752123951911926
0.8130092024803162,3.2706825733184814,0.2422003298997879
1.53998863697052,6.3857574462890625,0.47446030378341675
0.7826873064041138,3.3499579429626465,0.24958436191082
1.4136961698532104,6.254913330078125,0.46733275055885315
1.3645435571670532,6.241743564605713,0.4676484167575836
1.3186105489730835,6.239513874053955,0.46878328919410706
1.2758904695510864,6.25221586227417,0.47106119990348816
1.2144662141799927,6.173013210296631,0.46619126200675964
1.1575109958648682,6.116434574127197,0.46292832493782043
1.1050090789794922,6.074550628662109,0.460764080286026
1.0625953674316406,6.081993579864502,0.462338924407959
1.026045799255371,6.1236958503723145,0.46654340624809265
0.9728518128395081,6.065195560455322,0.46312451362609863
0.9269137978553772,6.056529521942139,0.4631884694099426
0.8813201785087585,6.043558120727539,0.4629301130771637
0.8392263054847717,6.053386688232422,0.4644383192062378
0.31296297907829285,2.3787965774536133,0.18281100690364838
0.29447662830352783,2.365420341491699,0.18209093809127808
0.2729613184928894,2.3248345851898193,0.1792382150888443
0.25633734464645386,2.3267009258270264,0.17956659197807312
0.23836468160152435,2.31292462348938,0.1786925345659256
0.22069241106510162,2.2990031242370605,0.17781232297420502
0.2105688601732254,2.3664069175720215,0.1832340508699417
0.19665445387363434,2.3988418579101562,0.18596559762954712
0.17787541449069977,2.376854181289673,0.18442389369010925
0.16439011693000793,2.424654960632324,0.1882304847240448
0.25399306416511536,4.1789422035217285,0.3246028423309326
0.2266949564218521,4.215588569641113,0.3276502788066864
0.3636411428451538,7.7688398361206055,0.6042189002037048
0.3079811632633209,7.7556071281433105,0.6036239862442017
0.251787394285202,7.69136905670166,0.598791778087616
0.19765692949295044,7.677355766296387,0.5977216362953186
0.14330193400382996,7.635704517364502,0.5945284366607666
0.08993751555681229,7.620930194854736,0.5934561491012573
0.035928547382354736,7.590209007263184,0.5911720991134644
-0.016793714836239815,7.5630035400390625,0.5891880989074707
-0.05611589178442955,6.125724792480469,0.4770860970020294
-0.09642220288515091,5.9850239753723145,0.46591952443122864
-0.1341772824525833,5.820705413818359,0.45294710993766785
-0.1739797443151474,5.796293258666992,0.4508887827396393
-0.21525749564170837,5.802720069885254,0.4512496888637543
-0.2556341290473938,5.801100254058838,0.4510088860988617
-0.28316208720207214,5.550300121307373,0.43116632103919983
-0.31395629048347473,5.41605281829834,0.42036372423171997
-0.3509780466556549,5.406014919281006,0.41923144459724426
-0.3880353271961212,5.387904644012451,0.4174885153770447
-0.42419376969337463,5.369592189788818,0.41575801372528076
-0.4604504108428955,5.354918479919434,0.4143308103084564
-0.4371917247772217,4.704047679901123,0.3634701073169708
-0.4606603980064392,4.611846923828125,0.35584911704063416
-0.49378859996795654,4.616309642791748,0.35570383071899414
-0.5223085880279541,4.58186674118042,0.3525846302509308
-0.5522924661636353,4.562712669372559,0.3506629467010498
-0.5839480757713318,4.558826446533203,0.349919855594635
-0.6131770014762878,4.539341449737549,0.3477547764778137
-0.6438074111938477,4.527306079864502,0.34616896510124207
-0.6726055145263672,4.507439613342285,0.34401556849479675
-0.702078104019165,4.4911909103393555,0.34215205907821655
-0.7307292819023132,4.470905780792236,0.34000128507614136
-0.7616769075393677,4.465816974639893,0.3389616012573242
-0.7894643545150757,4.445255756378174,0.3365841209888458
-0.8175317645072937,4.4244279861450195,0.3341940641403198
-0.8420624732971191,4.388186931610107,0.3306732177734375
-0.7355584502220154,3.694608449935913,0.27775469422340393
-0.7549049258232117,3.6589646339416504,0.2744382321834564
-0.7792314887046814,3.649961233139038,0.2730345129966736
-0.9472646713256836,4.2913055419921875,0.3200388550758362
-0.9885970950126648,4.338039875030518,0.32257115840911865
-1.0149810314178467,4.316042900085449,0.3199860453605652
-1.0431947708129883,4.301401138305664,0.3179587423801422
-1.07310152053833,4.2941460609436035,0.31649574637413025
-1.1008950471878052,4.279183387756348,0.31424659490585327
-1.1259469985961914,4.2566633224487305,0.31146156787872314
-1.152868390083313,4.241498947143555,0.3092319369316101
-1.1823720932006836,4.233493804931641,0.3075161874294281
-1.204299807548523,4.199062824249268,0.30390268564224243
-1.2336455583572388,4.190666198730469,0.30208542943000793
-1.2575026750564575,4.167426586151123,0.2991124987602234
-1.2810633182525635,4.144066333770752,0.2961556911468506
-1.3095656633377075,4.135284423828125,0.29423651099205017
-1.3406023979187012,4.133660316467285,0.2928297221660614
-1.3746097087860107,4.139047145843506,0.29188960790634155
-1.397344708442688,4.115115165710449,0.28872790932655334
-1.4147449731826782,4.076321125030518,0.28455039858818054
-1.4502898454666138,4.088783264160156,0.2839471101760864
-1.4707847833633423,4.05673885345459,0.2802320420742035
-1.5017365217208862,4.053848743438721,0.2785499393939972
-1.5212762355804443,4.021721839904785,0.2746904790401459
-1.5482653379440308,4.011568069458008,0.27235177159309387
-1.575461983680725,4.001125335693359,0.2699890434741974
-1.6003326177597046,3.983003616333008,0.26708418130874634
-1.6250613927841187,3.964714765548706,0.2641850411891937
-1.6506165266036987,3.950089693069458,0.261368989944458
-1.678486704826355,3.942734956741333,0.25904446840286255
-1.7035859823226929,3.927875518798828,0.25621360540390015
-1.730879545211792,3.9160983562469482,0.2535455524921417
-1.7452815771102905,3.8756847381591797,0.24904954433441162
-1.7682071924209595,3.856881618499756,0.24578063189983368
-1.7937966585159302,3.8452227115631104,0.2430173009634018
-1.8200942277908325,3.833024263381958,0.24016866087913513
-1.8467596769332886,3.820429563522339,0.23727071285247803
-1.865944266319275,3.7938992977142334,0.2334730625152588
-1.8775010108947754,3.7535223960876465,0.2287307232618332
-1.9060009717941284,3.7480666637420654,0.22616446018218994
-1.9392995834350586,3.748711347579956,0.22385594248771667
-1.9654606580734253,3.7352490425109863,0.22070477902889252
-1.982668161392212,3.7086498737335205,0.21665380895137787
-2.010768175125122,3.70255970954895,0.21381376683712006
-1.7086234092712402,3.0942575931549072,0.17645962536334991
-1.7302002906799316,3.0824086666107178,0.1735735386610031
-0.83855801820755,1.4711297750473022,0.08174441009759903
-0.8481736183166504,1.4656847715377808,0.08033671230077744
-0.8661361932754517,1.4733572006225586,0.07958610355854034
-0.8685178160667419,1.4538843631744385,0.07734055817127228
-0.8738990426063538,1.4416171312332153,0.07547420263290405
-0.8913781046867371,1.449312686920166,0.0746474638581276
-0.8932039141654968,1.4298992156982422,0.07233016192913055
-0.894598126411438,1.4106574058532715,0.07004129141569138
-0.8911460638046265,1.385156273841858,0.06743137538433075
-0.894023060798645,1.369418740272522,0.06529485434293747
-0.9035431146621704,1.3632375001907349,0.06357459723949432
-0.9493075013160706,1.4125537872314453,0.06435669958591461
-2.3874571323394775,3.5031352043151855,0.15571333467960358
-1.377205491065979,1.9903219938278198,0.08603845536708832
-1.3519055843353271,1.9271821975708008,0.08095068484544754
-1.3821300268173218,1.9782934188842773,-0.06139806658029556
-1.312919020652771,1.9073946475982666,-0.06186270713806152
-1.3016239404678345,1.9525774717330933,-0.06860357522964478
-1.2835001945495605,1.9551057815551758,-0.07111195474863052
-1.1583350896835327,1.8219647407531738,-0.07056634873151779
-1.244593620300293,1.9890179634094238,-0.07927176356315613
-0.8303312659263611,1.4406471252441406,-0.06472710520029068
-2.1431140899658203,3.7787790298461914,-0.17322640120983124
-1.7260308265686035,3.0951921939849854,-0.14465399086475372
-2.0446157455444336,3.730544090270996,-0.17763569951057434
-2.0498766899108887,3.803014039993286,-0.18426825106143951
-2.011653423309326,3.796701669692993,-0.1871553212404251
-1.9837652444839478,3.8111603260040283,-0.19092047214508057
-1.9366141557693481,3.786999464035034,-0.19268907606601715
-1.8926548957824707,3.7653560638427734,-0.1944313794374466
-1.7933720350265503,3.6315457820892334,-0.1902187317609787
-1.8124247789382935,3.7393276691436768,-0.19860710203647614
-1.4989644289016724,3.1495628356933594,-0.16950739920139313
-1.4934906959533691,3.195134162902832,-0.17415738105773926
-1.457761287689209,3.1771368980407715,-0.1753113716840744
-1.4779541492462158,3.2835118770599365,-0.1833193153142929
-1.4371923208236694,3.254551887512207,-0.18378376960754395
-1.4156657457351685,3.2680752277374268,-0.1866210252046585
-1.410929799079895,3.320895195007324,-0.19166067242622375
-1.3615175485610962,3.2695963382720947,-0.19061122834682465
-1.338139533996582,3.27908992767334,-0.19306597113609314
-1.3036514520645142,3.2592294216156006,-0.19374151527881622
-1.2690609693527222,3.239222288131714,-0.1944001317024231
-1.219223141670227,3.178934097290039,-0.19245661795139313
-1.1990958452224731,3.194779396057129,-0.19509975612163544
-1.1565883159637451,3.1480345726013184,-0.19385883212089539
-1.1293530464172363,3.141207218170166,-0.19504627585411072
-1.0962635278701782,3.1197350025177,-0.19523701071739197
-1.062545657157898,3.094175100326538,-0.19508668780326843
-1.035719633102417,3.086690902709961,-0.19604571163654327
-1.002034068107605,3.0566656589508057,-0.1955411285161972
-0.9698887467384338,3.0300774574279785,-0.19519908726215363
-0.9316182136535645,2.984818935394287,-0.1935385912656784
-0.9103056788444519,2.9912800788879395,-0.19519862532615662
-0.8828062415122986,2.9750137329101562,-0.19534635543823242
-0.8567086458206177,2.962242603302002,-0.19571347534656525
-0.8252707123756409,2.9305760860443115,-0.19472482800483704
-0.8024401068687439,2.928731679916382,-0.19565343856811523
-0.7773792147636414,2.9192535877227783,-0.19608867168426514
-0.7462621331214905,2.8829994201660156,-0.19468382000923157
-0.7242187261581421,2.8804848194122314,-0.19555053114891052
-0.7019623517990112,2.877882242202759,-0.19626463949680328
-0.6725799441337585,2.84477162361145,-0.1948818862438202
-0.6496239900588989,2.838024854660034,-0.1953071653842926
-0.6231321096420288,2.811951160430908,-0.19437502324581146
-0.6018960475921631,2.808523416519165,-0.19498510658740997
-0.5805157423019409,2.8049912452697754,-0.19545988738536835
-0.5576654076576233,2.793659210205078,-0.19539578258991241
-0.53265380859375,2.7706916332244873,-0.194521963596344
-0.5105475783348083,2.7589309215545654,-0.19441746175289154
-0.487184077501297,2.739341974258423,-0.1937190741300583
-0.4652918577194214,2.7272775173187256,-0.19343380630016327
-0.4423368275165558,2.707350492477417,-0.19259238243103027
-0.4218796193599701,2.702669143676758,-0.192844957113266
-0.40245911478996277,2.701633930206299,-0.19335326552391052
-0.3759037256240845,2.6503195762634277,-0.19020423293113708
-0.3562174141407013,2.6451311111450195,-0.19025202095508575
-0.33563700318336487,2.6320672035217285,-0.18973904848098755
-0.31728172302246094,2.6343002319335938,-0.19033183157444
-0.2955656349658966,2.6093358993530273,-0.1889708936214447
-0.2757256329059601,2.595796823501587,-0.188371479511261
-0.2590618133544922,2.6131441593170166,-0.18991298973560333
-0.23790477216243744,2.5838263034820557,-0.18807029724121094
-0.22190643846988678,2.6086807250976562,-0.19017715752124786
-0.2046671360731125,2.6256906986236572,-0.19173099100589752
-0.18694332242012024,2.6347968578338623,-0.19266091287136078
-0.16755248606204987,2.6204674243927,-0.19177791476249695
-0.14701934158802032,2.582660436630249,-0.18918275833129883
-0.13061141967773438,2.614729881286621,-0.19171400368213654
-0.1117689311504364,2.60778546333313,-0.19139908254146576
-0.09306340664625168,2.592911720275879,-0.19045770168304443
-0.0749942734837532,2.593492031097412,-0.1905318945646286
-0.056750647723674774,2.5861566066741943,-0.1900337040424347
-0.03861289098858833,2.578693151473999,-0.18953506648540497
-0.020431824028491974,2.5866875648498535,-0.19018277525901794
-0.0024364148266613483,2.594555377960205,-0.19079692661762238
0.015580598264932632,2.586724281311035,-0.1901402622461319
0.033465608954429626,2.578768730163574,-0.18948420882225037
0.05186184495687485,2.6018497943878174,-0.19111748039722443
0.06927835196256638,2.5780675411224365,-0.1893177181482315
0.0872311070561409,2.5697340965270996,-0.188639834523201
0.10440327972173691,2.553516149520874,-0.1872468739748001
0.12356553226709366,2.5838818550109863,-0.18927794694900513
0.14151741564273834,2.582979202270508,-0.18902453780174255
0.15756404399871826,2.550842761993408,-0.18649646639823914
0.17671360075473785,2.565227746963501,-0.18736830353736877
0.195663720369339,2.5795106887817383,-0.18809236586093903
0.21289071440696716,2.570357322692871,-0.18711556494235992
0.23143959045410156,2.5766074657440186,-0.18726833164691925
0.24785500764846802,2.559453248977661,-0.18572963774204254
0.26755765080451965,2.5731680393218994,-0.18643538653850555
0.2853374183177948,2.5712990760803223,-0.18585672974586487
0.30310386419296265,2.569307327270508,-0.18527762591838837
0.3238009512424469,2.5903844833374023,-0.1863659918308258
0.3418121635913849,2.588111639022827,-0.1857779622077942
0.3601241409778595,2.585669755935669,-0.18517954647541046
0.38020768761634827,2.5985989570617676,-0.18554748594760895
0.3969373404979706,2.5882649421691895,-0.18425656855106354
0.414844274520874,2.585508108139038,-0.18351340293884277
0.432821661233902,2.5826122760772705,-0.18276651203632355
0.44136568903923035,2.5258536338806152,-0.1782284677028656
0.4716077744960785,2.591773748397827,-0.1821938157081604
0.5017426013946533,2.6536262035369873,-0.18585191667079926
0.5260892510414124,2.680750608444214,-0.18705835938453674
0.5470656752586365,2.688546657562256,-0.1869099736213684
0.5689532160758972,2.6999998092651367,-0.18701696395874023
0.5877993702888489,2.6960372924804688,-0.1858949363231659
0.6097241640090942,2.7072227001190186,-0.18583592772483826
0.6390291452407837,2.748572826385498,-0.18783168494701385
0.6581677198410034,2.744130849838257,-0.18668697774410248
0.6753636598587036,2.7319986820220947,-0.18501222133636475
0.7030768394470215,2.7613015174865723,-0.18600548803806305
0.7298951148986816,2.7866697311401367,-0.186737522482872
0.7512218356132507,2.7891592979431152,-0.18592144548892975
0.7779108881950378,2.810246706008911,-0.18633736670017242
0.8037413358688354,2.827385187149048,-0.18643821775913239
0.8342872858047485,2.8592560291290283,-0.1873847395181656
0.8661009073257446,2.89467191696167,-0.18856002390384674
0.8862174153327942,2.8886773586273193,-0.1870100051164627
0.9133325815200806,2.904851198196411,-0.18689391016960144
0.9356646537780762,2.906033992767334,-0.1857292205095291
0.9582281112670898,2.906994104385376,-0.18447676301002502
0.9856008887290955,2.9226372241973877,-0.18416674435138702
1.0110414028167725,2.930549144744873,-0.18333901464939117
1.0314263105392456,2.923546552658081,-0.18158191442489624
1.0327675342559814,2.865220069885254,-0.17655283212661743
1.0656651258468628,2.8948535919189453,-0.17695839703083038
1.1463979482650757,3.0480222702026367,-0.18477387726306915
1.1941754817962646,3.109257698059082,-0.18692250549793243
1.218371033668518,3.1083624362945557,-0.18525253236293793
1.2639974355697632,3.1617414951324463,-0.18672655522823334
1.291379690170288,3.167642593383789,-0.18535448610782623
1.3287773132324219,3.19456148147583,-0.18512216210365295
1.3859783411026,3.2679800987243652,-0.18755082786083221
1.1372014284133911,2.632033586502075,-0.14950354397296906
1.1548891067504883,2.6244328022003174,-0.147525817155838
1.1667159795761108,2.6022183895111084,-0.14469170570373535
1.173803687095642,2.569148302078247,-0.14125189185142517
1.1928013563156128,2.56480073928833,-0.13937143981456757
1.2200331687927246,2.577995777130127,-0.13841715455055237
1.2275972366333008,2.5485572814941406,-0.1351400911808014
1.772615671157837,3.6156578063964844,-0.18928606808185577
1.7974270582199097,3.603553295135498,-0.18610931932926178
1.906130075454712,3.7587039470672607,-0.191476508975029
1.9605286121368408,3.8011834621429443,-0.19087375700473785
1.3814594745635986,2.633347749710083,-0.13027934730052948
1.3771140575408936,2.5827882289886475,-0.12582111358642578
1.3477811813354492,2.4879021644592285,-0.11929119378328323
1.3294109106063843,2.4135560989379883,-0.1137666404247284
1.3099294900894165,2.33966064453125,-0.10839039832353592
1.296437382698059,2.280156373977661,-0.10373537987470627
1.3115077018737793,2.2716257572174072,-0.10143732279539108
1.3312597274780273,2.2692699432373047,-0.099312923848629
1.3310009241104126,2.233250379562378,-0.09569213539361954
1.3456313610076904,2.224567413330078,-0.09328794479370117
1.3484680652618408,2.1955106258392334,-0.08997921645641327
1.3595980405807495,2.1795408725738525,-0.08718522638082504
1.3821519613265991,2.1839120388031006,-0.0851830393075943
1.3884443044662476,2.161479949951172,-0.08205384761095047
1.394932508468628,2.138777494430542,-0.07887778431177139
1.417563557624817,2.1426944732666016,-0.07667947560548782
1.4272366762161255,2.1269614696502686,-0.07373154908418655
1.437583565711975,2.110637903213501,-0.07063966244459152
1.449270486831665,2.0979814529418945,-0.06763116270303726
1.4496248960494995,2.069286346435547,-0.06409074366092682
1.463951826095581,2.059269428253174,-0.060999538749456406
1.463243007659912,2.0310518741607666,-0.057397350668907166
1.4539693593978882,1.9896200895309448,-0.05328787863254547
1.480869174003601,1.99900484085083,-0.05049526318907738
3.1763882637023926,4.444161415100098,0.15653707087039948
2.5229811668395996,3.586174964904785,0.13121293485164642
2.4997992515563965,3.606931447982788,0.13652177155017853
2.506960153579712,3.6776111125946045,0.14369966089725494
2.434908390045166,3.62717866897583,0.14579260349273682
3.1299819946289062,4.735384941101074,0.19543597102165222
3.0824930667877197,4.742917537689209,0.2008385956287384
3.0886902809143066,4.826937198638916,0.2091052085161209
1.6372852325439453,2.5993990898132324,0.11507289856672287
1.6133755445480347,2.604996919631958,0.11771662533283234
3.0510435104370117,5.00618314743042,0.23055656254291534
3.0074570178985596,5.0140485763549805,0.23516780138015747
2.997786045074463,5.083135604858398,0.24249118566513062
2.959993839263916,5.104991436004639,0.24756218492984772
2.8507964611053467,4.996484279632568,0.24599117040634155
2.7444980144500732,4.89049768447876,0.24431823194026947
2.667776584625244,4.839171409606934,0.2451852709054947
2.621453046798706,4.837591648101807,0.24837331473827362
2.574775457382202,4.831456661224365,0.25118786096572876
2.518385410308838,4.808083534240723,0.2530042231082916
2.4452853202819824,4.753501892089844,0.2530227303504944
2.3926925659179688,4.736314296722412,0.2549629211425781
2.3266189098358154,4.686303615570068,0.2549465596675873
1.253536343574524,2.5704221725463867,0.14127150177955627
1.2346291542053223,2.579453706741333,0.14313794672489166
1.200870156288147,2.556500196456909,0.14321021735668182
1.191178798675537,2.582427978515625,0.14596258103847504
1.1647690534591675,2.5729496479034424,0.146744042634964
1.157039999961853,2.60624361038208,0.14984732866287231
1.1348283290863037,2.607388496398926,0.15111656486988068
2.059725046157837,4.825106143951416,0.28179964423179626
2.0321388244628906,4.853535175323486,0.2855919301509857
2.013401508331299,4.907571315765381,0.29088670015335083
1.9864438772201538,4.943606853485107,0.294993132352829
1.994852066040039,5.070206165313721,0.30456799268722534
2.0127646923065186,5.222106456756592,0.31569963693618774
1.9983546733856201,5.294213771820068,0.32209834456443787
1.9693723917007446,5.3340020179748535,0.32646244764328003
1.9519885778427124,5.406609058380127,0.33275020122528076
1.9078459739685059,5.405638217926025,0.33453506231307983
1.8943225145339966,5.488670349121094,0.3414944112300873
1.872205376625061,5.549615383148193,0.3471376597881317
1.8368254899978638,5.577689170837402,0.3506270945072174
1.908747673034668,5.939568996429443,0.37509971857070923
1.8777495622634888,5.9901533126831055,0.380037784576416
1.8576009273529053,6.0737833976745605,0.38707342743873596
1.8319746255874634,6.142453670501709,0.39320841431617737
1.7994502782821655,6.192515850067139,0.39805009961128235
1.7638020515441895,6.239083766937256,0.4025772511959076
1.7273623943328857,6.281473636627197,0.4068436324596405
1.7085416316986084,6.387415885925293,0.4152422547340393
1.6699228286743164,6.421643257141113,0.4190187454223633
0.824871838092804,3.265650987625122,0.21385543048381805
1.5568898916244507,6.357425212860107,0.4176061451435089
0.7949277758598328,3.3491051197052,0.22066842019557953
1.4561103582382202,6.333012104034424,0.41854915022850037
1.4069479703903198,6.320028781890869,0.4189622104167938
1.3440868854522705,6.241888046264648,0.41505372524261475
1.29365873336792,6.224555015563965,0.4149644374847412
1.2494795322418213,6.233469009399414,0.4165396988391876
1.188242793083191,6.154043674468994,0.41221874952316284
1.1332446336746216,6.096921920776367,0.40936964750289917
1.0907549858093262,6.104564666748047,0.41087856888771057
1.0407813787460327,6.073642730712891,0.40976542234420776
1.0015631914138794,6.103850841522217,0.41253331303596497
0.9523680806159973,6.072189807891846,0.41113725304603577
0.9084656834602356,6.070950031280518,0.4118126928806305
0.8486125469207764,5.953572750091553,0.40460488200187683
0.8069275617599487,5.963217735290527,0.40604862570762634
0.302301824092865,2.358081340789795,0.16081440448760986
0.2922556698322296,2.414294481277466,0.16484826803207397
0.26511165499687195,2.32720685005188,0.15910254418849945
0.25339895486831665,2.3716070652008057,0.16234859824180603
0.23261237144470215,2.330634832382202,0.15975764393806458
0.2117956429719925,2.2856338024139404,0.15689346194267273
0.2020774632692337,2.3608226776123047,0.16218964755535126
0.18917272984981537,2.40878963470459,0.16560284793376923
0.1681026965379715,2.3517355918884277,0.16180332005023956
0.15172094106674194,2.352834939956665,0.16200879216194153
0.24115723371505737,4.201885223388672,0.2895779311656952
0.3923499286174774,7.780243396759033,0.5366642475128174
0.33666110038757324,7.7516279220581055,0.5347893834114075
0.2818900942802429,7.734296798706055,0.5337080359458923
0.2270328402519226,7.704894065856934,0.531818687915802
0.17112722992897034,7.647851467132568,0.5280484557151794
0.11782995611429214,7.641045570373535,0.5277680158615112
0.06415673345327377,7.587110996246338,0.5242038369178772
0.01138657983392477,7.602971076965332,0.5251390337944031
-0.041423190385103226,7.571700572967529,0.5228443741798401
-0.07703586667776108,6.1372528076171875,0.42370229959487915
-0.11428026854991913,5.859944820404053,0.40449294447898865
-0.1540049910545349,5.823957443237305,0.40196412801742554
-0.19391180574893951,5.807182312011719,0.40069475769996643
-0.23507383465766907,5.829092025756836,0.40188243985176086
-0.2759966552257538,5.839031219482422,0.4022621512413025
-0.29410290718078613,5.412817478179932,0.37262943387031555
-0.3327086269855499,5.426226615905762,0.3733033835887909
-0.3693355619907379,5.40825891494751,0.3718370795249939
-0.4056779146194458,5.39005708694458,0.3702593743801117
-0.4409451484680176,5.363871097564697,0.36799508333206177
-0.4713735580444336,5.279167652130127,0.3617342710494995
-0.4455304443836212,4.627983570098877,0.31674137711524963
-0.4756867587566376,4.605431079864502,0.3148396909236908
-0.5067867040634155,4.594310283660889,0.31373724341392517
-0.5375646948814392,4.583011150360107,0.31250110268592834
-0.5667499303817749,4.555985450744629,0.31010517477989197
-0.5960088968276978,4.536581993103027,0.30825766921043396
-0.6263684630393982,4.524674415588379,0.3069324493408203
-0.6566367149353027,4.512558937072754,0.3056088089942932
-0.687400221824646,4.504086494445801,0.3045472204685211
-0.7151272892951965,4.476154804229736,0.3019876480102539
-0.7470612525939941,4.478908061981201,0.3014821410179138
-0.7763521075248718,4.466080665588379,0.2999429702758789
-0.8032090663909912,4.437633514404297,0.2973630428314209
-0.8311499953269958,4.416690826416016,0.2953060567378998
-0.8550881743431091,4.3764495849609375,0.29195699095726013
-0.7438170909881592,3.6713638305664062,0.24420605599880219
-0.7673039436340332,3.658630132675171,0.2426680028438568
-0.9435785412788391,4.350497245788574,0.28774499893188477
-0.9720637798309326,4.3363142013549805,0.28599777817726135
-1.002113699913025,4.329549789428711,0.2847561836242676
-1.0305200815200806,4.314950942993164,0.28289785981178284
-1.0598101615905762,4.307944297790527,0.2814646363258362
-1.081356167793274,4.270514965057373,0.27806490659713745
-1.1088634729385376,4.255492210388184,0.27612826228141785
-1.1404532194137573,4.255302429199219,0.27516087889671326
-1.1705466508865356,4.247219085693359,0.2736780345439911
-1.1897552013397217,4.205528259277344,0.26987358927726746
-1.218271255493164,4.197461128234863,0.2682463526725769
-1.246848464012146,4.1891655921936035,0.2666124403476715
-1.2713576555252075,4.165594100952148,0.2640020549297333
-1.3007937669754028,4.1566033363342285,0.26231205463409424
-1.3314754962921143,4.155178070068359,0.2610144019126892
-1.3521593809127808,4.123993396759033,0.2577943503856659
-1.3700404167175293,4.085311412811279,0.2541314959526062
-1.411002278327942,4.112709999084473,0.25455403327941895
-1.431826114654541,4.080834865570068,0.25131216645240784
-1.4524002075195312,4.048828601837158,0.24799565970897675
-1.4768874645233154,4.031778335571289,0.24553459882736206
-1.5039780139923096,4.021873950958252,0.24352054297924042
-1.5317319631576538,4.011510372161865,0.2414519488811493
-1.5624207258224487,4.008155822753906,0.23980514705181122
-1.5904052257537842,3.9972643852233887,0.23763427138328552
-1.614201307296753,3.979429244995117,0.23498477041721344
-1.6377966403961182,3.9614667892456055,0.2323460429906845
-1.6605960130691528,3.939401626586914,0.2294316291809082
-1.6879521608352661,3.9278907775878906,0.22713762521743774
-1.715161681175232,3.9162240028381348,0.224747896194458
-1.7491258382797241,3.9226768016815186,0.22335287928581238
-1.7607399225234985,3.879089832305908,0.21912075579166412
-1.7942649126052856,3.881037473678589,0.21740126609802246
-1.8145769834518433,3.8544814586639404,0.21409770846366882
-1.8273611068725586,3.8140034675598145,0.20990580320358276
-1.8662585020065308,3.8300158977508545,0.20884016156196594
-1.8783646821975708,3.7894322872161865,0.20464900135993958
-1.8976603746414185,3.762481212615967,0.20117716491222382
-1.9197866916656494,3.742617130279541,0.1980689913034439
-1.9444044828414917,3.7300333976745605,0.19528336822986603
-1.9768887758255005,3.7307422161102295,0.19313865900039673
-1.995466947555542,3.7032697200775146,0.18947462737560272
-2.039860248565674,3.723712205886841,0.18824832141399384
-1.7151436805725098,3.082909345626831,0.1538817137479782
-1.7430295944213867,3.0852973461151123,0.1520182192325592
-0.8474701642990112,1.475564956665039,0.07167308032512665
-0.8576710820198059,1.469722032546997,0.07037194818258286
-0.8712154030799866,1.4708770513534546,0.0693662092089653
-0.8688232898712158,1.4450955390930176,0.06709165871143341
-0.8788551688194275,1.439081072807312,0.06569370627403259
-0.9010833501815796,1.4529660940170288,0.06515935808420181
-0.9021138548851013,1.433976173400879,0.0631469115614891
-0.8907291293144226,1.3950397968292236,0.060246825218200684
-0.8770474195480347,1.3528448343276978,0.057228438556194305
-0.9265069961547852,1.4091976881027222,0.058334022760391235
-0.9401475787162781,1.4095944166183472,0.057012300938367844
-2.4055304527282715,3.552938222885132,0.14012311398983002
-1.4565293788909912,2.092580556869507,0.0781855508685112
-1.5341895818710327,2.171752452850342,0.07863865792751312
-1.380759835243225,1.960404396057129,-0.0531003400683403
-1.6355745792388916,2.358727216720581,-0.06693894416093826
-1.2854812145233154,1.8837529420852661,-0.05580556392669678
-1.250518798828125,1.8601962327957153,-0.05724706873297691
-1.1567728519439697,1.7489778995513916,-0.05580509081482887
-1.2950788736343384,1.989744782447815,-0.06565972417593002
-1.1293885707855225,1.7620093822479248,-0.05994672700762749
-1.347304344177246,2.1369683742523193,-0.07485628128051758
-0.84877610206604,1.484351634979248,-0.059888046234846115
-2.1136255264282227,3.760319709777832,-0.1547464281320572
-1.7073190212249756,3.088369607925415,-0.12947162985801697
-2.0602567195892334,3.7895326614379883,-0.16170236468315125
-2.028715133666992,3.797516107559204,-0.16481834650039673
-2.005028247833252,3.81874942779541,-0.16845808923244476
-1.9712095260620117,3.818610191345215,-0.1710788905620575
-1.9469099044799805,3.8396644592285156,-0.1746441274881363
-1.8996963500976562,3.8151962757110596,-0.17603799700737
-1.8828824758529663,3.849465847015381,-0.18006828427314758
-1.8610622882843018,3.8729143142700195,-0.1835806518793106
-1.839909315109253,3.9001336097717285,-0.1872248351573944
-1.5639655590057373,3.3785088062286377,-0.16419099271297455
-1.5509567260742188,3.4144022464752197,-0.1679345667362213
-1.5128072500228882,3.392936944961548,-0.1688036173582077
-1.4229016304016113,3.253364086151123,-0.1636359542608261
-1.4132113456726074,3.2957165241241455,-0.16752764582633972
-1.411017656326294,3.3558807373046875,-0.17234227061271667
-1.3663853406906128,3.315176010131836,-0.17198707163333893
-1.3633769750595093,3.375286340713501,-0.17678380012512207
-1.363471269607544,3.446566581726074,-0.18215972185134888
-1.3501418828964233,3.485189437866211,-0.1858479082584381
-1.3230879306793213,3.4870927333831787,-0.18755844235420227
-1.3186488151550293,3.5511491298675537,-0.1926579624414444
-1.2518688440322876,3.4467334747314453,-0.18846528232097626
-1.2179865837097168,3.4297804832458496,-0.1890052706003189
-1.1812222003936768,3.401243209838867,-0.18885104358196259
-1.1437416076660156,3.3686423301696777,-0.18844325840473175
-1.1121279001235962,3.3544628620147705,-0.18898195028305054
-1.0737911462783813,3.317671775817871,-0.18815293908119202
-1.039719820022583,3.291616439819336,-0.18790459632873535
-1.0052140951156616,3.26143217086792,-0.18738801777362823
-0.9801737666130066,3.2608084678649902,-0.18855644762516022
-0.9525134563446045,3.252657890319824,-0.18914969265460968
-0.9171060919761658,3.2181456089019775,-0.18822090327739716
-0.8903946280479431,3.20936918258667,-0.18874870240688324
-0.8640368580818176,3.2003278732299805,-0.18925170600414276
-0.8307809829711914,3.164710760116577,-0.18812595307826996
-0.8132392764091492,3.189316987991333,-0.19048352539539337
-0.7837203741073608,3.1685104370117188,-0.1901533603668213
-0.7525050640106201,3.1359071731567383,-0.18907850980758667
-0.7288507223129272,3.1334104537963867,-0.18981531262397766
-0.6991196274757385,3.104146718978882,-0.18884284794330597
-0.6754631996154785,3.101336717605591,-0.18940456211566925
-0.6467216610908508,3.07552433013916,-0.18857355415821075
-0.6222227215766907,3.0645999908447266,-0.18862876296043396
-0.5994054675102234,3.0611371994018555,-0.1891469657421112
-0.5728704333305359,3.038388967514038,-0.18837468326091766
-0.5486739277839661,3.026951313018799,-0.18825143575668335
-0.5283601880073547,3.038426160812378,-0.18956993520259857
-0.5008512139320374,3.0035107135772705,-0.18797975778579712
-0.4812014698982239,3.0145676136016846,-0.18927061557769775
-0.45659321546554565,2.9946882724761963,-0.18851573765277863
-0.4333154857158661,2.982346534729004,-0.18819169700145721
-0.4093874394893646,2.9660072326660156,-0.18762633204460144
-0.38769927620887756,2.9610161781311035,-0.18777349591255188
-0.3642096519470215,2.9403884410858154,-0.18693266808986664
-0.34269440174102783,2.9350907802581787,-0.18695847690105438
-0.3195450007915497,2.914141893386841,-0.18594105541706085
-0.29712992906570435,2.8968894481658936,-0.18516355752944946
-0.2736319899559021,2.867847204208374,-0.18363958597183228
-0.2495647817850113,2.8230538368225098,-0.1811007410287857
-0.22888682782649994,2.813049793243408,-0.18069997429847717
-0.2100801020860672,2.8262252807617188,-0.18174105882644653
-0.19081324338912964,2.8353865146636963,-0.18253453075885773
-0.17073199152946472,2.8366477489471436,-0.18283136188983917
-0.15179938077926636,2.8533198833465576,-0.18412815034389496
-0.13119377195835114,2.838719129562378,-0.18332679569721222
-0.11257835477590561,2.8707191944122314,-0.1854705661535263
-0.09128784388303757,2.832465171813965,-0.18308405578136444
-0.07183004170656204,2.8564131259918213,-0.1847279816865921
-0.05239814147353172,2.8802196979522705,-0.18637171387672424
-0.03210650756955147,2.857123613357544,-0.18491734564304352
-0.012096794322133064,2.8260953426361084,-0.18286485970020294
0.0076674423180520535,2.8650941848754883,-0.1853524148464203
0.02808322384953499,2.8805623054504395,-0.18632559478282928
0.04770485311746597,2.856914520263672,-0.18477819859981537
0.06717770546674728,2.8409314155578613,-0.1836887151002884
0.08715838193893433,2.848200559616089,-0.1840054839849472
0.10663273930549622,2.8397483825683594,-0.18331563472747803
0.12772701680660248,2.8701062202453613,-0.18513889610767365
0.1463974416255951,2.838000774383545,-0.18293946981430054
0.16564790904521942,2.829146146774292,-0.18222200870513916
0.18522827327251434,2.8279545307159424,-0.18187230825424194
0.20477493107318878,2.8266286849975586,-0.18152303993701935
0.22225186228752136,2.797957420349121,-0.17942754924297333
0.24273569881916046,2.8041036128997803,-0.17957060039043427
0.2622336745262146,2.802370309829712,-0.1792110800743103
0.28242266178131104,2.8082756996154785,-0.17920537292957306
0.3039318919181824,2.825667142868042,-0.17993801832199097
0.32441410422325134,2.8312692642211914,-0.17992404103279114
0.34628233313560486,2.8444204330444336,-0.18038903176784515
0.3720076382160187,2.888378620147705,-0.18281473219394684
0.3908251225948334,2.878066301345825,-0.18165740370750427
0.4095154404640198,2.8676323890686035,-0.18050093948841095
0.43456271290779114,2.8994715213775635,-0.1820061206817627
0.45085060596466064,2.8694040775299072,-0.179621621966362
0.4708346128463745,2.8662352561950684,-0.17894244194030762
0.4056288003921509,2.367236852645874,-0.14728832244873047
0.520574688911438,2.917149305343628,-0.18088217079639435
0.5407501459121704,2.9135289192199707,-0.18004179000854492
0.5654304027557373,2.9327213764190674,-0.18061190843582153
0.5961190462112427,2.978403329849243,-0.18279625475406647
0.6149870157241821,2.9666621685028076,-0.18133200705051422
0.6386346220970154,2.9776768684387207,-0.18125422298908234
0.6608514785766602,2.9808754920959473,-0.18070070445537567
0.6833471655845642,2.9838626384735107,-0.18013183772563934
0.7134284377098083,3.016962766647339,-0.1813662201166153
0.736846387386322,3.023441791534424,-0.18087227642536163
0.7613576650619507,3.0335185527801514,-0.1805916726589203
0.7803427577018738,3.0207064151763916,-0.1789482831954956
0.8073785901069641,3.0378825664520264,-0.1790781170129776
0.8391417264938354,3.0697858333587646,-0.18003422021865845
0.8601086735725403,3.064056873321533,-0.17867669463157654
0.8907535672187805,3.091913938522339,-0.17927484214305878
0.9209715723991394,3.1156792640686035,-0.17961061000823975
0.9494272470474243,3.131669759750366,-0.1794830858707428
0.9818514585494995,3.1585214138031006,-0.17990490794181824
1.00333833694458,3.151850461959839,-0.1783471405506134
0.9945680499076843,3.0523133277893066,-0.17157739400863647
0.9849200248718262,2.9528985023498535,-0.1648680865764618
1.0105247497558594,2.9608101844787598,-0.16418609023094177
1.038498878479004,2.9760029315948486,-0.163832426071167
1.1966748237609863,3.354644298553467,-0.18325994908809662
1.2249464988708496,3.3611385822296143,-0.182211235165596
1.2306451797485352,3.3050925731658936,-0.1777690201997757
1.2716094255447388,3.3439671993255615,-0.17843548953533173
1.3055078983306885,3.3644864559173584,-0.17799289524555206
1.34443998336792,3.3954296112060547,-0.17805208265781403
1.404423475265503,3.4766018390655518,-0.18068581819534302
1.4345109462738037,3.481292486190796,-0.17929527163505554
1.4763445854187012,3.514714002609253,-0.1792955994606018
1.0961896181106567,2.561347484588623,-0.12937363982200623
1.1466984748840332,2.6288764476776123,-0.13142019510269165
1.1475353240966797,2.581693649291992,-0.12771549820899963
1.1701171398162842,2.5844805240631104,-0.12648530304431915
1.1825215816497803,2.566030740737915,-0.12417634576559067
1.2047653198242188,2.5686867237091064,-0.12288683652877808
