X,Y,Z
1.0268017053604126,3.968348503112793,-0.1438831388950348
1.063407063484192,3.995098352432251,-0.14420875906944275
1.0915323495864868,3.9875400066375732,-0.14325720071792603
1.1609596014022827,4.13037109375,-0.1476154625415802
1.1728745698928833,4.066128253936768,-0.1445622593164444
1.2143224477767944,4.102860927581787,-0.14509576559066772
1.2315272092819214,4.056985378265381,-0.1427096128463745
1.2890278100967407,4.1414570808410645,-0.14485137164592743
1.3076796531677246,4.102878570556641,-0.14262963831424713
1.3525047302246094,4.1458940505981445,-0.1432463377714157
1.3899407386779785,4.162358283996582,-0.14291666448116302
1.439065933227539,4.211740493774414,-0.14370472729206085
1.4872013330459595,4.257114410400391,-0.14427654445171356
1.513872742652893,4.23945951461792,-0.14264310896396637
1.561405897140503,4.280460357666016,-0.14299261569976807
1.6007157564163208,4.29514217376709,-0.14242668449878693
1.670861005783081,4.389760971069336,-0.14448608458042145
1.7146458625793457,4.414807319641113,-0.14414142072200775
1.749239444732666,4.4138689041137695,-0.14291156828403473
1.8087785243988037,4.474201202392578,-0.143649622797966
1.0851510763168335,2.6314589977264404,-0.08376248180866241
1.097132682800293,2.6095831394195557,-0.08232755213975906
1.1100130081176758,2.591423273086548,-0.08098609000444412
1.1418299674987793,2.6159839630126953,-0.08095963299274445
1.1568377017974854,2.6008694171905518,-0.07969025522470474
1.1684670448303223,2.578559398651123,-0.07821087539196014
1.1807750463485718,2.560084819793701,-0.07680808007717133
1.1945595741271973,2.5450894832611084,-0.07551760226488113
1.195566177368164,2.501438856124878,-0.07335319370031357
1.2060915231704712,2.4790546894073486,-0.07184206694364548
1.2157962322235107,2.4569263458251953,-0.07031913846731186
1.2233164310455322,2.4313852787017822,-0.06870423257350922
1.2363868951797485,2.416027069091797,-0.06736154109239578
1.2459471225738525,2.3935465812683105,-0.06581763923168182
1.2586121559143066,2.378110647201538,-0.06443999707698822
1.2632060050964355,2.349134922027588,-0.06271665543317795
1.2830207347869873,2.347308397293091,-0.061691801995038986
1.287911057472229,2.3178913593292236,-0.05993740260601044
1.2975184917449951,2.2991151809692383,-0.058446504175662994
1.301234483718872,2.270076274871826,-0.056687384843826294
1.3090389966964722,2.247556686401367,-0.05507587641477585
1.332406997680664,2.2519843578338623,-0.05411916971206665
1.3390215635299683,2.229886293411255,-0.05250531807541847
1.3457401990890503,2.2075934410095215,-0.05087704211473465
1.3654667139053345,2.2046713829040527,-0.04963189363479614
1.3758927583694458,2.1889901161193848,-0.04811066761612892
1.3816827535629272,2.1668641567230225,-0.04645437002182007
1.4009381532669067,2.1638076305389404,-0.04513149335980415
1.4025399684906006,2.1348156929016113,-0.04326784983277321
1.4294509887695312,2.145138740539551,-0.042166948318481445
1.4157308340072632,2.0932247638702393,-0.039789795875549316
1.4385167360305786,2.096635103225708,-0.038469478487968445
1.4339675903320312,2.061829090118408,-0.03645293414592743
1.4347450733184814,2.032698631286621,-0.03444009646773338
1.4572707414627075,2.035883903503418,-0.0329437293112278
1.452141523361206,2.0010907649993896,-0.030813029035925865
1.4796370267868042,2.0100502967834473,-0.029259270057082176
2.250037670135498,3.173250436782837,0.06911203265190125
2.625978946685791,3.758704662322998,0.08483494818210602
2.610170602798462,3.7980895042419434,0.08867566287517548
3.157806396484375,4.667786121368408,0.11238742619752884
3.137413740158081,4.7096076011657715,0.11661544442176819
3.1207518577575684,4.762648105621338,0.12112637609243393
3.095468521118164,4.797630786895752,0.124986931681633
1.6394656896591187,2.581165313720703,0.06879880279302597
1.6319899559020996,2.613513231277466,0.07123202830553055
1.5969834327697754,2.5984013080596924,0.07225745916366577
2.925138473510742,4.834643363952637,0.1370365023612976
2.797051429748535,4.7019195556640625,0.13571445643901825
2.758662700653076,4.715413570404053,0.13848136365413666
2.738776206970215,4.7584710121154785,0.14206193387508392
2.506150484085083,4.4280571937561035,0.13427232205867767
2.4731407165527344,4.446498870849609,0.1368749588727951
2.430291175842285,4.443299770355225,0.13871519267559052
2.3992815017700195,4.460044860839844,0.1411409229040146
2.3934619426727295,4.529445171356201,0.1452212631702423
2.4822826385498047,4.7825727462768555,0.15526609122753143
2.4237959384918213,4.751114845275879,0.15606246888637543
2.3749289512634277,4.736373424530029,0.1573684960603714
2.309394598007202,4.690382480621338,0.15752972662448883
1.2263281345367432,2.538278579711914,0.08616793155670166
1.1950114965438843,2.5186028480529785,0.0863586813211441
1.1906648874282837,2.5551230907440186,0.08846849203109741
1.1755861043930054,2.570645332336426,0.08983170241117477
1.153617024421692,2.5719852447509766,0.09068003296852112
1.14933180809021,2.6122994422912598,0.0929000973701477
1.116871953010559,2.5880770683288574,0.09282186627388
2.0436553955078125,4.828507900238037,0.17459185421466827
2.0234944820404053,4.879215717315674,0.17776788771152496
2.001234292984009,4.926264762878418,0.18083885312080383
1.9840816259384155,4.983590126037598,0.1842658817768097
2.0409369468688965,5.233858108520508,0.19492831826210022
2.003706932067871,5.248154640197754,0.19678275287151337
1.983534812927246,5.309953212738037,0.20038709044456482
1.9614633321762085,5.367979049682617,0.20387393236160278
1.9371918439865112,5.418193340301514,0.20705479383468628
1.8807446956634521,5.380114555358887,0.20688997209072113
1.8814711570739746,5.507833480834961,0.2129821479320526
1.8504526615142822,5.547080039978027,0.21565620601177216
1.9389879703521729,5.9535064697265625,0.23269341886043549
1.8951736688613892,5.959338665008545,0.23413419723510742
1.866774082183838,6.017287731170654,0.23766514658927917
1.8476353883743286,6.108818054199219,0.2424047738313675
1.8138272762298584,6.155509948730469,0.24535810947418213
1.7763848304748535,6.190724849700928,0.2478722482919693
1.7553073167800903,6.281822204589844,0.2526285946369171
1.726843237876892,6.350337505340576,0.25651443004608154
1.6970328092575073,6.422923564910889,0.26048603653907776
1.6511144638061523,6.434822082519531,0.2619275450706482
0.8148161768913269,3.2724342346191406,0.13369616866111755
1.5428742170333862,6.385243892669678,0.2618153691291809
0.7897518873214722,3.3707849979400635,0.13871656358242035
1.4312500953674316,6.311058521270752,0.26061514019966125
1.384728193283081,6.313388824462891,0.26148536801338196
1.3285958766937256,6.269545555114746,0.2604477107524872
1.2697761058807373,6.20599889755249,0.25857940316200256
1.2182503938674927,6.172516345977783,0.2579568028450012
1.1657652854919434,6.1349287033081055,0.2571779489517212
1.119476079940796,6.127635478973389,0.2574640214443207
1.068676233291626,6.093077659606934,0.25660771131515503
1.0269513130187988,6.108125686645508,0.2578483521938324
0.9794560074806213,6.0842604637146,0.2574482858181
0.9328259825706482,6.067854404449463,0.25738126039505005
0.8862770795822144,6.047183513641357,0.25703850388526917
0.8312206864356995,5.964347839355469,0.25396138429641724
0.7840259075164795,5.93134069442749,0.25300899147987366
0.7445240616798401,5.952131748199463,0.2543576657772064
0.612538754940033,5.189723491668701,0.2221880555152893
0.5586233735084534,5.0387420654296875,0.21613985300064087
0.5357052087783813,5.162860870361328,0.22172659635543823
0.39918649196624756,4.12929630279541,0.17754477262496948
0.3664017617702484,4.0892205238342285,0.17603382468223572
0.33825355768203735,4.095547199249268,0.17652547359466553
0.31571584939956665,4.183438777923584,0.18055030703544617
0.28391873836517334,4.146587371826172,0.17916226387023926
0.25535544753074646,4.156256675720215,0.17969636619091034
0.08419523388147354,1.5470466613769531,0.066933274269104
0.3699146807193756,7.800340175628662,0.33773353695869446
0.3127758502960205,7.752049446105957,0.33591076731681824
0.25757119059562683,7.7150163650512695,0.3345848321914673
0.2030928134918213,7.685401916503906,0.3334439694881439
0.14928211271762848,7.671017169952393,0.332874059677124
0.09553521871566772,7.644550323486328,0.3317955732345581
0.041315771639347076,7.629420280456543,0.3312264382839203
-0.011685417965054512,7.606103420257568,0.3303159475326538
-0.06432730704545975,7.578516960144043,0.3292352557182312
-0.11660134792327881,7.554480075836182,0.32809364795684814
-0.16811376810073853,7.5144805908203125,0.32624146342277527
-0.2192658931016922,7.478030681610107,0.3245599865913391
-0.2725200951099396,7.484096527099609,0.32473838329315186
-0.3241499960422516,7.474232196807861,0.3242429494857788
-0.3774622082710266,7.499090671539307,0.3252308964729309
-0.31221726536750793,5.450802326202393,0.23618750274181366
-0.347954124212265,5.4173665046691895,0.2345406413078308
-0.3850477635860443,5.399219512939453,0.23356527090072632
-0.41918304562568665,5.353630542755127,0.23141899704933167
-0.4517088830471039,5.296163082122803,0.2287735491991043
-0.4356410503387451,4.721663951873779,0.20374900102615356
-0.4592999815940857,4.629245758056641,0.1994759738445282
-0.4917304217815399,4.625931262969971,0.19905279576778412
-0.5202124714851379,4.5914130210876465,0.19730183482170105
-0.5502403974533081,4.572206497192383,0.19621989130973816
-0.5810129046440125,4.560547351837158,0.1954726129770279
-0.6082569360733032,4.525516033172607,0.19362029433250427
-0.6393195986747742,4.517314434051514,0.19288793206214905
-0.6703440546989441,4.512838363647461,0.1923305094242096
-0.6992434859275818,4.492676734924316,0.19111138582229614
-0.7316573262214661,4.495444297790527,0.19087746739387512
-0.7601501941680908,4.474905014038086,0.18964259326457977
-0.78668612241745,4.446566581726074,0.18797236680984497
-0.8162047266960144,4.433335781097412,0.18694517016410828
-0.8400647640228271,4.393147945404053,0.18480028212070465
-0.7262095212936401,3.6598620414733887,0.15358181297779083
-0.7539911866188049,3.6662187576293945,0.15348146855831146
-0.7791743874549866,3.6609766483306885,0.15282723307609558
-0.9463330507278442,4.299706935882568,0.17892128229141235
-0.9877605438232422,4.3464674949646,0.18030740320682526
-1.0142408609390259,4.324365615844727,0.17883272469043732
-1.04241943359375,4.309663772583008,0.1776733696460724
-1.054258108139038,4.230429649353027,0.17385363578796387
-1.0834828615188599,4.223079204559326,0.1728854775428772
-1.1270473003387451,4.272280693054199,0.17424428462982178
-1.154281735420227,4.256954669952393,0.17296479642391205
-1.1838445663452148,4.248868465423584,0.1719801425933838
-1.2112032175064087,4.233071327209473,0.1706928312778473
-1.232782006263733,4.19841194152832,0.16854378581047058
-1.258935809135437,4.182535648345947,0.16715170443058014
-1.2827423810958862,4.159002304077148,0.16546235978603363
-1.3139759302139282,4.157473087310791,0.16464084386825562
-1.3308604955673218,4.111133098602295,0.16205714643001556
-1.3667629957199097,4.12406587600708,0.1617320328950882
-1.3895255327224731,4.100017070770264,0.159928560256958
-1.4171730279922485,4.090590476989746,0.1587047129869461
-1.4429658651351929,4.073330402374268,0.15716062486171722
-1.4712454080581665,4.0632500648498535,0.15590275824069977
-1.5016241073608398,4.060496807098389,0.1548735797405243
-1.5238248109817505,4.035583019256592,0.15293720364570618
-1.5453168153762817,4.010724067687988,0.15103274583816528
-1.5788111686706543,4.0144944190979,0.15018334984779358
-1.6037085056304932,3.996253490447998,0.14851590991020203
-1.6204099655151367,3.960052728652954,0.14612817764282227
-1.6577818393707275,3.974236488342285,0.1455467790365219
-1.6737816333770752,3.937901496887207,0.1431322991847992
-1.694939136505127,3.91188383102417,0.14107279479503632
-1.722123622894287,3.90004825592041,0.13953563570976257
-1.7545716762542725,3.9027445316314697,0.13844135403633118
-1.7679892778396606,3.862417697906494,0.13579946756362915
-1.7976102828979492,3.8573954105377197,0.1344035416841507
-1.820996880531311,3.837827205657959,0.13248643279075623
-1.8437763452529907,3.818324327468872,0.13054999709129333
-1.8793261051177979,3.8271286487579346,0.12952594459056854
-1.8877508640289307,3.7794454097747803,0.12657001614570618
-1.9069725275039673,3.752333164215088,0.12428700923919678
-1.927634596824646,3.7286388874053955,0.12213155627250671
-1.679799199104309,3.1974000930786133,0.10348932445049286
-1.9895501136779785,3.7271056175231934,0.11918220669031143
-2.022719383239746,3.7270522117614746,0.11765413731336594
-1.7056621313095093,3.0904979705810547,0.09625833481550217
-1.7297823429107666,3.086071014404297,0.09477775543928146
-0.8305448889732361,1.4593126773834229,0.0441783107817173
-0.7702510356903076,1.3318599462509155,0.03969961777329445
-0.7972915768623352,1.3568000793457031,0.03980372101068497
-0.8342642188072205,1.398467779159546,0.0403311513364315
-0.8778281211853027,1.449763298034668,0.041090913116931915
-0.8879008889198303,1.443642497062683,0.040154535323381424
-0.9017683267593384,1.4442633390426636,0.03939426317811012
-0.8985353708267212,1.4186427593231201,0.03791234269738197
-2.3863582611083984,3.553443670272827,0.08620744198560715
-1.3473554849624634,1.9220601320266724,0.042522769421339035
-1.2285876274108887,1.7573208808898926,-0.0375555045902729
-1.4062559604644775,2.0428171157836914,-0.045470915734767914
-1.326279878616333,1.9884177446365356,-0.0475955456495285
-1.2664636373519897,1.9296114444732666,-0.047696955502033234
-1.150539517402649,1.7813587188720703,-0.04537128657102585
-1.561482548713684,2.4549243450164795,-0.06426284462213516
-0.8660907745361328,1.4294854402542114,-0.04030241817235947
-0.8256371021270752,1.3854260444641113,-0.03993036970496178
-0.8292158246040344,1.4150320291519165,-0.04165931046009064
-0.8437140583992004,1.4877434968948364,-0.04552748426795006
-0.9886355996131897,1.773561954498291,-0.0552649088203907
-1.6272610425949097,2.968675136566162,-0.09410088509321213
-1.6398327350616455,3.0417768955230713,-0.0980147197842598
-1.5916259288787842,3.005492687225342,-0.09840775281190872
-1.6397501230239868,3.1521482467651367,-0.1048060804605484
-1.603575587272644,3.1355979442596436,-0.1057506874203682
-1.5851374864578247,3.1536381244659424,-0.10785382241010666
-1.5621411800384521,3.165029525756836,-0.10968586802482605
-1.5421983003616333,3.1834089756011963,-0.11178595572710037
-1.5266886949539185,3.208117723464966,-0.11404503136873245
-1.5041884183883667,3.218665838241577,-0.11580134928226471
-1.767214059829712,3.8540165424346924,-0.14024031162261963
-1.7361096143722534,3.8594932556152344,-0.1420142650604248
-1.728114366531372,3.9142730236053467,-0.1455659121274948
-1.703434705734253,3.9335110187530518,-0.14784646034240723
-1.6887075901031494,3.9779815673828125,-0.15098589658737183
-1.668927550315857,4.011628150939941,-0.15374228358268738
-1.6379406452178955,4.015876770019531,-0.1553352028131485
-1.6157928705215454,4.041587829589844,-0.15776219964027405
-1.580801010131836,4.038567066192627,-0.15902413427829742
-1.5601242780685425,4.071621417999268,-0.16166649758815765
-1.5340542793273926,4.089784622192383,-0.16371332108974457
-1.5028436183929443,4.092970848083496,-0.1651495099067688
-1.479312777519226,4.1180596351623535,-0.16744929552078247
-1.4492419958114624,4.128669738769531,-0.1691150665283203
-1.4196311235427856,4.138877868652344,-0.17075125873088837
-1.3858249187469482,4.133790493011475,-0.171726256608963
-1.3655221462249756,4.1692352294921875,-0.1743965893983841
-1.3347464799880981,4.175028324127197,-0.17575593292713165
-1.3020707368850708,4.17709493637085,-0.17695064842700958
-1.267997145652771,4.171186923980713,-0.1777803748846054
-1.234555959701538,4.164864540100098,-0.17857563495635986
-1.1947132349014282,4.135797023773193,-0.17838838696479797
-1.1579340696334839,4.11781644821167,-0.17853856086730957
-1.1162868738174438,4.0807108879089355,-0.17785349488258362
-1.079100251197815,4.058347702026367,-0.1778072863817215
-1.0381261110305786,4.0165863037109375,-0.1768789142370224
-1.0461318492889404,4.167530536651611,-0.18443438410758972
-0.9694728255271912,3.9814093112945557,-0.17696252465248108
-0.9376385807991028,3.9729411602020264,-0.17735573649406433
-0.9058705568313599,3.9642462730407715,-0.17774464190006256
-0.8833515048027039,3.99326229095459,-0.17981663346290588
-0.8317292332649231,3.8886303901672363,-0.17581868171691895
-0.8129382729530334,3.936404228210449,-0.17861241102218628
-0.757654070854187,3.804232120513916,-0.1732351928949356
-0.7365598678588867,3.840125560760498,-0.17550413310527802
-0.6659467816352844,3.6071884632110596,-0.1654488742351532
-0.63599693775177,3.584815263748169,-0.16497401893138885
-0.639559805393219,3.758434772491455,-0.1734600067138672
-0.6130980253219604,3.7628092765808105,-0.17416587471961975
-0.580370306968689,3.7284762859344482,-0.17308801412582397
-0.5481129288673401,3.689934253692627,-0.17180190980434418
-0.5223289132118225,3.6936421394348145,-0.17244605720043182
-0.4922107756137848,3.666256904602051,-0.17153531312942505
-0.46151942014694214,3.6308908462524414,-0.17025256156921387
-0.43380334973335266,3.6146326065063477,-0.16986624896526337
-0.40554460883140564,3.594327688217163,-0.16929900646209717
-0.37965837121009827,3.5892834663391113,-0.16942690312862396
-0.3529142141342163,3.576310396194458,-0.16907162964344025
-0.32782694697380066,3.5786795616149902,-0.16944852471351624
-0.30413609743118286,3.596416473388672,-0.1705615073442459
-0.2729574739933014,3.524545907974243,-0.16743218898773193
-0.24955537915229797,3.5419089794158936,-0.16854023933410645
-0.22551989555358887,3.55523943901062,-0.1693178415298462
-0.19914445281028748,3.529447317123413,-0.16823968291282654
-0.173750102519989,3.5151519775390625,-0.1677156239748001
-0.14857710897922516,3.5084848403930664,-0.16756485402584076
-0.12336849421262741,3.486025810241699,-0.16666370630264282
-0.0997689813375473,3.5101964473724365,-0.16788631677627563
-0.0753587856888771,3.5108017921447754,-0.16796283423900604
-0.050913017243146896,3.511237621307373,-0.168039470911026
-0.025410335510969162,3.4295713901519775,-0.16419477760791779
-0.0015590623952448368,3.421858072280884,-0.16389575600624084
0.02231537736952305,3.4295897483825684,-0.16426301002502441
0.046612050384283066,3.4605658054351807,-0.16569490730762482
0.07022514194250107,3.4367547035217285,-0.16451144218444824
0.09454623609781265,3.4517874717712402,-0.16519547998905182
0.11841460317373276,3.4354376792907715,-0.16438519954681396
0.14095021784305573,3.4033515453338623,-0.16277793049812317
0.16602088510990143,3.433481454849243,-0.16406592726707458
0.1893923580646515,3.4244658946990967,-0.16348999738693237
0.21122273802757263,3.3919239044189453,-0.16180014610290527
0.23522835969924927,3.3903536796569824,-0.16159430146217346
0.2623685598373413,3.4353325366973877,-0.1635921448469162
0.13060078024864197,1.5670217275619507,-0.07450485229492188
0.3084932267665863,3.415860176086426,-0.16216063499450684
0.3299073874950409,3.3903539180755615,-0.16071021556854248
0.3547119200229645,3.3957114219665527,-0.1607269048690796
0.3782835006713867,3.3931827545166016,-0.16038213670253754
0.40260839462280273,3.398263454437256,-0.16027836501598358
0.427988201379776,3.4109137058258057,-0.16053356230258942
0.45259785652160645,3.415630578994751,-0.16041983664035797
0.47568508982658386,3.404634952545166,-0.15956829488277435
0.5027787089347839,3.424427032470703,-0.16017156839370728
0.5281603932380676,3.432476758956909,-0.16011683642864227
0.549943208694458,3.417226552963257,-0.1589570790529251
0.581916332244873,3.4634060859680176,-0.16065683960914612
0.6059861779212952,3.4593052864074707,-0.1600220501422882
0.6290550827980042,3.4472813606262207,-0.1590217500925064
0.6600630879402161,3.4812381267547607,-0.16006101667881012
0.6839446425437927,3.4766604900360107,-0.1592920869588852
0.7062961459159851,3.464259386062622,-0.15817201137542725
0.730393648147583,3.459294080734253,-0.15739397704601288
0.759878933429718,3.4769442081451416,-0.15763935446739197
0.7846738696098328,3.4754724502563477,-0.15694670379161835
0.8084707260131836,3.470054864883423,-0.1560393124818802
0.8295251727104187,3.4530832767486572,-0.15462100505828857
0.8563681244850159,3.458627939224243,-0.1542084813117981
0.890500009059906,3.490330219268799,-0.15494897961616516
0.9293079972267151,3.5408003330230713,-0.15644247829914093
0.9636511206626892,3.5720932483673096,-0.15703704953193665
0.9839336276054382,3.550410032272339,-0.15530307590961456
1.026789903640747,3.607335090637207,-0.15699166059494019
1.061064600944519,3.629992961883545,-0.1571621298789978
1.0881192684173584,3.6301772594451904,-0.15627466142177582
1.110529899597168,3.615272045135498,-0.15471965074539185
1.1399967670440674,3.6225123405456543,-0.1541110724210739
1.1831175088882446,3.6702752113342285,-0.15520359575748444
1.211538314819336,3.66926908493042,-0.15420711040496826
1.2388877868652344,3.668424129486084,-0.15312251448631287
1.279050588607788,3.704261541366577,-0.1535600870847702
1.3435370922088623,3.8058362007141113,-0.1566690057516098
1.3633924722671509,3.778087615966797,-0.15442349016666412
1.396172046661377,3.7869670391082764,-0.1536523699760437
1.4359655380249023,3.813861846923828,-0.15350759029388428
1.4911444187164307,3.880641222000122,-0.15496020019054413
1.5537669658660889,3.9610815048217773,-0.15687569975852966
1.5929172039031982,3.979226589202881,-0.15629234910011292
1.6140167713165283,3.9539248943328857,-0.15392829477787018
1.6546047925949097,3.9752676486968994,-0.1533300131559372
1.700043797492981,4.007058143615723,-0.15311947464942932
1.1219452619552612,2.594203233718872,-0.09818447381258011
1.1507538557052612,2.6114916801452637,-0.09786583483219147
1.1586320400238037,2.582401990890503,-0.0957736074924469
1.1762803792953491,2.5744597911834717,-0.09445648640394211
1.1925084590911865,2.5627264976501465,-0.09298980236053467
1.1968852281570435,2.526214838027954,-0.09063737094402313
1.20014226436615,2.4900903701782227,-0.08826605975627899
1.2047067880630493,2.457531452178955,-0.08604676276445389
1.2307285070419312,2.4664902687072754,-0.08522726595401764
1.221325397491455,2.405704975128174,-0.08203461021184921
1.2444496154785156,2.411461114883423,-0.08109667152166367
1.2640249729156494,2.4101269245147705,-0.07991345971822739
1.2770450115203857,2.3944554328918457,-0.07820448279380798
1.2676277160644531,2.337498664855957,-0.07517342269420624
1.2795581817626953,2.322124719619751,-0.07344982028007507
1.3178335428237915,2.35451340675354,-0.07323873043060303
1.3302918672561646,2.33856463432312,-0.07145272940397263
1.3091295957565308,2.2652223110198975,-0.06794635951519012
1.32393217086792,2.2566492557525635,-0.06639736145734787
1.3273584842681885,2.2274508476257324,-0.06419724971055984
1.354952335357666,2.238255739212036,-0.06313174962997437
1.3575048446655273,2.2093000411987305,-0.06093192473053932
1.3718690872192383,2.200453996658325,-0.059296105057001114
1.3704235553741455,2.1645121574401855,-0.05685679242014885
1.397957444190979,2.1747865676879883,-0.05560378357768059
1.4077187776565552,2.1592063903808594,-0.053698983043432236
1.4181312322616577,2.1430671215057373,-0.05170537531375885
1.4282983541488647,2.126946210861206,-0.04969024658203125
1.4264782667160034,2.0952179431915283,-0.047318361699581146
1.4498542547225952,2.098172664642334,-0.04559953883290291
1.4548741579055786,2.075688123703003,-0.04332438111305237
1.449875831604004,2.0410144329071045,-0.04082159698009491
1.464040994644165,2.0309200286865234,-0.03865540400147438
1.4632039070129395,2.0026113986968994,-0.03615669533610344
1.4670844078063965,1.9803998470306396,-0.03368871659040451
2.2712576389312744,3.1770002841949463,0.08274523913860321
2.242872714996338,3.1874606609344482,0.08620841056108475
2.6237168312072754,3.7882978916168213,0.10604797303676605
2.5970354080200195,3.8065290451049805,0.1099049299955368
3.139942169189453,4.679103374481201,0.13911758363246918
3.134165048599243,4.743805408477783,0.14482134580612183
3.1083803176879883,4.77924919128418,0.14961285889148712
1.6475218534469604,2.5756266117095947,0.08255258202552795
1.6456615924835205,2.6137337684631348,0.08560403436422348
1.614996075630188,2.605196952819824,0.08708423376083374
1.5791031122207642,2.5905232429504395,0.08829759061336517
2.7924206256866455,4.658341884613037,0.1617865115404129
2.7836685180664062,4.71793794631958,0.16670095920562744
2.7707035541534424,4.775158882141113,0.17153286933898926
2.7388393878936768,4.802370071411133,0.17528893053531647
2.4299540519714355,4.331058025360107,0.16043157875537872
2.438826084136963,4.419832706451416,0.1661233901977539
2.441422939300537,4.502849578857422,0.1715330332517624
2.3879716396331787,4.482710361480713,0.17302674055099487
2.4925906658172607,4.758471488952637,0.18592749536037445
2.455728530883789,4.768704414367676,0.1885736733675003
2.390070676803589,4.727588176727295,0.18909478187561035
2.334506034851074,4.70291805267334,0.19019809365272522
1.2577720880508423,2.578775644302368,0.1053800880908966
1.229629397392273,2.5663070678710938,0.10595089197158813
1.199220061302185,2.5504376888275146,0.10630444437265396
1.1837797164916992,2.5661838054656982,0.10796857625246048
1.1669666767120361,2.578101634979248,0.10945994406938553
1.1553442478179932,2.600369453430176,0.11137375235557556
1.1336243152618408,2.6013431549072266,0.11234371364116669
2.05610990524292,4.81332540512085,0.20953041315078735
2.0365347862243652,4.863882064819336,0.21338887512683868
2.0153377056121826,4.910594940185547,0.21709014475345612
1.9956438541412354,4.960625648498535,0.2209431529045105
1.9867852926254272,5.0438714027404785,0.2261618822813034
2.0147690773010254,5.225547790527344,0.23587454855442047
1.9997934103012085,5.2979960441589355,0.24069933593273163
1.971674919128418,5.3375563621521,0.24406857788562775
1.950109839439392,5.395198822021484,0.24822963774204254
1.9033620357513428,5.386945724487305,0.24925066530704498
1.8721646070480347,5.422550678253174,0.25231221318244934
1.8677127361297607,5.535310745239258,0.25897327065467834
1.8516480922698975,5.618730545043945,0.26433059573173523
1.914931297302246,5.9509711265563965,0.28142455220222473
1.8791687488555908,5.98681116104126,0.28445762395858765
1.8624019622802734,6.085875988006592,0.2905336320400238
1.834160566329956,6.147309303283691,0.2948266267776489
1.7957350015640259,6.174806118011475,0.2975081205368042
1.75390625,6.194833278656006,0.29983577132225037
1.7397030591964722,6.316201210021973,0.3068951964378357
1.7157214879989624,6.407535552978516,0.3125479817390442
1.6705513000488281,6.419373512268066,0.31433624029159546
0.8272340893745422,3.272127866744995,0.16084197163581848
1.5708527565002441,6.404152870178223,0.3160356283187866
0.7987352013587952,3.3593790531158447,0.16631123423576355
1.4663883447647095,6.36868143081665,0.3162897229194641
1.4017003774642944,6.291248798370361,0.3134376108646393
1.3480538129806519,6.255003452301025,0.3126131594181061
1.3037501573562622,6.264313220977783,0.3140912353992462
1.2451387643814087,6.200568675994873,0.31176653504371643
1.1930400133132935,6.167036533355713,0.3108472228050232
1.1436208486557007,6.144586563110352,0.31049296259880066
1.0937985181808472,6.113961696624756,0.30972152948379517
1.0458505153656006,6.094579219818115,0.3095373809337616
1.0046809911727905,6.109349727630615,0.31108105182647705
0.9541996717453003,6.070004463195801,0.3096517026424408
0.9049630761146545,6.034102439880371,0.30840420722961426
0.8624650239944458,6.040276527404785,0.30931681394577026
0.7452654242515564,5.497232913970947,0.2820674479007721
0.7040546536445618,5.479022026062012,0.28169310092926025
0.7207865715026855,5.936875820159912,0.30575257539749146
0.5771206617355347,5.0503082275390625,0.2604343593120575
0.5528414845466614,5.15894079208374,0.26639625430107117
0.5175588726997375,5.170411586761475,0.26735982298851013
0.15237538516521454,1.639183521270752,0.08488473296165466
0.13730888068675995,1.5974395275115967,0.0828448086977005
0.12612862884998322,1.598354458808899,0.08297079801559448
0.11437903344631195,1.591410517692566,0.08267749100923538
0.10700735449790955,1.6505597829818726,0.08582433313131332
0.09374627470970154,1.6240084171295166,0.08452131599187851
0.08127221465110779,1.6012390851974487,0.08341537415981293
0.06911761313676834,1.578376293182373,0.08230383694171906
0.05896603316068649,1.6022075414657593,0.08356870710849762
0.04709002748131752,1.5791822671890259,0.08239361643791199
0.03570485860109329,1.5716743469238281,0.08203218132257462
0.12004736065864563,7.617584228515625,0.3977563977241516
0.0673406645655632,7.641627788543701,0.3991946280002594
0.01409208681434393,7.595093250274658,0.39687684178352356
-0.038760554045438766,7.59501314163208,0.39678096771240234
-0.0918341875076294,7.5438456535339355,0.3940349221229553
-0.14358143508434296,7.504026889801025,0.3919028043746948
-0.19551777839660645,7.495053768157959,0.39140087366104126
-0.24720749258995056,7.481822490692139,0.39069560170173645
-0.2985522747039795,7.464346408843994,0.3896286189556122
-0.35097020864486694,7.477707386016846,0.39004015922546387
-0.2934276759624481,5.43393611907959,0.2832387089729309
-0.3316367268562317,5.43956995010376,0.2833510637283325
-0.36787691712379456,5.413794994354248,0.2818412482738495
-0.4037747383117676,5.387779712677002,0.28033390641212463
-0.44104188680648804,5.384880542755127,0.2798773944377899
-0.47501087188720703,5.338938236236572,0.2771409749984741
-0.44332748651504517,4.621041774749756,0.239589661359787
-0.47537246346473694,4.617877960205078,0.23914989829063416
-0.5074408054351807,4.614487648010254,0.23870952427387238
-0.5367571115493774,4.5876264572143555,0.23706366121768951
-0.5668689012527466,4.5683112144470215,0.23564670979976654
-0.5972582101821899,4.5565996170043945,0.23464184999465942
-0.6264907121658325,4.536951541900635,0.23324082791805267
-0.655703604221344,4.517085552215576,0.2318396121263504
-0.6853024959564209,4.500882625579834,0.23063932359218597
-0.7169250249862671,4.495988368988037,0.22995814681053162
-0.7463697195053101,4.483325004577637,0.22877661883831024
-0.7730503082275391,4.455085754394531,0.2268138974905014
-0.8023681640625,4.442010402679443,0.22563380002975464
-0.8260392546653748,4.398019313812256,0.22289514541625977
-0.8543652892112732,4.380720615386963,0.22152571380138397
-0.7434089779853821,3.674889326095581,0.1853211373090744
-0.7685063481330872,3.66976261138916,0.18453116714954376
-0.7861363887786865,3.630146026611328,0.1820203810930252
-0.9714828133583069,4.3404436111450195,0.217015340924263
-0.9980649352073669,4.31843900680542,0.2153056412935257
-1.0284063816070557,4.311363697052002,0.2143082171678543
-1.0595176219940186,4.311914443969727,0.2135830968618393
-1.0744186639785767,4.247936248779297,0.20967993140220642
-1.1015881299972534,4.232962608337402,0.20820856094360352
-1.1400550603866577,4.259183406829834,0.2087598443031311
-1.1722503900527954,4.258584976196289,0.20798590779304504
-1.1917184591293335,4.216756820678711,0.20510020852088928
-1.2159152030944824,4.193656921386719,0.20311294496059418
-1.2488259077072144,4.200321674346924,0.20257438719272614
-1.2779442071914673,4.191615581512451,0.20128263533115387
-1.302877426147461,4.167645454406738,0.1992548555135727
-1.3265889883041382,4.143836975097656,0.19719445705413818
-1.3520468473434448,4.127455711364746,0.1954292207956314
-1.3823034763336182,4.125720024108887,0.19436630606651306
-1.4057711362838745,4.101354122161865,0.19222117960453033
-1.4316943883895874,4.084175109863281,0.19042249023914337
-1.4602211713790894,4.074133396148682,0.18890692293643951
-1.4876012802124023,4.064288139343262,0.18734247982501984
-1.5094507932662964,4.03963565826416,0.18510794639587402
-1.5428522825241089,4.043783187866211,0.18417376279830933
-1.5652575492858887,4.018487930297852,0.18189911544322968
-1.5903654098510742,4.0002946853637695,0.17989368736743927
-1.611217737197876,3.9751782417297363,0.17752692103385925
-1.6303149461746216,3.946354389190674,0.17501263320446014
-1.6606395244598389,3.942239761352539,0.17356181144714355
-1.660310983657837,3.8661110401153564,0.16896136105060577
-1.687031626701355,3.8546059131622314,0.16712933778762817
-1.7253832817077637,3.871882915496826,0.16651636362075806
-1.7642537355422974,3.888723134994507,0.16586057841777802
-1.7912520170211792,3.876443862915039,0.163911834359169
-1.7981913089752197,3.8216066360473633,0.1601886749267578
-1.8340718746185303,3.8305866718292236,0.1590183526277542
-1.8730394840240479,3.8465332984924316,0.15814098715782166
-1.8889631032943726,3.812703847885132,0.1551658660173416
-1.9084793329238892,3.7855801582336426,0.15245793759822845
-1.9270306825637817,3.758718490600586,0.14973285794258118
-1.9482251405715942,3.7390615940093994,0.147270068526268
-1.970143437385559,3.7188143730163574,0.14473548531532288
-1.9995968341827393,3.7120206356048584,0.14270968735218048
-1.6910896301269531,3.0888636112213135,0.11725704371929169
-1.718822956085205,3.0914723873138428,0.11580425500869751
-1.7355157136917114,3.073242425918579,0.113543801009655
-0.8475379347801208,1.4762883186340332,0.053731076419353485
-0.8339616656303406,1.4300506114959717,0.05125873535871506
-0.839288592338562,1.4178996086120605,0.05001526698470116
-0.8769468665122986,1.4591221809387207,0.0506087951362133
-0.8870950937271118,1.4530128240585327,0.049502260982990265
-0.8927791714668274,1.4403859376907349,0.04814859852194786
-0.9103900790214539,1.447840929031372,0.04747273400425911
-0.8867100477218628,1.3889216184616089,0.04459100589156151
-0.8856873512268066,1.3477846384048462,0.04136030748486519
-2.381930112838745,3.5182971954345703,0.10245123505592346
-1.4385491609573364,2.0961263179779053,0.059331510215997696
-1.3542543649673462,1.9455664157867432,0.05340178683400154
-1.368533968925476,1.8587117195129395,0.043704383075237274
-1.353378415107727,1.9510334730148315,-0.04960237443447113
-1.2549314498901367,1.8385748863220215,-0.04868493601679802
-1.3597782850265503,2.0222091674804688,-0.05549728497862816
-1.1873533725738525,1.7944856882095337,-0.050957150757312775
-1.2400404214859009,1.9046516418457031,-0.05585196986794472
-1.2225120067596436,1.9066221714019775,-0.05755716189742088
-0.7721032500267029,1.285306453704834,-0.042940057814121246
-0.7786000370979309,1.3177568912506104,-0.04500255361199379
-0.8628226518630981,1.5349581241607666,-0.05561994016170502
-1.645187258720398,2.9761126041412354,-0.10979446768760681
-2.047611713409424,3.7660813331604004,-0.14133314788341522
-2.019958972930908,3.7808754444122314,-0.14423084259033203
-1.9980461597442627,3.805624485015869,-0.14748834073543549
-1.9446147680282593,3.767315149307251,-0.14820465445518494
-1.9243468046188354,3.7951154708862305,-0.1515098661184311
-1.8896117210388184,3.7949864864349365,-0.15362372994422913
-1.8831069469451904,3.8503267765045166,-0.15795372426509857
-1.8528642654418945,3.856205463409424,-0.1602347195148468
-1.8120200634002686,3.8409602642059326,-0.16158217191696167
-1.8119665384292603,3.9141244888305664,-0.16663512587547302
-1.7626920938491821,3.8807899951934814,-0.16715820133686066
-1.5401344299316406,3.4543824195861816,-0.15045619010925293
-1.5547431707382202,3.55450701713562,-0.15647917985916138
-1.6798144578933716,3.9170689582824707,-0.174214705824852
-1.6458182334899902,3.914442539215088,-0.17584730684757233
-1.4157592058181763,3.4351768493652344,-0.15584488213062286
-1.374046802520752,3.4015281200408936,-0.1557776778936386
-1.3337339162826538,3.3713274002075195,-0.15577079355716705
-1.3827818632125854,3.56997013092041,-0.1664034128189087
-1.5378583669662476,4.0537543296813965,-0.1905539184808731
-1.4778711795806885,3.980300188064575,-0.18870136141777039
-1.4160972833633423,3.8989648818969727,-0.1862783133983612
-1.3933802843093872,3.9236178398132324,-0.1888851821422577
-1.392614722251892,4.010646820068359,-0.19451357424259186
-1.335767149925232,3.935183048248291,-0.19225504994392395
-1.2645782232284546,3.814925193786621,-0.18771372735500336
-1.1111319065093994,3.433985948562622,-0.17007969319820404
-1.17940092086792,3.7356975078582764,-0.18623174726963043
-1.1419315338134766,3.7064337730407715,-0.18594442307949066
-1.097035527229309,3.6506850719451904,-0.18430684506893158
-1.0734342336654663,3.665752649307251,-0.18613313138484955
-1.046928882598877,3.67333722114563,-0.18757350742816925
-0.9969993829727173,3.5940914154052734,-0.18454068899154663
-0.9770320653915405,3.6197099685668945,-0.18686890602111816
-0.9349662661552429,3.5622050762176514,-0.1849021315574646
-0.9057793617248535,3.5535738468170166,-0.18532049655914307
-0.8697828650474548,3.5183022022247314,-0.18435892462730408
-0.8378452658653259,3.493896961212158,-0.18393124639987946
-0.8020533919334412,3.4501793384552,-0.18247023224830627
-0.7677386403083801,3.4099502563476562,-0.18115520477294922
-0.7386927604675293,3.392357587814331,-0.18091021478176117
-0.713507890701294,3.393705368041992,-0.18169179558753967
-0.6905404925346375,3.4023823738098145,-0.18285593390464783
-0.66158127784729,3.380260705947876,-0.18236640095710754
-0.6306958794593811,3.346423864364624,-0.1812099665403366
-0.6008042097091675,3.3162038326263428,-0.18014012277126312
-0.5769771337509155,3.3203883171081543,-0.18095232546329498
-0.5499463081359863,3.3012051582336426,-0.18047957122325897
-0.5245552062988281,3.289494037628174,-0.18041443824768066
-0.5063178539276123,3.3238770961761475,-0.18285299837589264
-0.4784764051437378,3.2964367866516113,-0.1817803680896759
-0.44800522923469543,3.2495033740997314,-0.17963817715644836
-0.42430299520492554,3.2447826862335205,-0.17982052266597748
-0.40314000844955444,3.2592365741729736,-0.1810736507177353
-0.3754670023918152,3.219317674636841,-0.17928366363048553
-0.3528634011745453,3.2218480110168457,-0.17973899841308594
-0.3286532163619995,3.208700180053711,-0.17932696640491486
-0.30105921626091003,3.1604528427124023,-0.17695915699005127
-0.27769771218299866,3.1469051837921143,-0.1765294373035431
-0.255793958902359,3.1487374305725098,-0.17695766687393188
-0.23380041122436523,3.150430679321289,-0.17724119126796722
-0.2117673009634018,3.151972532272339,-0.1775250881910324
-0.18798118829727173,3.1300220489501953,-0.1764962077140808
-0.16576319932937622,3.12345027923584,-0.17633716762065887
-0.14364589750766754,3.1167213916778564,-0.17617672681808472
-0.1222071647644043,3.1254336833953857,-0.17675872147083282
-0.1008719876408577,3.1417956352233887,-0.17777374386787415
-0.07780259102582932,3.111234188079834,-0.17614339292049408
-0.05617936700582504,3.111692190170288,-0.176274836063385
-0.034337032586336136,3.092501401901245,-0.1753009706735611
-0.012797246687114239,3.0770645141601562,-0.1744309365749359
0.008677060715854168,3.104379892349243,-0.1759599894285202
0.03028218075633049,3.069143772125244,-0.1739519089460373
0.051492881029844284,3.061061382293701,-0.17349162697792053
0.0722218006849289,3.0372366905212402,-0.1721474677324295
0.09307754784822464,3.028871774673462,-0.17159520089626312
0.11498019844293594,3.0515458583831787,-0.17274923622608185
0.1347675621509552,3.019514799118042,-0.17081497609615326
0.15693677961826324,3.0340747833251953,-0.17152313888072968
0.17759060859680176,3.025131940841675,-0.17091262340545654
0.19959595799446106,3.0394070148468018,-0.17155639827251434
0.2217870056629181,3.053528070449829,-0.17211486399173737
0.1259460300207138,1.582342267036438,-0.08907082676887512
0.26450255513191223,3.050161361694336,-0.17146827280521393
0.2849636375904083,3.040501356124878,-0.1707112044095993
0.3060718774795532,3.0384693145751953,-0.17035003006458282
0.3278762698173523,3.044065475463867,-0.17032529413700104
0.3524390459060669,3.072753429412842,-0.17159654200077057
0.37130552530288696,3.0469841957092285,-0.1698264628648758
0.3924950361251831,3.0443530082702637,-0.16936184465885162
0.4146854281425476,3.049309730529785,-0.16930119693279266
0.44067323207855225,3.0811614990234375,-0.17061014473438263
0.46017375588417053,3.066512107849121,-0.1693488359451294
0.4817965030670166,3.0632245540618896,-0.16871462762355804
0.5037312507629395,3.063681125640869,-0.168300598859787
0.5276528000831604,3.0755183696746826,-0.1685047149658203
0.5487927794456482,3.0718586444854736,-0.16773611307144165
0.577031135559082,3.1064043045043945,-0.16905458271503448
0.601473867893219,3.1176986694335938,-0.16910238564014435
0.6220231056213379,3.1057515144348145,-0.16788296401500702
0.643622100353241,3.101390838623047,-0.16708508133888245
0.6681513786315918,3.1122093200683594,-0.1669849306344986
0.6895060539245605,3.107597589492798,-0.16606053709983826
0.7205734252929688,3.144629716873169,-0.16735519468784332
0.7392056584358215,3.1243202686309814,-0.16558533906936646
0.7738463878631592,3.17221736907959,-0.1674290895462036
0.7917386293411255,3.1517691612243652,-0.16555123031139374
0.8152186274528503,3.1538937091827393,-0.16486972570419312
0.841009795665741,3.1633217334747314,-0.16456326842308044
0.8767684102058411,3.2062668800354004,-0.16597260534763336
0.9032012820243835,3.215193271636963,-0.16559892892837524
0.9316080808639526,3.2315118312835693,-0.16549897193908691
0.9569332003593445,3.236375093460083,-0.1648114025592804
0.9816119074821472,3.2371957302093506,-0.1639043688774109
1.0138098001480103,3.2600269317626953,-0.1640872210264206
1.0504900217056274,3.297635078430176,-0.16496622562408447
1.007589340209961,3.0901591777801514,-0.153572678565979
1.0076041221618652,3.0203733444213867,-0.14911559224128723
1.1659984588623047,3.4158735275268555,-0.1675005704164505
1.1974602937698364,3.4298553466796875,-0.16704344749450684
1.2186437845230103,3.4141805171966553,-0.16504141688346863
1.2591314315795898,3.453583240509033,-0.16568231582641602
1.2773064374923706,3.4303317070007324,-0.1632998138666153
1.3094431161880493,3.4433367252349854,-0.16262932121753693
1.3714183568954468,3.532482385635376,-0.16550274193286896
1.3898862600326538,3.5085601806640625,-0.1629355400800705
1.4310787916183472,3.542607545852661,-0.16308054327964783
1.4660159349441528,3.5579471588134766,-0.16230475902557373
1.5089025497436523,3.590916633605957,-0.16230587661266327
1.5717219114303589,3.6703498363494873,-0.1642792969942093
1.1441400051116943,2.622180223464966,-0.11616145819425583
1.1557154655456543,2.6000914573669434,-0.11398801952600479
1.167328119277954,2.5778374671936035,-0.11180662363767624
1.1849753856658936,2.569840908050537,-0.11023547500371933
1.2054524421691895,2.5689938068389893,-0.10893784463405609
1.2365398406982422,2.5888960361480713,-0.10847242921590805
1.2409064769744873,2.552196502685547,-0.1056218147277832
1.9699645042419434,3.981654167175293,-0.16270677745342255
1.205270528793335,2.3957600593566895,-0.0966026708483696
1.235541820526123,2.415487766265869,-0.09607841074466705
1.2486929893493652,2.3999853134155273,-0.0940990224480629
1.2617850303649902,2.3843655586242676,-0.09209451079368591
1.277523159980774,2.3760366439819336,-0.09036904573440552
1.278446078300476,2.3400769233703613,-0.08759385347366333
1.3098573684692383,2.358499765396118,-0.08680456131696701
1.3028600215911865,2.3087899684906006,-0.08350053429603577
1.3221784830093384,2.3068525791168213,-0.08189473301172256
1.3161885738372803,2.2607786655426025,-0.0787266343832016
1.34977388381958,2.2818799018859863,-0.07786661386489868
1.3347290754318237,2.2227284908294678,-0.07426263391971588
1.3492457866668701,2.2140092849731445,-0.07237640768289566
1.3649028539657593,2.2044575214385986,-0.07033350318670273
1.3673638105392456,2.175370931625366,-0.06770993024110794
1.3667652606964111,2.143458604812622,-0.06502290070056915
1.3961995840072632,2.1571009159088135,-0.06363511085510254
1.3959852457046509,2.1246678829193115,-0.060850173234939575
1.4142107963562012,2.1220333576202393,-0.058881230652332306
1.435050129890442,2.1222152709960938,-0.05692323297262192
1.4450963735580444,2.1059815883636475,-0.05446384847164154
1.4517501592636108,2.087202310562134,-0.05194755643606186
1.4614001512527466,2.070963144302368,-0.049369122833013535
1.4754087924957275,2.061065673828125,-0.04685208946466446
1.4701732397079468,2.0263805389404297,-0.04380297660827637
1.4656819105148315,1.9910191297531128,-0.040598802268505096
2.2582759857177734,3.1857380867004395,0.10025545209646225
2.620529890060425,3.751948833465576,0.12218903005123138
2.605239152908325,3.7908897399902344,0.12752869725227356
3.165152072906494,4.6802215576171875,0.16225610673427582
3.1279561519622803,4.695599555969238,0.16723598539829254
3.111292839050293,4.748537063598633,0.17350712418556213
3.0936970710754395,4.7970452308654785,0.17945969104766846
1.6430975198745728,2.587139129638672,0.09893900156021118
1.6231275796890259,2.5996134281158447,0.10155539959669113
1.5999659299850464,2.604675531387329,0.10377778112888336
2.927150011062622,4.840514659881592,0.196424663066864
2.809675931930542,4.724157333374023,0.19508422911167145
2.789883613586426,4.771908283233643,0.20042333006858826
2.777365207672119,4.8286356925964355,0.20600847899913788
2.485729694366455,4.3926472663879395,0.19023817777633667
2.4644205570220947,4.431301593780518,0.1946566253900528
2.456303358078003,4.493567943572998,0.20011919736862183
2.421222686767578,4.503555774688721,0.20316064357757568
2.474301338195801,4.682983875274658,0.2139517217874527
2.4665651321411133,4.752964496612549,0.21974191069602966
2.417827606201172,4.7427659034729,0.22180169820785522
2.3619778156280518,4.713994979858398,0.22286668419837952
2.3114013671875,4.695389270782471,0.22435083985328674
1.2306333780288696,2.54770827293396,0.12298019975423813
1.2103413343429565,2.5530128479003906,0.12445509433746338
1.1925326585769653,2.5613033771514893,0.12602482736110687
1.1795340776443481,2.580115556716919,0.1281232088804245
1.1607146263122559,2.588561534881592,0.129627525806427
1.1512081623077393,2.618323802947998,0.13220971822738647
2.068563461303711,4.79783296585083,0.24422946572303772
2.0473127365112305,4.840715408325195,0.24833537638187408
2.024916887283325,4.883800983428955,0.25241950154304504
2.002683162689209,4.930751323699951,0.25664231181144714
1.9813997745513916,4.981224060058594,0.2610827684402466
2.0323565006256104,5.216801643371582,0.2752994894981384
2.0070340633392334,5.2598795890808105,0.27942755818367004
1.9815471172332764,5.306898593902588,0.2836640477180481
1.959128737449646,5.3649516105651855,0.28846877813339233
1.9284803867340088,5.400774002075195,0.2920975983142853
1.8876069784164429,5.406800746917725,0.2941135764122009
1.8864725828170776,5.526743412017822,0.30234217643737793
1.8506563901901245,5.551053047180176,0.30521273612976074
1.893997311592102,5.820038795471191,0.3215782344341278
1.8984726667404175,5.978271007537842,0.33193710446357727
1.8687422275543213,6.032434463500977,0.33657437562942505
1.8379794359207153,6.082508087158203,0.3409920036792755
1.8067926168441772,6.136462688446045,0.3454936146736145
1.7843008041381836,6.2241129875183105,0.3518636226654053
1.7470794916152954,6.2628912925720215,0.35551029443740845
1.7218635082244873,6.342527389526367,0.3614756166934967
1.6858909130096436,6.38837194442749,0.36558136343955994
1.6486608982086182,6.43018102645874,0.369340717792511
0.8098783493041992,3.254889965057373,0.18758317828178406
1.5394911766052246,6.380765914916992,0.36897411942481995
0.7824738621711731,3.3456437587738037,0.19411301612854004
1.432289719581604,6.325517177581787,0.3682565987110138
1.3789607286453247,6.293342590332031,0.36760133504867554
1.3294249773025513,6.279987812042236,0.36778929829597473
1.2761847972869873,6.24715518951416,0.36684632301330566
