X,Y,Z
0.5063206553459167,3.7968971729278564,-0.4021754264831543
0.5367928147315979,3.8203413486480713,-0.40343448519706726
0.5644304156303406,3.8243772983551025,-0.4026685059070587
0.5969655513763428,3.8589208126068115,-0.40511712431907654
0.7261160612106323,4.487758159637451,-0.46961215138435364
0.7583680152893066,4.490538120269775,-0.46815964579582214
0.7866517305374146,4.470122337341309,-0.46431416273117065
0.8224316239356995,4.487624645233154,-0.4643857479095459
0.7169809937477112,3.7642855644226074,-0.3881049156188965
0.7483040690422058,3.7861385345458984,-0.38872987031936646
0.7642694115638733,3.731614351272583,-0.3814266622066498
0.9310688376426697,4.391921043395996,-0.446929007768631
0.9622130990028381,4.3854756355285645,-0.4442448914051056
0.9927381277084351,4.378932952880859,-0.4416102170944214
1.0211350917816162,4.364711761474609,-0.4378925859928131
1.0474975109100342,4.342761039733887,-0.43340954184532166
1.0812126398086548,4.350814342498779,-0.43193337321281433
1.1082191467285156,4.328264236450195,-0.4273764193058014
1.1382449865341187,4.3207688331604,-0.42429041862487793
1.1638271808624268,4.298158645629883,-0.419512003660202
1.1974895000457764,4.3053741455078125,-0.41766440868377686
1.2209327220916748,4.274842739105225,-0.4121529161930084
1.2512550354003906,4.266393661499023,-0.4087456464767456
1.2739040851593018,4.235655784606934,-0.4030866324901581
1.307512879371643,4.242031097412109,-0.4008840024471283
1.3319295644760132,4.218452453613281,-0.3958662748336792
1.3613002300262451,4.209410190582275,-0.3921999931335449
1.3873783349990845,4.188941478729248,-0.38740554451942444
1.4110020399093628,4.164971828460693,-0.3821423053741455
1.4445205926895142,4.170300483703613,-0.37958860397338867
1.4681675434112549,4.145880699157715,-0.3743042051792145
1.4944158792495728,4.128571033477783,-0.36967232823371887
1.5173008441925049,4.10398530960083,-0.3642652928829193
1.5457348823547363,4.093735694885254,-0.36002618074417114
1.576561450958252,4.090676784515381,-0.35647040605545044
1.5965957641601562,4.058175563812256,-0.3503096103668213
1.624660611152649,4.047393321990967,-0.3459876775741577
1.655112862586975,4.043831825256348,-0.3421553373336792
1.6800915002822876,4.025460720062256,-0.3370216488838196
1.8133516311645508,4.261320114135742,-0.3529513478279114
2.0103766918182373,4.634941101074219,-0.37970730662345886
2.041738510131836,4.62165641784668,-0.3742596507072449
2.074575424194336,4.611721038818359,-0.3691016137599945
2.105459451675415,4.593870162963867,-0.3631407618522644
2.130882740020752,4.565379619598389,-0.3564227223396301
2.1649882793426514,4.558381080627441,-0.35122495889663696
2.2007577419281006,4.554648399353027,-0.34628161787986755
2.2270636558532715,4.5292649269104,-0.3395855128765106
2.2627015113830566,4.52073860168457,-0.33403220772743225
2.293015718460083,4.505883693695068,-0.3279655873775482
2.3250503540039062,4.494266986846924,-0.3221406638622284
2.3670778274536133,4.499170780181885,-0.31732627749443054
1.7287694215774536,3.231682538986206,-0.2241649627685547
1.7503209114074707,3.220379114151001,-0.21954497694969177
1.7288962602615356,3.130167245864868,-0.20956823229789734
1.7583856582641602,3.131913423538208,-0.20574192702770233
1.8086707592010498,3.170985221862793,-0.20426863431930542
1.3351421356201172,2.3052711486816406,-0.14552387595176697
0.9552664756774902,1.6239160299301147,-0.10035055130720139
0.9567939043045044,1.6004968881607056,-0.09666448831558228
0.9693664312362671,1.5976344347000122,-0.09425859898328781
0.9799399375915527,1.591323971748352,-0.09163914620876312
0.9910426139831543,1.5845904350280762,-0.08887683600187302
0.9995326995849609,1.5747817754745483,-0.08594194799661636
1.0100065469741821,1.5682357549667358,-0.08314397931098938
1.022974967956543,1.564624309539795,-0.08040495216846466
1.031302809715271,1.554614543914795,-0.07731395214796066
1.0370112657546997,1.541555643081665,-0.07408823817968369
1.0586198568344116,1.5506336688995361,-0.07174943387508392
2.5581576824188232,3.6937482357025146,-0.16404742002487183
2.5863609313964844,3.6839282512664795,-0.15679240226745605
2.6029977798461914,3.653373956680298,-0.14808067679405212
2.6126039028167725,3.617974042892456,-0.13926300406455994
2.6504359245300293,3.6197457313537598,-0.13152296841144562
2.695504903793335,3.630491018295288,-0.12358977645635605
2.6361520290374756,3.6987438201904297,0.20992350578308105
2.60441517829895,3.711153984069824,0.21781356632709503
2.5859270095825195,3.7425777912139893,0.22643357515335083
1.0678627490997314,1.5713070631027222,0.09785271435976028
1.0610756874084473,1.5851073265075684,0.1012432873249054
1.0406546592712402,1.5797486305236816,0.1033475324511528
1.0324904918670654,1.5942010879516602,0.10676147043704987
1.0212322473526,1.601254940032959,0.10944890230894089
1.0094244480133057,1.6085410118103027,0.11211469769477844
0.9889273047447205,1.6027394533157349,0.11382513493299484
0.9814244508743286,1.6162970066070557,0.11678518354892731
0.9657353758811951,1.6164653301239014,0.11875344067811966
0.9614142775535583,1.6369725465774536,0.12212809920310974
1.3350811004638672,2.312293529510498,0.17510898411273956
1.8233323097229004,3.209200382232666,0.24639460444450378
1.7544682025909424,3.1403119564056396,0.24430982768535614
1.7511582374572754,3.190816879272461,0.25145381689071655
1.770306944847107,3.282104969024658,0.2618185877799988
1.7400007247924805,3.280320644378662,0.2646958529949188
2.369924783706665,4.546637058258057,0.3709099292755127
2.3325512409210205,4.556738376617432,0.3756409287452698
2.3055477142333984,4.587466716766357,0.38211122155189514
2.269973039627075,4.596068859100342,0.38652345538139343
2.240537166595459,4.618734359741211,0.3920429050922394
2.2064332962036133,4.6347150802612305,0.3968352973461151
2.1755096912384033,4.657496929168701,0.40223678946495056
2.139453411102295,4.665206432342529,0.4061998724937439
2.0997860431671143,4.665716171264648,0.40958261489868164
2.0750911235809326,4.70191764831543,0.4157910943031311
2.037466049194336,4.709478378295898,0.41947141289711
1.7495520114898682,4.125167369842529,0.37002912163734436
1.7177317142486572,4.12976598739624,0.372962087392807
1.685115933418274,4.134451389312744,0.3758939504623413
1.6549735069274902,4.146304607391357,0.3792377710342407
1.6304130554199219,4.172436237335205,0.3839155435562134
1.603403925895691,4.190921306610107,0.3878746032714844
1.571380615234375,4.194424152374268,0.390419065952301
1.5438482761383057,4.212628364562988,0.39429205656051636
1.5158722400665283,4.230764389038086,0.3979567587375641
1.4851806163787842,4.2413554191589355,0.4009335935115814
1.457476258277893,4.258903503417969,0.4045571982860565
1.4227771759033203,4.253942012786865,0.40602147579193115
1.3971374034881592,4.278531074523926,0.4102894961833954
1.3721576929092407,4.306774139404297,0.4146909713745117
1.3410313129425049,4.31631326675415,0.41732266545295715
1.3124598264694214,4.3329644203186035,0.4206461012363434
1.286576509475708,4.356695652008057,0.4246504306793213
1.256164312362671,4.365312576293945,0.4272056818008423
1.226426362991333,4.381611347198486,0.4302559196949005
1.1949381828308105,4.390080451965332,0.43252190947532654
1.1674115657806396,4.413348197937012,0.43627122044563293
1.1384916305541992,4.428707599639893,0.43923041224479675
1.109499454498291,4.443856239318848,0.4421909749507904
1.0794473886489868,4.459043979644775,0.4450371265411377
1.0485012531280518,4.470224857330322,0.44732505083084106
1.0165894031524658,4.47739839553833,0.449235737323761
0.98823082447052,4.49947452545166,0.45265841484069824
0.9585328102111816,4.513655185699463,0.4552946388721466
0.7993074655532837,3.899428367614746,0.3944180905818939
0.7543116211891174,3.8171520233154297,0.3868946433067322
0.7228690981864929,3.799360513687134,0.385879248380661
0.8357494473457336,4.56894063949585,0.4650108814239502
0.8077405095100403,4.59749698638916,0.46890124678611755
0.775126039981842,4.60294771194458,0.4704746603965759
0.7447906732559204,4.619612216949463,0.4731334447860718
0.7114911079406738,4.62080192565918,0.4739508628845215
0.6850306987762451,4.667884826660156,0.479504257440567
0.6519840955734253,4.672490119934082,0.48072564601898193
0.6198301315307617,4.684577465057373,0.48274457454681396
0.588163435459137,4.696366786956787,0.4847443997859955
0.5589584708213806,4.73112678527832,0.4890080690383911
0.5260595083236694,4.738718509674072,0.49026480317115784
0.49272894859313965,4.74221134185791,0.4911213517189026
0.460074782371521,4.753209590911865,0.4927811026573181
0.4284802973270416,4.779479026794434,0.49605533480644226
0.3958545923233032,4.790000915527344,0.49771326780319214
0.36533376574516296,4.831320285797119,0.5024237632751465
0.3319994807243347,4.841463088989258,0.503721296787262
0.2987796366214752,4.855254173278809,0.5054241418838501
0.26498353481292725,4.872727394104004,0.5075421929359436
0.23187255859375,4.889922618865967,0.5096501111984253
0.19817018508911133,4.899129867553711,0.5109522342681885
0.16481225192546844,4.923659324645996,0.5136808156967163
0.1308588832616806,4.940212726593018,0.5154106020927429
0.09603583067655563,4.952658653259277,0.5167375802993774
0.06166326627135277,4.968736171722412,0.5184686779975891
0.02727009914815426,4.992343902587891,0.5210108160972595
-0.007436573971062899,5.007942199707031,0.5227429866790771
-0.04228493943810463,5.015547752380371,0.5234753489494324
-0.07798318564891815,5.0306901931762695,0.5248288512229919
-0.11352504789829254,5.057243824005127,0.5274006128311157
-0.1488686352968216,5.06412935256958,0.5279452204704285
-0.18464875221252441,5.0785298347473145,0.529297947883606
-0.2199636548757553,5.077150344848633,0.5290312170982361
-0.25713977217674255,5.114353179931641,0.5326152443885803
-0.29384806752204895,5.124120235443115,0.5331582427024841
-0.2807043492794037,4.365940570831299,0.4538955092430115
-0.30512577295303345,4.282562732696533,0.44488033652305603
-0.3349023461341858,4.280394077301025,0.4443278908729553
-0.3682937026023865,4.320605754852295,0.44819316267967224
-0.3941001296043396,4.267679214477539,0.44224753975868225
-0.41699838638305664,4.199215412139893,0.4345782697200775
-0.4426669478416443,4.165415287017822,0.4305301308631897
-0.4653080403804779,4.1082892417907715,0.4241017699241638
-0.4905978739261627,4.078036308288574,0.420475035905838
-0.511077880859375,4.00901985168457,0.4128745496273041
-0.5356272459030151,3.9823901653289795,0.40950942039489746
-0.5564181208610535,3.932559013366699,0.4036569595336914
-0.5783025026321411,3.8941562175750732,0.3990103006362915
-0.599127471446991,3.8517916202545166,0.39398863911628723
-0.620136022567749,3.809206962585449,0.38895827531814575
-0.6394590139389038,3.7627618312835693,0.38357841968536377
-0.6599174737930298,3.727780818939209,0.37921708822250366
-0.6748554706573486,3.6659722328186035,0.37207165360450745
-0.6970072388648987,3.6461286544799805,0.3692197799682617
-0.7175526022911072,3.6184988021850586,0.3656006455421448
-0.7345569133758545,3.571575403213501,0.3600410223007202
-0.7512816190719604,3.528488874435425,0.354918897151947
-0.7645197510719299,3.474062919616699,0.34847527742385864
-0.788173496723175,3.4689242839813232,0.34696632623672485
-0.8100521564483643,3.456045627593994,0.34470000863075256
-0.8232982158660889,3.4050846099853516,0.3386405110359192
-0.8422850966453552,3.380556344985962,0.33525142073631287
-0.8637582659721375,3.367257833480835,0.3329693078994751
-0.8766611218452454,3.3238911628723145,0.3275437355041504
-0.891049861907959,3.288008451461792,0.32289379835128784
-0.9105825424194336,3.2707114219665527,0.32007938623428345
-0.93331378698349,3.2644662857055664,0.31835639476776123
-0.9450821280479431,3.2207329273223877,0.3130039870738983
-0.9626309275627136,3.1994636058807373,0.30974987149238586
-0.9739491939544678,3.15960431098938,0.30463045835494995
-0.9956638813018799,3.153012275695801,0.30272525548934937
-1.0029133558273315,3.10187029838562,0.29657819867134094
-1.0244920253753662,3.09499192237854,0.2946767508983612
-1.0384504795074463,3.065883159637451,0.2906574010848999
-1.0501643419265747,3.0332789421081543,0.2861585319042206
-1.06537926197052,3.01165771484375,0.2827274799346924
-1.086073637008667,3.0044524669647217,0.2806399166584015
-1.0962026119232178,2.9678030014038086,0.2758108675479889
-1.1113685369491577,2.9457192420959473,0.2723695635795593
-1.1102540493011475,2.883873224258423,0.26514312624931335
-1.135278582572937,2.8910486698150635,0.2642686665058136
-1.1376184225082397,2.8400771617889404,0.25808095932006836
-1.1499865055084229,2.814281702041626,0.2541973888874054
-1.1606011390686035,2.7848353385925293,0.2500142455101013
-1.1443793773651123,2.694725513458252,0.24032628536224365
-1.1437978744506836,2.6443474292755127,0.234232559800148
-1.1507465839385986,2.6117775440216064,0.22974029183387756
-1.173746943473816,2.6145381927490234,0.2283301055431366
-1.1952428817749023,2.6135528087615967,0.22659076750278473
-1.2127130031585693,2.605705738067627,0.22412464022636414
-1.2400665283203125,2.618891954421997,0.22344575822353363
-1.283346176147461,2.6631839275360107,0.22532929480075836
-1.2898542881011963,2.6299264430999756,0.22061163187026978
-1.274852991104126,2.554994583129883,0.2124408632516861
-1.2881726026535034,2.539793014526367,0.20919644832611084
-1.2977570295333862,2.5176076889038086,0.2054043412208557
-1.3041424751281738,2.4881651401519775,0.20097878575325012
-1.3144601583480835,2.4653074741363525,0.19705021381378174
-1.323404312133789,2.4430296421051025,0.19314061105251312
-1.3375513553619385,2.4310879707336426,0.19005326926708221
-1.346303105354309,2.40863299369812,0.1861123889684677
-1.3554191589355469,2.385829210281372,0.18209579586982727
-1.3794522285461426,2.3902666568756104,0.180054172873497
-1.383213758468628,2.3612515926361084,0.17550870776176453
-1.4069993495941162,2.3655483722686768,0.1733887493610382
-1.427574872970581,2.362541675567627,0.1706121414899826
-1.4228488206863403,2.320007801055908,0.1649487465620041
-1.4340444803237915,2.3041584491729736,0.1611609160900116
-1.4455113410949707,2.2879981994628906,0.15729999542236328
-1.4571640491485596,2.2715718746185303,0.15335844457149506
-1.4653726816177368,2.2525746822357178,0.14919251203536987
-1.4863957166671753,2.2530221939086914,0.14629784226417542
-1.4611657857894897,2.1810460090637207,0.13849234580993652
-1.5017106533050537,2.210397481918335,0.1371646523475647
-1.4759160280227661,2.143193006515503,0.12985870242118835
-1.490768551826477,2.1331307888031006,0.12581698596477509
-1.497955322265625,2.1139960289001465,0.12120041251182556
-1.5069160461425781,2.0982494354248047,0.11672620475292206
-1.5169401168823242,2.0816097259521484,0.11190565675497055
-1.5161378383636475,2.053391933441162,0.10646606236696243
-1.5019749402999878,2.1035561561584473,-0.07871155440807343
-1.515390396118164,2.156067132949829,-0.08515723049640656
-1.474851369857788,2.1317903995513916,-0.08844412863254547
-1.4926197528839111,2.190434217453003,-0.0949312075972557
-1.4803012609481812,2.207984209060669,-0.09973025321960449
-1.4773170948028564,2.237901210784912,-0.10492025315761566
-1.464922308921814,2.255143404006958,-0.10953596234321594
-1.4499508142471313,2.2692222595214844,-0.11394058912992477
-1.4380950927734375,2.2857792377471924,-0.11823948472738266
-1.4255491495132446,2.3026020526885986,-0.12253346294164658
-1.416449785232544,2.3262908458709717,-0.1272120326757431
-1.3997210264205933,2.336183786392212,-0.13103249669075012
-1.3987821340560913,2.3728387355804443,-0.13628989458084106
-1.389018177986145,2.3964035511016846,-0.1408369243144989
-1.356419563293457,2.3789310455322266,-0.1428513079881668
-1.3472951650619507,2.4018027782440186,-0.1472070962190628
-1.3330692052841187,2.418417453765869,-0.15121221542358398
-1.3228464126586914,2.441561460494995,-0.15558283030986786
-1.3112399578094482,2.460862159729004,-0.15962788462638855
-1.3297024965286255,2.5390942096710205,-0.1675444096326828
-1.3075354099273682,2.541585683822632,-0.17050926387310028
-1.301363468170166,2.575139284133911,-0.17556574940681458
-1.2937284708023071,2.6049015522003174,-0.1803186982870102
-1.2611181735992432,2.5859622955322266,-0.18162666261196136
-1.227131724357605,2.5631911754608154,-0.18260659277439117
-1.1924448013305664,2.5362823009490967,-0.18315687775611877
-1.187736988067627,2.572655439376831,-0.18824779987335205
-1.1784231662750244,2.6024041175842285,-0.19285157322883606
-1.162725806236267,2.617762327194214,-0.19638556241989136
-1.1551772356033325,2.6506640911102295,-0.20120815932750702
-1.1258282661437988,2.6334009170532227,-0.2022113800048828
-1.1082960367202759,2.644836187362671,-0.20529526472091675
-1.1347060203552246,2.7644107341766357,-0.2169198840856552
-1.135589838027954,2.822697877883911,-0.22378338873386383
-1.1229976415634155,2.8484485149383545,-0.22811712324619293
-1.1222271919250488,2.907061815261841,-0.23499822616577148
-1.1096107959747314,2.9366674423217773,-0.23959602415561676
-1.0925302505493164,2.955291986465454,-0.24333946406841278
-1.0798426866531372,2.984583616256714,-0.24793216586112976
-1.0664243698120117,3.0139760971069336,-0.25245991349220276
-1.056330919265747,3.0544111728668213,-0.25790902972221375
-1.0308748483657837,3.0505435466766357,-0.25963401794433594
-1.0177770853042603,3.0834250450134277,-0.2645053565502167
-1.000889778137207,3.1050920486450195,-0.2683578133583069
-0.9834388494491577,3.126776695251465,-0.27211666107177734
-0.972603440284729,3.170686960220337,-0.277852863073349
-0.9503933787345886,3.1771984100341797,-0.28031811118125916
-0.9314832091331482,3.1947410106658936,-0.28377053141593933
-0.9169586896896362,3.231109142303467,-0.2887797951698303
-0.9002180099487305,3.2598390579223633,-0.29308730363845825
-0.8842567801475525,3.29221248626709,-0.2977531850337982
-0.8671403527259827,3.320690870285034,-0.3020893931388855
-0.845736563205719,3.3340325355529785,-0.3050062656402588
-0.8216692209243774,3.339853048324585,-0.307107150554657
-0.8133171796798706,3.409738302230835,-0.31511780619621277
-0.586159884929657,2.535781145095825,-0.23552054166793823
-0.7596465349197388,3.3938117027282715,-0.316785991191864
-0.7374292612075806,3.4064931869506836,-0.3193797171115875
-0.735234260559082,3.5181374549865723,-0.3312498927116394
-0.7226971983909607,3.5840673446655273,-0.3388747572898865
-0.702205240726471,3.6117382049560547,-0.3429119884967804
-0.6777543425559998,3.6201846599578857,-0.3451527953147888
-0.6660522222518921,3.701260566711426,-0.3540758192539215
-0.639533519744873,3.7057764530181885,-0.35572996735572815
-0.6179834008216858,3.7368688583374023,-0.3599361479282379
-0.5980406403541565,3.7793307304382324,-0.3652676045894623
-0.5791985392570496,3.8332431316375732,-0.3716837167739868
-0.5545002222061157,3.85247802734375,-0.3745197057723999
-0.5301239490509033,3.879321813583374,-0.3781418204307556
-0.5060174465179443,3.905932664871216,-0.3817492425441742
-0.4840277433395386,3.951676607131958,-0.3872586488723755
-0.4627225399017334,4.0089030265808105,-0.3937971889972687
-0.43924564123153687,4.054457187652588,-0.3990333080291748
-0.4155796766281128,4.103739261627197,-0.4046717882156372
-0.38900208473205566,4.133569240570068,-0.40843817591667175
-0.3609001338481903,4.143815994262695,-0.41028061509132385
-0.32984304428100586,4.119019508361816,-0.40845978260040283
-0.30302518606185913,4.148292541503906,-0.4118657410144806
-0.27658236026763916,4.189024925231934,-0.4164378046989441
-0.24415917694568634,4.144242286682129,-0.4125351309776306
-0.21492408215999603,4.13800573348999,-0.41247260570526123
-0.18573807179927826,4.131592750549316,-0.4121329188346863
-0.15589399635791779,4.105566501617432,-0.40974077582359314
-0.12678317725658417,4.0909810066223145,-0.4085082411766052
-0.09690840542316437,4.052886009216309,-0.4049484431743622
-0.06977170705795288,4.115611553192139,-0.4114795923233032
-0.040611714124679565,4.061581611633301,-0.4060588479042053
-0.012332192622125149,4.061770915985107,-0.40601491928100586
0.015882831066846848,4.053988456726074,-0.4051940143108368
0.0443103089928627,4.034346580505371,-0.4032072126865387
0.0723293125629425,4.0339460372924805,-0.4031636714935303
0.09974626451730728,4.010069370269775,-0.4004651606082916
0.12806999683380127,4.02485990524292,-0.40162184834480286
0.15630267560482025,4.031681537628174,-0.40200090408325195
0.18328434228897095,4.007238388061523,-0.3992822766304016
0.2502322494983673,4.735633373260498,-0.47153177857398987
0.2816926836967468,4.71058988571167,-0.4683261513710022
0.3164430856704712,4.7396392822265625,-0.4705197811126709
0.34478914737701416,4.675386905670166,-0.463477224111557
0.3773028552532196,4.672962665557861,-0.4625941514968872
0.4093537926673889,4.658652305603027,-0.46048858761787415
0.4420110881328583,4.659698009490967,-0.45959070324897766
0.4738752245903015,4.6527838706970215,-0.45793092250823975
0.5036005973815918,4.6263227462768555,-0.45437368750572205
0.5357844829559326,4.622831344604492,-0.4530957043170929
0.5674476027488708,4.611354827880859,-0.4509332776069641
0.5973204374313354,4.5920610427856445,-0.4477582275867462
0.6279712915420532,4.580282688140869,-0.4453454911708832
0.6563839316368103,4.552888870239258,-0.44143956899642944
0.686887800693512,4.540682792663574,-0.4390314221382141
0.7182802557945251,4.532063961029053,-0.43681463599205017
0.746993899345398,4.511848449707031,-0.4333183765411377
0.7767859101295471,4.499114990234375,-0.4305691719055176
0.8052861094474792,4.478489875793457,-0.4270821511745453
0.7020325064659119,3.7542362213134766,-0.3567594885826111
0.7280123233795166,3.749462604522705,-0.3548869788646698
0.7558252811431885,3.752081871032715,-0.35358884930610657
0.912762463092804,4.375268936157227,-0.4105587601661682
0.9480981826782227,4.391848087310791,-0.41034990549087524
0.9811661839485168,4.396756649017334,-0.40905675292015076
1.0114291906356812,4.390138626098633,-0.40642860531806946
1.0375889539718628,4.36428689956665,-0.4019649624824524
1.0676411390304565,4.357278347015381,-0.3992939889431
1.0999412536621094,4.357511520385742,-0.39727604389190674
1.1243664026260376,4.327404975891113,-0.39247697591781616
1.158120036125183,4.334877967834473,-0.39084577560424805
1.1863335371017456,4.3194451332092285,-0.38712626695632935
1.2119972705841064,4.29641056060791,-0.3827776312828064
1.2375701665878296,4.273176670074463,-0.3784324824810028
1.2648253440856934,4.257345676422119,-0.37463080883026123
1.2939279079437256,4.2488789558410645,-0.37136110663414
1.3257956504821777,4.247489929199219,-0.3686796724796295
1.3529961109161377,4.231019020080566,-0.36470404267311096
1.3776741027832031,4.206950664520264,-0.3600989282131195
1.4039520025253296,4.190343856811523,-0.3559345006942749
1.4288043975830078,4.169889450073242,-0.35145583748817444
1.454922080039978,4.152896404266357,-0.34727907180786133
1.4843640327453613,4.1427693367004395,-0.34361517429351807
1.5128939151763916,4.132741451263428,-0.33992499113082886
1.5409921407699585,4.122657299041748,-0.3361353278160095
1.5634678602218628,4.097822189331055,-0.3311689496040344
1.589180827140808,4.07987117767334,-0.32671859860420227
1.620919942855835,4.076066493988037,-0.32334235310554504
1.6309977769851685,4.021958827972412,-0.3158958852291107
1.6701864004135132,4.0399065017700195,-0.3141348958015442
1.7010884284973145,4.035767555236816,-0.310588002204895
1.9861201047897339,4.622010231018066,-0.3519715368747711
2.0274033546447754,4.629965305328369,-0.3486066460609436
2.0586252212524414,4.6165385246276855,-0.3436654210090637
2.0902481079101562,4.602679252624512,-0.3386456072330475
2.122330665588379,4.588347911834717,-0.33353689312934875
2.146911144256592,4.560046672821045,-0.32732412219047546
2.1814839839935303,4.552635192871094,-0.3225042223930359
2.2176685333251953,4.548509120941162,-0.3179285228252411
2.2476511001586914,4.529794692993164,-0.31224679946899414
2.278364896774292,4.514801502227783,-0.30674874782562256
2.308608293533325,4.499785900115967,-0.30121341347694397
2.3447232246398926,4.494647979736328,-0.2962578535079956
1.731264591217041,3.262238025665283,-0.2115315943956375
1.7402005195617676,3.2267677783966064,-0.2057604193687439
1.7223244905471802,3.1435251235961914,-0.19704292714595795
1.7401658296585083,3.1250228881835938,-0.19236204028129578
1.769526481628418,3.126697063446045,-0.18886737525463104
1.327891230583191,2.309990644454956,-0.1367679387331009
1.2941194772720337,2.2170286178588867,-0.12862540781497955
0.9533101916313171,1.6074405908584595,-0.09124880284070969
0.9641315937042236,1.6011074781417847,-0.0888632982969284
0.9726137518882751,1.5915287733078003,-0.0863008052110672
0.9857608675956726,1.5881495475769043,-0.08395395427942276
0.9966524839401245,1.5814695358276367,-0.08142385631799698
1.0153963565826416,1.5881903171539307,-0.07955660670995712
1.0175694227218628,1.5683503150939941,-0.07630002498626709
1.0283817052841187,1.561410903930664,-0.07361157238483429
1.0473101139068604,1.5677180290222168,-0.07147975265979767
1.049013614654541,1.5478767156600952,-0.06811908632516861
2.546175241470337,3.70233416557312,-0.15675383806228638
2.5743374824523926,3.692617416381836,-0.15012109279632568
2.594752550125122,3.6690306663513184,-0.1425887942314148
2.605969190597534,3.632568359375,-0.13426370918750763
2.6245110034942627,3.6098124980926514,-0.12658551335334778
2.6634671688079834,3.610600233078003,-0.11907268315553665
2.6185731887817383,3.70255446434021,0.19300806522369385
2.592560291290283,3.7204315662384033,0.2002718597650528
2.554814100265503,3.7271487712860107,0.2068183720111847
1.0669363737106323,1.5818310976028442,0.09029906988143921
1.0556122064590454,1.58925199508667,0.09304837882518768
1.030547857284546,1.5775699615478516,0.0946120172739029
1.0189696550369263,1.5849175453186035,0.0971853956580162
1.0077539682388306,1.5919207334518433,0.09963906556367874
0.9954098463058472,1.5995128154754639,0.10210590064525604
0.9835125803947449,1.606703519821167,0.10447217524051666
0.9802911877632141,1.626765251159668,0.10758811235427856
0.9602656960487366,1.620411992073059,0.10891447216272354
1.348441481590271,2.314822196960449,0.1580488681793213
1.3723012208938599,2.395395278930664,0.1659921407699585
1.7841037511825562,3.1656970977783203,0.22245436906814575
1.7565507888793945,3.1718852519989014,0.22583161294460297
1.7830345630645752,3.277143716812134,0.23635423183441162
1.7601286172866821,3.289235830307007,0.24004605412483215
2.3914036750793457,4.546964168548584,0.3357299864292145
2.3469388484954834,4.543403148651123,0.33910441398620605
2.3202877044677734,4.574191093444824,0.34505563974380493
2.284677743911743,4.58302116394043,0.3491811454296112
2.252506732940674,4.598565101623535,0.35379892587661743
2.2213470935821533,4.6219964027404785,0.3588787019252777
2.1872270107269287,4.637892246246338,0.36334267258644104
2.160684823989868,4.6671576499938965,0.36877480149269104
2.12479567527771,4.67471170425415,0.37245509028434753
2.0878353118896484,4.682477951049805,0.37598809599876404
2.0565500259399414,4.704482078552246,0.3806025981903076
1.9894195795059204,4.644068717956543,0.3785574436187744
1.7306417226791382,4.11887788772583,0.338123083114624
1.7048087120056152,4.137788772583008,0.34205153584480286
1.6717374324798584,4.142601490020752,0.3445945382118225
1.641584038734436,4.15438175201416,0.34772902727127075
1.614047646522522,4.173245429992676,0.35148635506629944
1.584874153137207,4.184157371520996,0.35450220108032227
1.5635253190994263,4.216855525970459,0.35933807492256165
1.5276496410369873,4.2131829261779785,0.36087703704833984
1.499674916267395,4.231245040893555,0.3642956614494324
1.4688931703567505,4.241787910461426,0.3670940399169922
1.4393019676208496,4.251687526702881,0.36977776885032654
1.41193687915802,4.268824100494385,0.3730708956718445
1.3847224712371826,4.289787769317627,0.37650081515312195
1.356149673461914,4.3068528175354,0.37961286306381226
1.3247958421707153,4.316380977630615,0.38210007548332214
1.294623613357544,4.325314521789551,0.38448840379714966
1.2731106281280518,4.363926410675049,0.3895447552204132
1.2375818490982056,4.357761383056641,0.3903568387031555
1.214538812637329,4.396356582641602,0.3951844274997711
1.1809110641479492,4.397257328033447,0.3966509699821472
1.1516424417495728,4.412866115570068,0.39944779872894287
1.118937373161316,4.413055419921875,0.40084412693977356
1.0933681726455688,4.443330764770508,0.40483585000038147
1.059860348701477,4.4432783126831055,0.40595245361328125
1.031619668006897,4.465728759765625,0.40914928913116455
1.0037846565246582,4.491836071014404,0.4127172529697418
0.9724476933479309,4.498560428619385,0.41449594497680664
0.9386783242225647,4.493641376495361,0.4152185320854187
0.7691647410392761,3.8174288272857666,0.3534766733646393
0.7434890270233154,3.830322742462158,0.3554300367832184
0.8498990535736084,4.554401397705078,0.4235588610172272
0.8222154974937439,4.583059310913086,0.42715370655059814
0.7903039455413818,4.588533878326416,0.42861050367355347
0.7607650756835938,4.609167575836182,0.4313963055610657
0.7299890518188477,4.625848293304443,0.43362581729888916
0.6978707313537598,4.638558864593506,0.43551984429359436
0.6673241853713989,4.658660888671875,0.4381202757358551
0.6370036602020264,4.678497314453125,0.4407116770744324
0.6054435968399048,4.690422058105469,0.4425826370716095
0.5716438293457031,4.686733722686768,0.442818820476532
0.5430346131324768,4.729205131530762,0.44730326533317566
0.5104038119316101,4.744492530822754,0.4492519497871399
0.47671109437942505,4.744009017944336,0.4497203230857849
0.4462379813194275,4.774235248565674,0.4531199634075165
0.41302254796028137,4.777144432067871,0.4539518654346466
0.38206222653388977,4.810873031616211,0.4574955403804779
0.3482923209667206,4.821184158325195,0.4587478041648865
0.31600692868232727,4.846742153167725,0.4614706039428711
0.282577782869339,4.856548309326172,0.4627172648906708
0.24977464973926544,4.877767086029053,0.4650740921497345
0.21617433428764343,4.887107849121094,0.46632295846939087
0.1820213496685028,4.9040422439575195,0.46803537011146545
0.14869414269924164,4.936273574829102,0.4711635410785675
0.11438586562871933,4.94495153427124,0.4720669686794281
0.08007790893316269,4.957278251647949,0.4733419418334961
0.04576236382126808,4.981030464172363,0.47573158144950867
0.010531147941946983,4.996767997741699,0.4773823320865631
-0.024292072281241417,5.0122880935668945,0.4787226915359497
-0.0592384859919548,5.019792556762695,0.4792788028717041
-0.09463454782962799,5.042603015899658,0.4813184142112732
-0.13019853830337524,5.061277866363525,0.48298561573028564
-0.1654442548751831,5.060266494750977,0.4827970564365387
-0.20126067101955414,5.058986186981201,0.48260536789894104
-0.23781341314315796,5.088593482971191,0.4850465953350067
-0.27514010667800903,5.125707626342773,0.4881947338581085
-0.30739685893058777,5.069385528564453,0.48246750235557556
-0.29088547825813293,4.302838325500488,0.4092244803905487
-0.3195696771144867,4.2774505615234375,0.40653741359710693
-0.3499144911766052,4.282922744750977,0.4068089723587036
-0.3808155357837677,4.2959747314453125,0.4075251817703247
-0.4045056700706482,4.231377601623535,0.4008927345275879
-0.4285565912723541,4.1782612800598145,0.39537951350212097
-0.45375916361808777,4.13654899597168,0.3909650146961212
-0.4775233864784241,4.090874671936035,0.38621073961257935
-0.5002214908599854,4.041208744049072,0.3810923099517822
-0.5224084854125977,3.9953513145446777,0.3761020600795746
-0.544520378112793,3.953233003616333,0.37149477005004883
-0.567152738571167,3.9147751331329346,0.3672490417957306
-0.5884139537811279,3.872389316558838,0.36267057061195374
-0.6080098152160645,3.822195529937744,0.3573886454105377
-0.6300091743469238,3.791125774383545,0.35387498140335083
-0.6506489515304565,3.756171941757202,0.3498121500015259
-0.6763609051704407,3.751739025115967,0.3486146330833435
-0.6903061866760254,3.6820473670959473,0.3413698971271515
-0.7068852782249451,3.631462812423706,0.3359403610229492
-0.7282572984695435,3.607503890991211,0.3330012261867523
-0.7435643672943115,3.5568149089813232,0.3275275230407715
-0.7612118721008301,3.5213701725006104,0.3233472406864166
-0.7796695232391357,3.4895565509796143,0.31951478123664856
-0.796509325504303,3.453939914703369,0.3153766989707947
-0.8151023983955383,3.425731658935547,0.3119286298751831
-0.8351625204086304,3.4049971103668213,0.3091869056224823
-0.8498567938804626,3.365386962890625,0.30460405349731445
-0.8671796917915344,3.336988687515259,0.3009885847568512
-0.8817940354347229,3.301081657409668,0.2967420816421509
-0.9024232029914856,3.2875702381134033,0.29452142119407654
-0.9199904203414917,3.2626235485076904,0.29128730297088623
-0.9339509606361389,3.226393222808838,0.287045419216156
-0.949503481388092,3.1976521015167236,0.28331258893013
-0.966586709022522,3.176409959793091,0.2802915573120117
-0.9822970628738403,3.1513559818267822,0.2769574224948883
-0.9924026727676392,3.1075007915496826,0.27197185158729553
-1.0092053413391113,3.085855722427368,0.26896223425865173
-1.0330348014831543,3.0863351821899414,0.2677326500415802
-1.0450189113616943,3.05367112159729,0.26361599564552307
-1.0604653358459473,3.0320088863372803,0.26047807931900024
-1.0709127187728882,2.995438814163208,0.25605982542037964
-1.0917558670043945,2.988067626953125,0.2541525363922119
-1.1040593385696411,2.9587862491607666,0.25032296776771545
-1.117310881614685,2.9331560134887695,0.24672004580497742
-1.1200852394104004,2.882185697555542,0.24104875326156616
-1.142691969871521,2.8818490505218506,0.2396138608455658
-1.1422754526138306,2.82344913482666,0.23336277902126312
-1.1571378707885742,2.8049263954162598,0.23038867115974426
-1.1550211906433105,2.7469136714935303,0.22409015893936157
-1.1472548246383667,2.6784427165985107,0.21703647077083588
-1.1453168392181396,2.6242780685424805,0.21117299795150757
-1.1651980876922607,2.6199469566345215,0.20932504534721375
-1.1862726211547852,2.6192030906677246,0.20770300924777985
-1.195844292640686,2.5935895442962646,0.20403191447257996
-1.2412463426589966,2.6457021236419678,0.20648552477359772
-1.2695666551589966,2.6583476066589355,0.20575831830501556
-1.2880457639694214,2.6496284008026123,0.20335988700389862
-1.27116858959198,2.5712857246398926,0.1955660879611969
-1.3094253540039062,2.604658603668213,0.19624485075473785
-1.2967228889465332,2.536998748779297,0.18933452665805817
-1.3036795854568481,2.5072906017303467,0.18524353206157684
-1.3135370016098022,2.4847049713134766,0.1816730499267578
-1.326240062713623,2.4692904949188232,0.1785782277584076
-1.3294596672058105,2.436702251434326,0.17427389323711395
-1.3466768264770508,2.427424907684326,0.1715252697467804
-1.3557378053665161,2.4046788215637207,0.16785679757595062
-1.3636868000030518,2.382415771484375,0.16417254507541656
-1.391008973121643,2.393855333328247,0.16280950605869293
-1.3877334594726562,2.3507773876190186,0.15763452649116516
-1.4242215156555176,2.374645233154297,0.1568727344274521
-1.4274437427520752,2.345554828643799,0.15257221460342407
-1.4263345003128052,2.3098273277282715,0.14788036048412323
-1.44660222530365,2.3066041469573975,0.14512701332569122
-1.4494777917861938,2.2773008346557617,0.14071400463581085
-1.4643744230270386,2.267948627471924,0.13748152554035187
-1.4689053297042847,2.2419302463531494,0.13319483399391174
-1.490828275680542,2.2416844367980957,0.13034912943840027
-1.4985110759735107,2.2226500511169434,0.12635889649391174
-1.4997483491897583,2.1937084197998047,0.12177792936563492
-1.4774702787399292,2.1287052631378174,0.115040123462677
-1.4931448698043823,2.122706890106201,0.11158645898103714
-1.5001145601272583,2.103616952896118,0.10735656321048737
-1.5054877996444702,2.0807361602783203,0.10271812230348587
-1.5184255838394165,2.0715065002441406,0.09874198585748672
-1.5229389667510986,2.0489675998687744,0.09389713406562805
-1.5145467519760132,2.1378676891326904,-0.0761692076921463
-1.5121400356292725,2.168034553527832,-0.08127006143331528
-1.4920141696929932,2.172307252883911,-0.08521196991205215
-1.4795016050338745,2.1901063919067383,-0.08974669873714447
-1.4900439977645874,2.239276170730591,-0.09528310596942902
-1.469144344329834,2.243546724319458,-0.09893094003200531
-1.4566303491592407,2.260810613632202,-0.10310401767492294
-1.440769910812378,2.270782232284546,-0.10675650089979172
-1.4338860511779785,2.297992467880249,-0.11128273606300354
-1.4250472784042358,2.3216428756713867,-0.11557865887880325
-1.4169076681137085,2.3447036743164062,-0.11970977485179901
-1.399729609489441,2.3548202514648438,-0.1231674924492836
-1.3862019777297974,2.3716700077056885,-0.12698589265346527
-1.365373134613037,2.374544143676758,-0.12995471060276031
-1.3482528924942017,2.384127140045166,-0.13321024179458618
-1.3381969928741455,2.407473087310791,-0.13723425567150116
-1.3284622430801392,2.4304752349853516,-0.14118626713752747
-1.3206651210784912,2.4567060470581055,-0.14530549943447113
-1.3023239374160767,2.4662907123565674,-0.1484491527080536
-1.2914379835128784,2.489410877227783,-0.15238206088542938
-1.281091570854187,2.5120935440063477,-0.15621186792850494
-1.2736949920654297,2.54186749458313,-0.16048938035964966
-1.2878620624542236,2.6173737049102783,-0.16768987476825714
-1.2822083234786987,2.6546401977539062,-0.1725531965494156
-1.2335213422775269,2.599940061569214,-0.1713041365146637
-1.2033824920654297,2.5837619304656982,-0.17247237265110016
-1.1959370374679565,2.61706805229187,-0.1769147366285324
-1.1931376457214355,2.660942792892456,-0.18209883570671082
-1.158882975578308,2.633315324783325,-0.18234002590179443
-1.1459929943084717,2.6557555198669434,-0.1860157698392868
-1.1526768207550049,2.7247767448425293,-0.19294105470180511
-1.1511238813400269,2.775949001312256,-0.19867484271526337
-1.1434417963027954,2.812619924545288,-0.20339149236679077
-1.1277998685836792,2.831328868865967,-0.20678547024726868
-1.1098811626434326,2.8465781211853027,-0.20990899205207825
-1.1005687713623047,2.883396625518799,-0.2146177589893341
-1.0994991064071655,2.941927671432495,-0.220957413315773
-1.080143690109253,2.9530487060546875,-0.2237490564584732
-1.0694653987884521,2.9898741245269775,-0.22840075194835663
-1.0553438663482666,3.0194711685180664,-0.23257876932621002
-1.0417211055755615,3.04872465133667,-0.23669426143169403
-1.0266245603561401,3.0741961002349854,-0.24054206907749176
-1.001143217086792,3.0701205730438232,-0.24194549024105072
-0.9898805618286133,3.1104013919830322,-0.24684546887874603
-0.9744057059288025,3.1395788192749023,-0.2509252429008484
-0.9626752734184265,3.1796576976776123,-0.2558632493019104
-0.9447540640830994,3.2010974884033203,-0.259263277053833
-0.9306190013885498,3.237494707107544,-0.2637885510921478
-0.9160140156745911,3.273846387863159,-0.2683526277542114
-0.8951220512390137,3.287520170211792,-0.2710675001144409
-0.8747595548629761,3.304905891418457,-0.27413326501846313
-0.8591613173484802,3.3410065174102783,-0.2785758674144745
-0.8250832557678223,3.3053014278411865,-0.27700290083885193
-0.8136252164840698,3.3600800037384033,-0.28302526473999023
-0.8035775423049927,3.4223501682281494,-0.28971585631370544
-0.7680237293243408,3.37846302986145,-0.28742510080337524
-0.7667181491851807,3.486311912536621,-0.2978595197200775
-0.7477706074714661,3.5181400775909424,-0.301859050989151
-0.7340372204780579,3.5765304565429688,-0.3081742227077484
-0.7136545181274414,3.604314088821411,-0.3118855953216553
-0.6945559978485107,3.6435656547546387,-0.31652888655662537
-0.6759045124053955,3.6865170001983643,-0.3213616609573364
-0.6546573638916016,3.7178826332092285,-0.3252199590206146
-0.6338706612586975,3.7529289722442627,-0.3294242024421692
-0.6126899123191833,3.7878520488739014,-0.33364954590797424
-0.5898160934448242,3.818925619125366,-0.3373975157737732
-0.5697674751281738,3.869063138961792,-0.3427440822124481
-0.5468834042549133,3.9036879539489746,-0.34675171971321106
-0.5263732671737671,3.9574294090270996,-0.3524848222732544
-0.5046889781951904,4.007204055786133,-0.35790401697158813
-0.4807998239994049,4.045313835144043,-0.3620607852935791
-0.45799902081489563,4.102682590484619,-0.36792707443237305
-0.43453314900398254,4.156002521514893,-0.3734539747238159
-0.4064042568206787,4.166574954986572,-0.37516263127326965
-0.3813064694404602,4.211828708648682,-0.38002151250839233
-0.3518563508987427,4.214325904846191,-0.38074538111686707
-0.3203909397125244,4.197261810302734,-0.3797031044960022
-0.2921820282936096,4.214856147766113,-0.38180476427078247
-0.25631290674209595,4.111888408660889,-0.37299126386642456
-0.22730004787445068,4.105740070343018,-0.3729579746723175
-0.19979599118232727,4.130507469177246,-0.3754260838031769
-0.16985231637954712,4.116240978240967,-0.3743691146373749
-0.14114919304847717,4.117293357849121,-0.37471887469291687
-0.13509760797023773,4.94644021987915,-0.4505067765712738
-0.1003308817744255,4.931668281555176,-0.44947296380996704
-0.06616327911615372,4.947805881500244,-0.4509066343307495
-0.030882956460118294,4.917028903961182,-0.4480867087841034
0.0033412466291338205,4.909343242645264,-0.4473933279514313
0.03733803704380989,4.88585901260376,-0.44528186321258545
0.0711904913187027,4.877706050872803,-0.4445282220840454
0.10437152534723282,4.842124938964844,-0.4409550726413727
0.13739359378814697,4.817984104156494,-0.43844911456108093
0.1714523583650589,4.816927433013916,-0.4380621016025543
0.20388811826705933,4.7923359870910645,-0.4355626404285431
0.23601312935352325,4.767532825469971,-0.4329887926578522
0.2690063416957855,4.765853404998779,-0.43223610520362854
0.3017824590206146,4.7600603103637695,-0.43113088607788086
0.33428359031677246,4.74235725402832,-0.42895975708961487
0.36546140909194946,4.71671199798584,-0.42610394954681396
0.397571325302124,4.706381797790527,-0.4245557487010956
0.4287443459033966,4.688117980957031,-0.42204150557518005
0.4589610695838928,4.661900520324707,-0.41883745789527893
0.49184155464172363,4.6586480140686035,-0.4177069664001465
0.5229144096374512,4.64361572265625,-0.415554940700531
0.5523441433906555,4.6168060302734375,-0.41225025057792664
0.5832116603851318,4.6052937507629395,-0.4101061522960663
0.6150166392326355,4.601284027099609,-0.40865015983581543
0.6431560516357422,4.566131591796875,-0.40443146228790283
0.6738232970237732,4.55396842956543,-0.4022925794124603
0.7012044191360474,4.5224103927612305,-0.39831435680389404
0.7311819195747375,4.509932518005371,-0.3958588242530823
0.7662152051925659,4.527953624725342,-0.3960947096347809
0.7935737371444702,4.499685287475586,-0.3922937214374542
0.8169995546340942,4.448172092437744,-0.3864786922931671
0.7164491415023804,3.7544000148773193,-0.3249574899673462
0.7422828674316406,3.7495293617248535,-0.32320597767829895
0.7861050367355347,3.8321752548217773,-0.3289812207221985
0.9380395412445068,4.41697883605957,-0.3776329457759857
0.9676088094711304,4.402805805206299,-0.3748586177825928
0.9978770613670349,4.396241188049316,-0.3725437819957733
1.028018593788147,4.389491558074951,-0.37017056345939636
1.0554090738296509,4.371171951293945,-0.36684155464172363
1.0820863246917725,4.348799228668213,-0.3631752133369446
1.1167515516281128,4.356310844421387,-0.3619783818721771
1.1426465511322021,4.333705902099609,-0.3580622971057892
1.1703208684921265,4.318465709686279,-0.3547821640968323
1.2001029253005981,4.3105034828186035,-0.3521083891391754
1.227968454360962,4.294768333435059,-0.3488011360168457
1.2537988424301147,4.271294116973877,-0.34476545453071594
1.2807080745697021,4.255404472351074,-0.34124651551246643
1.307491660118103,4.239333629608154,-0.337734192609787
1.341561198234558,4.245254039764404,-0.3359549045562744
1.366347074508667,4.2212018966674805,-0.33180710673332214
1.390923261642456,4.197005748748779,-0.32746341824531555
1.4220222234725952,4.195045471191406,-0.3248639702796936
1.4443899393081665,4.167031764984131,-0.3202546238899231
1.4733996391296387,4.157110214233398,-0.3170230984687805
1.499517798423767,4.13972282409668,-0.31319355964660645
1.5222259759902954,4.1150689125061035,-0.30868852138519287
1.5506426095962524,4.104703426361084,-0.30523496866226196
1.579050064086914,4.094115734100342,-0.3017736077308655
1.6047152280807495,4.076004981994629,-0.29775941371917725
1.6324632167816162,4.065234661102295,-0.2941434681415558
1.6540982723236084,4.039900302886963,-0.2894652485847473
1.6852478981018066,4.035721778869629,-0.28624090552330017
1.8034610748291016,4.235737323760986,-0.2973545491695404
2.0124189853668213,4.638410568237305,-0.3221662640571594
2.0452775955200195,4.628586292266846,-0.3179471492767334
2.0750269889831543,4.611358642578125,-0.3132189214229584
2.1077733039855957,4.596801280975342,-0.3085176348686218
2.13610577583313,4.575410842895508,-0.303384006023407
2.1635730266571045,4.554166316986084,-0.2981780469417572
2.1976683139801025,4.5467848777771,-0.29388946294784546
2.232701539993286,4.538693428039551,-0.2894398272037506
2.2661352157592773,4.526773929595947,-0.28463155031204224
2.283939838409424,4.487515926361084,-0.2781257927417755
2.3265905380249023,4.496624946594238,-0.27460604906082153
2.3689026832580566,4.501262187957764,-0.2706146836280823
1.7298210859298706,3.23323392868042,-0.19127030670642853
1.7513785362243652,3.221832513809204,-0.18744279444217682
1.7339081764221191,3.138209342956543,-0.17939598858356476
1.748118281364441,3.1126506328582764,-0.17472302913665771
1.8018231391906738,3.158688545227051,-0.17398187518119812
1.347476601600647,2.3264100551605225,-0.12566258013248444
0.9478524327278137,1.6109943389892578,-0.08523327112197876
0.9571005702018738,1.6010876893997192,-0.08286134153604507
0.9675928950309753,1.594879388809204,-0.08070163428783417
0.9782239198684692,1.5884910821914673,-0.07850451022386551
0.9955136775970459,1.59165358543396,-0.07668296247720718
0.9997431635856628,1.5752586126327515,-0.073911651968956
1.0250262022018433,1.5916330814361572,-0.07262364774942398
1.0168832540512085,1.5551477670669556,-0.06884221732616425
1.031470537185669,1.554994821548462,-0.06669660657644272
1.043695330619812,1.551626443862915,-0.06439980119466782
1.067678451538086,1.5637768507003784,-0.06255392730236053
2.5583906173706055,3.694497585296631,-0.1420735865831375
2.577883243560791,3.6716253757476807,-0.135466530919075
2.616878032684326,3.6729869842529297,-0.12932120263576508
2.6172091960906982,3.6249303817749023,-0.12144950777292252
2.646137237548828,3.613786458969116,-0.11447259038686752
2.693058729171753,3.6279385089874268,-0.10797681659460068
2.6333138942718506,3.693260908126831,0.16902461647987366
2.606248617172241,3.7120866775512695,0.17597946524620056
2.5698955059051514,3.7180633544921875,0.182011216878891
1.0642114877700806,1.565394639968872,0.07900907844305038
1.0618927478790283,1.5856624841690063,0.08218981325626373
1.0456502437591553,1.5869499444961548,0.08436451852321625
1.0333139896392822,1.5948742628097534,0.08689006417989731
1.030527949333191,1.6150957345962524,0.08990062028169632
1.001936435699463,1.5961229801177979,0.09067844599485397
0.9856838583946228,1.5969202518463135,0.09253156930208206
0.9784470200538635,1.6103805303573608,0.09499397873878479
0.9666488170623779,1.6173663139343262,0.097076915204525
0.9663171768188477,1.6446460485458374,0.10033717006444931
1.3543387651443481,2.343897581100464,0.14523209631443024
1.8160154819488525,3.194035530090332,0.20081087946891785
1.7525197267532349,3.1355793476104736,0.19986668229103088
1.753021478652954,3.193030834197998,0.20631782710552216
1.7653687000274658,3.2704508304595947,0.21399280428886414
1.7315260171890259,3.2618048191070557,0.21602322161197662
