X,Y,Z
2.1745848655700684,2.9517674446105957,-0.110643170773983
2.7631568908691406,3.903701066970825,0.24738939106464386
2.7480263710021973,3.9423470497131348,0.2576944828033447
2.712740659713745,3.9566547870635986,0.2663513720035553
2.6622889041900635,3.943240165710449,0.27250248193740845
2.641571044921875,3.9753246307373047,0.28150850534439087
2.6107044219970703,3.9950859546661377,0.28959396481513977
2.6077637672424316,4.052213191986084,0.2998715043067932
2.5698585510253906,4.057363033294678,0.30624788999557495
2.5505902767181396,4.0965142250061035,0.3152044713497162
2.520935297012329,4.114292621612549,0.3221370279788971
2.4879579544067383,4.124687671661377,0.3283442556858063
2.444706916809082,4.122782230377197,0.33330607414245605
2.4430482387542725,4.191027641296387,0.3439577519893646
2.4111902713775635,4.204432010650635,0.34991180896759033
2.3734378814697266,4.207468032836914,0.35484978556632996
2.3078737258911133,4.1632914543151855,0.3555700182914734
2.249082088470459,4.1284356117248535,0.35693085193634033
2.2237470149993896,4.150505065917969,0.36296314001083374
2.2007768154144287,4.179861068725586,0.36966606974601746
2.173099994659424,4.202617168426514,0.37557053565979004
2.145399332046509,4.225088596343994,0.38145893812179565
2.119255304336548,4.246516227722168,0.3870669901371002
2.0945911407470703,4.271292209625244,0.3930079936981201
2.0624141693115234,4.286472320556641,0.3978787362575531
2.0306873321533203,4.301148414611816,0.4026643931865692
2.0032896995544434,4.322125434875488,0.4079417586326599
1.9697785377502441,4.328520774841309,0.4118063151836395
1.9878652095794678,4.452268123626709,0.42677754163742065
1.9582319259643555,4.473453998565674,0.43187057971954346
1.953965187072754,4.555434703826904,0.44295504689216614
1.9250800609588623,4.575743675231934,0.4479208290576935
1.8960442543029785,4.595849990844727,0.452894389629364
1.8745150566101074,4.637852191925049,0.45983031392097473
1.8377938270568848,4.643759727478027,0.46314114332199097
1.8034783601760864,4.656787395477295,0.46721622347831726
1.773665189743042,4.676156044006348,0.47180742025375366
1.3483648300170898,3.630861282348633,0.3684042990207672
1.324884295463562,3.647484064102173,0.3719635009765625
1.2983516454696655,3.6567306518554688,0.3747277855873108
1.2637358903884888,3.6438684463500977,0.37526100873947144
1.6215054988861084,4.782629013061523,0.4948500692844391
1.6137782335281372,4.87095832824707,0.5063604116439819
1.5635812282562256,4.833873748779297,0.5046660900115967
1.521681785583496,4.822449207305908,0.5054798126220703
1.4862821102142334,4.8331427574157715,0.5086641907691956
0.5871501564979553,1.9581092596054077,0.2068903148174286
1.4325515031814575,4.901353359222412,0.5198968052864075
1.3907134532928467,4.884793758392334,0.5201124548912048
0.5237824320793152,1.8910897970199585,0.2019999623298645
1.3012471199035645,4.8323974609375,0.5178481340408325
1.2711073160171509,4.860208511352539,0.5225423574447632
1.246767520904541,4.906326770782471,0.5291849970817566
1.2163110971450806,4.92969274520874,0.5334150791168213
1.1814743280410767,4.937900066375732,0.5357933640480042
1.1515120267868042,4.968658447265625,0.5404900908470154
1.1196643114089966,4.995589256286621,0.5448351502418518
1.0861341953277588,5.010693550109863,0.5478820204734802
1.0559369325637817,5.040715217590332,0.5525831580162048
1.0238335132598877,5.062941551208496,0.5564674735069275
0.9863914251327515,5.062251091003418,0.5575000047683716
2.174808979034424,11.60766887664795,1.2808771133422852
2.0591766834259033,11.438929557800293,1.2647730112075806
1.9500954151153564,11.284229278564453,1.250162124633789
1.846794605255127,11.14768123626709,1.2375411987304688
1.7484726905822754,11.029447555541992,1.2269057035446167
1.639999508857727,10.849457740783691,1.208545446395874
1.5450656414031982,10.733626365661621,1.1973122358322144
1.4523767232894897,10.620854377746582,1.1864408254623413
1.3578555583953857,10.472546577453613,1.1715891361236572
1.2678346633911133,10.342720031738281,1.1588127613067627
1.1801637411117554,10.216026306152344,1.1463061571121216
1.1007050275802612,10.166111946105957,1.1416765451431274
1.0201802253723145,10.084563255310059,1.1335200071334839
0.40244561433792114,4.2784576416015625,0.48135313391685486
0.37463241815567017,4.304276943206787,0.48472774028778076
0.34218907356262207,4.2757391929626465,0.48200252652168274
0.31359943747520447,4.301199913024902,0.4853641986846924
0.28701353073120117,4.357471466064453,0.4919048845767975
0.32947129011154175,5.599311351776123,0.6323689222335815
0.29222315549850464,5.640186309814453,0.6372941732406616
0.25315582752227783,5.645898818969727,0.6382773518562317
0.21526463329792023,5.701787948608398,0.644974410533905
0.17464153468608856,5.672048091888428,0.6420095562934875
0.136617049574852,5.735204696655273,0.6491106748580933
0.09713267534971237,5.763175010681152,0.6522602438926697
0.057011790573596954,5.771466255187988,0.6532143354415894
0.01599985547363758,5.721257209777832,0.6475797295570374
-0.036927852779626846,8.861295700073242,1.003117561340332
-0.06707481294870377,6.031406402587891,0.6828840970993042
-0.07703845947980881,4.26116943359375,0.4822418987751007
-0.10488369315862656,4.190720081329346,0.4740421175956726
-0.1321703940629959,4.131728649139404,0.4671676456928253
-0.15593712031841278,3.9910941123962402,0.45109057426452637
-0.18525974452495575,4.024843692779541,0.45475322008132935
-0.18835599720478058,3.5544724464416504,0.4014926850795746
-0.21340391039848328,3.560886859893799,0.4018952548503876
-0.24110838770866394,3.6058664321899414,0.4065938889980316
-0.2873689830303192,3.8867456912994385,0.43787187337875366
-0.30709853768348694,3.7957348823547363,0.42726045846939087
-0.331438273191452,3.770371675491333,0.42406854033470154
-0.3554801046848297,3.744849920272827,0.42088282108306885
-0.37859100103378296,3.71535587310791,0.41707897186279297
-0.40043243765830994,3.674114227294922,0.41187259554862976
-0.4239773452281952,3.6559348106384277,0.4092891812324524
-0.4463811218738556,3.6298940181732178,0.40584996342658997
-0.46613144874572754,3.5844430923461914,0.40026548504829407
-0.4899805784225464,3.5735175609588623,0.3985633850097656
-0.5128325819969177,3.554734230041504,0.3958148658275604
-0.537192165851593,3.551260232925415,0.39468544721603394
-0.556708037853241,3.5169312953948975,0.39015060663223267
-0.5910912752151489,3.574430227279663,0.39581188559532166
-0.5954550504684448,3.4517343044281006,0.3815441131591797
-1.1414129734039307,6.352505683898926,0.7009623050689697
-1.1922738552093506,6.378981113433838,0.7023532390594482
-1.2476487159729004,6.431972503662109,0.7065043449401855
-1.3015714883804321,6.473069667816162,0.7093508243560791
-1.3555880784988403,6.509875297546387,0.7117261290550232
-1.4114576578140259,6.54994535446167,0.7144511342048645
-1.4560794830322266,6.532508373260498,0.7108992338180542
-1.491170048713684,6.481077194213867,0.7033534646034241
-1.5244526863098145,6.4257683753967285,0.6953027248382568
-0.6890226602554321,2.819091796875,0.3041549026966095
-0.7008745670318604,2.784278631210327,0.29952096939086914
-0.7167001962661743,2.7643465995788574,0.29649293422698975
-0.7299475073814392,2.736905097961426,0.29270076751708984
-0.7526540160179138,2.7470335960388184,0.2927430272102356
-0.7818138003349304,2.779435157775879,0.2951390743255615
-1.753227949142456,6.074948310852051,0.6427932381629944
-1.7916791439056396,6.047891139984131,0.6375827193260193
-1.8258023262023926,6.009625434875488,0.6312726736068726
-1.8556398153305054,5.96016788482666,0.6237133741378784
-1.8804564476013184,5.899778842926025,0.6147688031196594
-1.9226793050765991,5.894739151000977,0.6116342544555664
-1.0722371339797974,3.211876392364502,0.3318122625350952
-1.9755703210830688,5.7836408615112305,0.5948880314826965
-2.0107226371765137,5.75545072555542,0.589410126209259
-2.0366015434265137,5.705509662628174,0.5814225077629089
-2.0669615268707275,5.670190811157227,0.5749034881591797
-2.095581293106079,5.631072044372559,0.5680496692657471
-2.1243691444396973,5.587452411651611,0.5606458187103271
-2.1548526287078857,5.551180362701416,0.5540803670883179
-2.2070627212524414,5.572941780090332,0.5531297922134399
-2.263279438018799,5.605391979217529,0.5530303716659546
-2.3244693279266357,5.648134231567383,0.5539092421531677
-2.358103036880493,5.617794990539551,0.5474568605422974
-2.3911802768707275,5.587358474731445,0.5410609841346741
-2.4356188774108887,5.58560848236084,0.5373217463493347
-2.499695301055908,5.630197525024414,0.5377950072288513
-2.527608633041382,5.592617988586426,0.5304167866706848
-2.5603315830230713,5.561110496520996,0.523465096950531
-4.17874002456665,8.912778854370117,0.8326432108879089
-2.614990472793579,5.480658054351807,0.5079412460327148
-2.6122047901153564,5.383167743682861,0.4947556257247925
-2.6737043857574463,5.418610572814941,0.49383124709129333
-2.6755099296569824,5.326934337615967,0.4810602068901062
-2.390214443206787,4.677563667297363,0.41860339045524597
-2.4176793098449707,4.655137538909912,0.4125598669052124
-2.4519824981689453,4.646449565887451,0.4077279567718506
-2.4761300086975098,4.616445064544678,0.40093013644218445
-2.5009067058563232,4.5858283042907715,0.3939993679523468
-1.1859992742538452,2.1396727561950684,0.1817406564950943
-2.5529162883758545,4.5357465744018555,0.38075512647628784
-2.559823989868164,4.478574275970459,0.37143489718437195
-2.5911173820495605,4.461055755615234,0.36522290110588074
-2.609635829925537,4.423630714416504,0.3573472499847412
-1.2333626747131348,2.059600591659546,0.16401319205760956
-1.2631618976593018,2.0782744884490967,0.16310806572437286
-2.6761789321899414,4.3349409103393555,0.33491042256355286
-2.7488107681274414,4.386687755584717,0.33341270685195923
-2.9778451919555664,4.685219764709473,0.3500892221927643
-3.0056469440460205,4.658740043640137,0.34173253178596497
-3.0424625873565674,4.6446919441223145,0.3341633379459381
-3.059453010559082,4.606032371520996,0.3246970474720001
-3.089053153991699,4.586800575256348,0.3165860176086426
-3.1078803539276123,4.546347141265869,0.30646541714668274
-3.127169609069824,4.509985446929932,0.2964584231376648
-2.323535442352295,3.3065857887268066,0.21182863414287567
-2.378267526626587,3.3352088928222656,0.20746015012264252
-2.854848623275757,3.9492855072021484,0.23814092576503754
-2.9166948795318604,3.982011556625366,0.23231668770313263
-2.944509506225586,3.9620518684387207,0.22250020503997803
-2.4518723487854004,3.458948850631714,-0.1419462263584137
-2.435626745223999,3.4891185760498047,-0.15080136060714722
-2.7705516815185547,4.030773639678955,-0.18260574340820312
-2.752545118331909,4.070959091186523,-0.19288484752178192
-2.200366258621216,3.3036208152770996,-0.16271907091140747
-2.1757218837738037,3.3195555210113525,-0.16965548694133759
-2.6545510292053223,4.115692138671875,-0.21773582696914673
-2.6466095447540283,4.1666789054870605,-0.2274666279554367
-1.2506839036941528,2.002046585083008,-0.11268232017755508
-1.2747669219970703,2.0741147994995117,-0.12009714543819427
-2.0316100120544434,3.357851266860962,-0.19959695637226105
-2.0148448944091797,3.385749578475952,-0.2063779979944229
-1.9818084239959717,3.386760711669922,-0.2114972323179245
-1.9712648391723633,3.4240877628326416,-0.2187092900276184
-1.2029627561569214,2.1244332790374756,-0.138627290725708
-1.9553875923156738,3.513003349304199,-0.2340162992477417
-1.9340465068817139,3.533320426940918,-0.23999197781085968
-1.9406846761703491,3.604764938354492,-0.24945411086082458
-2.5152578353881836,4.756048202514648,-0.3351440131664276
-2.480478048324585,4.773773670196533,-0.3422758877277374
-2.4540867805480957,4.804415225982666,-0.3501284420490265
-2.4287476539611816,4.838589668273926,-0.35823628306388855
-2.4037506580352783,4.876636981964111,-0.3665793538093567
-2.381549596786499,4.921658992767334,-0.3755478262901306
-2.355503559112549,4.955256462097168,-0.3834525942802429
-2.3268678188323975,4.985467433929443,-0.3910526931285858
-2.300476312637329,5.022916793823242,-0.3991658687591553
-2.277287721633911,5.067150592803955,-0.4078284502029419
-2.2480952739715576,5.096697807312012,-0.41525930166244507
-2.1988816261291504,5.08367395401001,-0.4192008078098297
-2.149986982345581,5.070217609405518,-0.4228571653366089
-2.209322690963745,5.315125465393066,-0.4482315480709076
-2.1823890209198,5.355172157287598,-0.4564768373966217
-2.161872148513794,5.4133172035217285,-0.4662497639656067
-2.1321280002593994,5.453855037689209,-0.474470317363739
-1.3359267711639404,3.4905266761779785,-0.3066328465938568
-2.0710630416870117,5.526224613189697,-0.49004125595092773
-2.040346145629883,5.562007427215576,-0.4977949261665344
-1.9899640083312988,5.546665191650391,-0.50068199634552
-1.890288233757019,5.391557216644287,-0.49089816212654114
-1.5886387825012207,4.634824275970459,-0.42550042271614075
-1.561160922050476,4.660158634185791,-0.43133315443992615
-1.8777236938476562,5.739471435546875,-0.5352845191955566
-0.973967432975769,3.050323486328125,-0.28658977150917053
-0.9658739566802979,3.1015665531158447,-0.29356691241264343
-0.9419589042663574,3.100525379180908,-0.29556939005851746
-0.8042420148849487,2.715176582336426,-0.2606256902217865
-0.7849472165107727,2.7206079959869385,-0.26280054450035095
-0.761408805847168,2.710923194885254,-0.263519287109375
-0.7444825172424316,2.7234768867492676,-0.2663837969303131
-0.7211382389068604,2.713446855545044,-0.26707252860069275
-0.7127017974853516,2.759678602218628,-0.2731466591358185
-1.5281105041503906,6.094646453857422,-0.6064799427986145
-1.4722334146499634,6.051955699920654,-0.6054590940475464
-1.4763888120651245,6.258418083190918,-0.629436731338501
-1.4449206590652466,6.325146675109863,-0.6395441293716431
-1.3985273838043213,6.32721471786499,-0.6426202654838562
-1.3449195623397827,6.29472017288208,-0.6421924233436584
-1.2929364442825317,6.265535354614258,-0.6420771479606628
-1.2393571138381958,6.224461078643799,-0.6407212018966675
-1.1876697540283203,6.194594383239746,-0.6403576731681824
-1.1362433433532715,6.160443305969238,-0.6391590237617493
-1.0630356073379517,5.999604225158691,-0.6247649192810059
-0.9625805616378784,5.661788463592529,-0.5917539000511169
-0.9506767988204956,5.8367838859558105,-0.6122972369194031
-0.9342148900032043,6.004363536834717,-0.6319208741188049
-0.8955130577087402,6.033565044403076,-0.6368193626403809
-0.8559039235115051,6.05866813659668,-0.6413294672966003
-0.8126776218414307,6.056516647338867,-0.6429759860038757
-0.6156753301620483,4.844022274017334,-0.5157773494720459
-0.7160062193870544,5.966521263122559,-0.6367332935333252
-0.6708407402038574,5.948113918304443,-0.6361331939697266
-0.6259114742279053,5.921566963195801,-0.6346572637557983
-0.5812554955482483,5.890796661376953,-0.6327359676361084
-0.5345765948295593,5.832620143890381,-0.6278788447380066
-0.49247679114341736,5.8206000328063965,-0.6274644136428833
-0.4495701789855957,5.8044586181640625,-0.62662273645401
-0.24451500177383423,3.4712212085723877,-0.37528178095817566
-0.22189107537269592,3.496011257171631,-0.3785255551338196
-0.3225401043891907,5.707492351531982,-0.6188697814941406
-0.2808719575405121,5.6707444190979,-0.6152856945991516
-0.23971597850322723,5.649242877960205,-0.6133888959884644
-0.19941411912441254,5.623540878295898,-0.6110545992851257
-0.15892882645130157,5.578144550323486,-0.6066036224365234
-0.11949831992387772,5.551884174346924,-0.6041496992111206
-0.08047713339328766,5.529277801513672,-0.6016762256622314
-0.040943779051303864,5.4831037521362305,-0.5966679453849792
-0.002226146636530757,4.450286388397217,-0.48431396484375
0.02887755073606968,4.477371692657471,-0.4873219132423401
0.07252423465251923,5.408985614776611,-0.5886564254760742
0.11014951765537262,5.408402919769287,-0.5881729125976562
0.1471337378025055,5.384266376495361,-0.5851580500602722
0.13912169635295868,4.044151306152344,-0.43923941254615784
0.21639437973499298,5.234338283538818,-0.5681841373443604
0.2508096992969513,5.193995475769043,-0.5633059144020081
0.2860856354236603,5.18060827255249,-0.5610724091529846
0.2617092728614807,4.20955753326416,-0.45529070496559143
0.2914656102657318,4.207688808441162,-0.4544834792613983
0.3180842101573944,4.170790672302246,-0.4499290883541107
0.3499465584754944,4.203422546386719,-0.45269259810447693
0.38047313690185547,4.216497898101807,-0.4531553387641907
0.4867469072341919,5.006409168243408,-0.5369505882263184
0.5193425416946411,4.975952625274658,-0.5325949788093567
0.5530937910079956,4.9646501541137695,-0.530341386795044
0.5856786966323853,4.94544792175293,-0.5269848108291626
0.6188763380050659,4.933773040771484,-0.5242874026298523
0.6499415636062622,4.906464576721191,-0.5199609994888306
0.6787546277046204,4.859617233276367,-0.5135757327079773
0.7125328779220581,4.854976177215576,-0.5117138028144836
0.7401742339134216,4.811763763427734,-0.5054792165756226
0.7721303701400757,4.799108505249023,-0.5023900866508484
0.8053147792816162,4.793890476226807,-0.5001020431518555
0.8467091917991638,4.834340572357178,-0.5025750994682312
0.8809483647346497,4.828464508056641,-0.5002089142799377
0.9084457755088806,4.792006492614746,-0.494343101978302
0.9399651885032654,4.778282165527344,-0.4908387362957001
0.9683507084846497,4.749092102050781,-0.4857749044895172
0.9989823698997498,4.731104373931885,-0.4818829298019409
1.0291032791137695,4.709017753601074,-0.4775092899799347
1.0580497980117798,4.6869707107543945,-0.47289198637008667
1.090269923210144,4.6798906326293945,-0.4698147773742676
1.117260456085205,4.649843215942383,-0.46444612741470337
1.151477336883545,4.649808883666992,-0.4620971381664276
1.1746253967285156,4.604224681854248,-0.4550577998161316
1.2042717933654785,4.588857173919678,-0.4508885443210602
1.2307230234146118,4.562032699584961,-0.44562995433807373
1.2603461742401123,4.546203136444092,-0.4414510130882263
1.2877146005630493,4.52268648147583,-0.43655699491500854
1.3193575143814087,4.513916492462158,-0.432823121547699
1.345767617225647,4.49022912979126,-0.42766451835632324
1.3720924854278564,4.466334342956543,-0.4225088059902191
1.4055862426757812,4.464422702789307,-0.4194179177284241
0.6078374981880188,1.8849077224731445,-0.17583656311035156
0.6282727122306824,1.9029614925384521,-0.17613449692726135
0.6437822580337524,1.9061485528945923,-0.17506667971611023
0.6544599533081055,1.89443838596344,-0.17262034118175507
0.657300591468811,1.8606250286102295,-0.16818733513355255
0.675356388092041,1.870872974395752,-0.16768518090248108
0.6827085018157959,1.8517823219299316,-0.16452360153198242
0.6874089241027832,1.8252713680267334,-0.16070227324962616
0.7085277438163757,1.8423924446105957,-0.16073203086853027
0.7355396151542664,1.8738359212875366,-0.16194704174995422
1.6977235078811646,4.240409851074219,-0.36285945773124695
1.7280395030975342,4.232743740081787,-0.3585840165615082
1.7445471286773682,4.188424110412598,-0.35109633207321167
1.7707070112228394,4.1693596839904785,-0.3458369970321655
1.7958687543869019,4.15049409866333,-0.34044140577316284
1.8176662921905518,4.124363899230957,-0.3344752788543701
1.846164345741272,4.112081527709961,-0.329579621553421
1.878588080406189,4.106342792510986,-0.32511183619499207
1.9097790718078613,4.100925922393799,-0.3206113874912262
1.9307411909103394,4.074252605438232,-0.31443098187446594
1.9587360620498657,4.061264991760254,-0.3092551529407501
1.9802227020263672,4.033870697021484,-0.30294403433799744
2.0115749835968018,4.02744722366333,-0.2980639636516571
2.029764175415039,3.9968554973602295,-0.2914593517780304
2.053636074066162,3.976263999938965,-0.28551986813545227
2.0850205421447754,3.9691014289855957,-0.2804846167564392
2.1117703914642334,3.9553260803222656,-0.27489855885505676
2.127028226852417,3.9209322929382324,-0.26789361238479614
2.1394965648651123,3.878950357437134,-0.260201632976532
2.130228042602539,3.79970645904541,-0.2501677870750427
2.1593034267425537,3.7926113605499268,-0.2448856681585312
2.192394733428955,3.791980266571045,-0.2399837076663971
2.2030389308929443,3.7500369548797607,-0.23227033019065857
2.228929042816162,3.735081195831299,-0.22616443037986755
2.2616307735443115,3.7339882850646973,-0.22094519436359406
2.2789413928985596,3.705504894256592,-0.21393093466758728
2.2963790893554688,3.6766984462738037,-0.2068256437778473
2.3329622745513916,3.681694984436035,-0.20157694816589355
2.349569320678711,3.652930498123169,-0.19425556063652039
2.3750698566436768,3.6367580890655518,-0.18748296797275543
2.4074695110321045,3.6344752311706543,-0.18139296770095825
2.418447732925415,3.599337577819824,-0.17356449365615845
2.434783458709717,3.5697665214538574,-0.16572684049606323
2.458287000656128,3.5539541244506836,-0.15843822062015533
2.4774367809295654,3.5314223766326904,-0.15075281262397766
2.4971537590026855,3.508251428604126,-0.14274190366268158
2.5194034576416016,3.4926130771636963,-0.13505299389362335
2.5524165630340576,3.48824405670166,-0.12725025415420532
2.1749396324157715,2.9324357509613037,-0.10037069022655487
2.7739250659942627,3.8880879878997803,0.22014345228672028
2.767169713973999,3.9401674270629883,0.23079153895378113
2.7165937423706055,3.9273688793182373,0.23715460300445557
2.6990180015563965,3.9673070907592773,0.2465745359659195
2.6790459156036377,3.999135971069336,0.25502100586891174
2.6457772254943848,4.0114054679870605,0.26200613379478455
2.605827808380127,4.018397331237793,0.26861944794654846
2.5852084159851074,4.049748420715332,0.2763884961605072
2.548001289367676,4.054389476776123,0.28217554092407227
2.5252039432525635,4.0865092277526855,0.2897310256958008
2.49897837638855,4.111268043518066,0.2966429889202118
2.4775736331939697,4.141932010650635,0.30384430289268494
2.446859836578369,4.159702777862549,0.30990928411483765
2.4192769527435303,4.184360027313232,0.3164566457271576
2.385563850402832,4.194272994995117,0.32163822650909424
2.367572069168091,4.23084020614624,0.32881733775138855
2.265939235687256,4.121893405914307,0.3244478702545166
2.2350571155548096,4.13830041885376,0.3297583758831024
2.2095301151275635,4.160411834716797,0.3353117108345032
2.1948657035827637,4.202959060668945,0.3425283133983612
2.1566519737243652,4.204792499542236,0.3462356925010681
2.1248979568481445,4.220523357391357,0.3511385917663574
2.1051955223083496,4.256088733673096,0.35752353072166443
2.0719709396362305,4.263317584991455,0.36150112748146057
2.0494258403778076,4.29541015625,0.36743515729904175
2.014422655105591,4.302963733673096,0.37119847536087036
1.9830920696258545,4.31712007522583,0.3755047619342804
1.968335747718811,4.366247653961182,0.3828311562538147
1.9927619695663452,4.504220485687256,0.39798668026924133
1.9627952575683594,4.525487899780273,0.4026890695095062
1.940237283706665,4.564467430114746,0.40900930762290955
1.9167004823684692,4.599358081817627,0.41492968797683716
4.249151229858398,10.4033842086792,0.9448689222335815
1.8265599012374878,4.563991069793701,0.417146235704422
1.8358755111694336,4.68555212020874,0.43076103925704956
1.7891288995742798,4.665765285491943,0.43144750595092773
1.7684236764907837,4.710750102996826,0.4380683898925781
1.328364610671997,3.616105556488037,0.3381796181201935
1.310619831085205,3.6471447944641113,0.34288740158081055
1.2841858863830566,3.656299591064453,0.34540268778800964
1.630151629447937,4.7508697509765625,0.4509699046611786
1.6014643907546997,4.776729583740234,0.4555617868900299
0.5834473967552185,1.781969666481018,0.17075251042842865
1.5292366743087769,4.783405780792236,0.4604332149028778
1.5179897546768188,4.868264675140381,0.4704371988773346
1.4648321866989136,4.819237232208252,0.4675353765487671
1.4437538385391235,4.874017238616943,0.47470301389694214
1.43022620677948,4.954689979553223,0.48442211747169495
1.3813501596450806,4.9157633781433105,0.4825132489204407
1.3472990989685059,4.928988456726074,0.48541051149368286
1.2889620065689087,4.851840019226074,0.47933080792427063
1.258030652999878,4.875777721405029,0.48324015736579895
1.2295790910720825,4.906849384307861,0.48785433173179626
1.2021050453186035,4.945428848266602,0.4932774603366852
1.165667176246643,4.945926666259766,0.4948151409626007
1.1356016397476196,4.976641654968262,0.49912765622138977
1.105994701385498,5.010971546173096,0.5038403868675232
1.0688098669052124,5.010879039764404,0.5051169395446777
1.039470911026001,5.048595905303955,0.510237991809845
1.0042048692703247,5.0555243492126465,0.5122581124305725
0.9794765710830688,5.119564533233643,0.519882082939148
2.126720905303955,11.559802055358887,1.1760931015014648
2.0181009769439697,11.424979209899902,1.164623737335205
1.8993676900863647,11.22031307220459,1.1460332870483398
1.7970073223114014,11.083272933959961,1.134270429611206
1.6997355222702026,10.964553833007812,1.124376893043518
1.5987001657485962,10.814478874206543,1.1106418371200562
1.4932031631469727,10.61740493774414,1.0918729305267334
1.4041593074798584,10.531277656555176,1.084552526473999
1.3080554008483887,10.363238334655762,1.0687721967697144
1.2295101881027222,10.3178129196167,1.065645694732666
1.1405092477798462,10.171387672424316,1.0521048307418823
1.0654661655426025,10.144177436828613,1.0502583980560303
0.9831619262695312,10.039100646972656,1.0402562618255615
0.39141646027565,4.314701557159424,0.44749704003334045
0.3564494252204895,4.259176254272461,0.4421500563621521
0.3282617926597595,4.280855655670166,0.44483500719070435
0.30005943775177,4.306224346160889,0.4479292333126068
0.2713986039161682,4.3314409255981445,0.45075899362564087
0.3120136857032776,5.621169090270996,0.585212230682373
0.2737300992012024,5.646453380584717,0.5881062150001526
0.23480406403541565,5.659823417663574,0.5897883176803589
0.19515450298786163,5.653505325317383,0.5894467234611511
0.15603232383728027,5.662445068359375,0.5907244682312012
0.11701113730669022,5.717777729034424,0.5965124368667603
0.07781513780355453,5.768954753875732,0.6018096208572388
0.037404824048280716,5.742157936096191,0.5990018248558044
-0.0025551554281264544,5.6878838539123535,0.5933565497398376
-0.032064154744148254,4.3318400382995605,0.4519292712211609
-0.05958093702793121,4.113955974578857,0.429252564907074
-0.0885193720459938,4.129003524780273,0.43064501881599426
-0.11695186048746109,4.120554447174072,0.429525226354599
-0.14558927714824677,4.119674205780029,0.4292151927947998
-0.1707291603088379,4.037078857421875,0.4204164445400238
-0.17393730580806732,3.531348466873169,0.3675985038280487
-0.2002383917570114,3.5533320903778076,0.36974969506263733
-0.22287657856941223,3.5208852291107178,0.366080641746521
-0.27389219403266907,3.8991525173187256,0.40501344203948975
-0.2990870475769043,3.873979091644287,0.4020223617553711
-0.31840619444847107,3.7828218936920166,0.39221352338790894
-0.3377281129360199,3.699275255203247,0.38322120904922485
-0.358849436044693,3.6504931449890137,0.3778659701347351
-0.3771211802959442,3.5823090076446533,0.3703539967536926
-0.41261887550354004,3.67625093460083,0.3795081079006195
-0.4300699234008789,3.607815742492676,0.37191346287727356
-0.4598172903060913,3.63948655128479,0.3746489882469177
-0.479447603225708,3.593916893005371,0.36945870518684387
-0.4968818426132202,3.5366997718811035,0.3631013035774231
-0.5224156379699707,3.5409750938415527,0.3629148006439209
-0.544340968132019,3.5220518112182617,0.36026570200920105
-0.5713903903961182,3.533625364303589,0.3607417643070221
-0.5957489013671875,3.5297107696533203,0.35965925455093384
-1.1112178564071655,6.316215991973877,0.642386794090271
-1.1655828952789307,6.365890979766846,0.6462549567222595
-1.2150163650512695,6.3885273933410645,0.6470859050750732
-1.2706457376480103,6.441346645355225,0.6508312225341797
-1.3270606994628906,6.489739894866943,0.6541025638580322
-1.3790483474731445,6.514909744262695,0.6550536751747131
-1.43433678150177,6.5509796142578125,0.6570990085601807
-1.4695378541946411,6.495604038238525,0.6500057578086853
-1.5077171325683594,6.459194183349609,0.6444646120071411
-1.539689302444458,6.395971775054932,0.6361861824989319
-0.6989691257476807,2.819188356399536,0.2795720100402832
-0.7031227946281433,2.754120349884033,0.2722902297973633
-0.7262492775917053,2.7643260955810547,0.27247384190559387
-0.7434146404266357,2.7518341541290283,0.27041149139404297
-0.7707274556159973,2.7767598628997803,0.27183642983436584
-0.7852830290794373,2.756653070449829,0.26887834072113037
-0.952384352684021,3.2591123580932617,0.31672409176826477
-0.9817676544189453,3.2749292850494385,0.31707486510276794
-1.0091310739517212,3.2830586433410645,0.3166833817958832
-1.024979829788208,3.253873348236084,0.3125719130039215
-1.037393569946289,3.217447519302368,0.3077150881290436
-1.0859249830245972,3.291835308074951,0.31344887614250183
-1.0985304117202759,3.2550158500671387,0.30856549739837646
-1.9858012199401855,5.752077579498291,0.5428269505500793
-2.017824649810791,5.716522216796875,0.5370237231254578
-2.0515353679656982,5.688351631164551,0.531558096408844
-2.07751727104187,5.6419806480407715,0.5244911313056946
-2.110168695449829,5.613595962524414,0.519117534160614
-2.132580280303955,5.555505275726318,0.510962963104248
-2.1713242530822754,5.540855407714844,0.5068507194519043
-2.2325048446655273,5.584020614624023,0.507686197757721
-2.2890098094940186,5.616184711456299,0.5074808597564697
-2.3446974754333496,5.644189357757568,0.5068603157997131
-2.3779425621032715,5.613776206970215,0.5008882880210876
-2.407789707183838,5.576020240783691,0.49430614709854126
-2.464799642562866,5.602578163146973,0.49310535192489624
-2.535504102706909,5.6610941886901855,0.49465182423591614
-2.5104503631591797,5.506200313568115,0.47758740186691284
-2.561980962753296,5.5172295570373535,0.4748634397983551
-2.6037967205047607,5.506681442260742,0.4702819585800171
-2.5954885482788086,5.394598484039307,0.4567683935165405
-2.638103723526001,5.391687393188477,0.45262789726257324
-2.650312662124634,5.3253021240234375,0.44312214851379395
-2.3741464614868164,4.6884918212890625,0.38656482100486755
-2.416921377182007,4.693303108215332,0.3833000063896179
-2.4333348274230957,4.650077819824219,0.37595972418785095
-2.4534876346588135,4.613428592681885,0.36913904547691345
-2.4856340885162354,4.596615791320801,0.36378198862075806
-1.1715930700302124,2.130953550338745,0.16677309572696686
-1.1893976926803589,2.1301989555358887,0.16473928093910217
-2.548975706100464,4.495985984802246,0.34350699186325073
-2.56864333152771,4.45824670791626,0.33618685603141785
-2.599691152572632,4.440646171569824,0.33042633533477783
-2.616833209991455,4.403811454772949,0.32309991121292114
-1.2562564611434937,2.0833933353424072,0.15066251158714294
-2.6570894718170166,4.339414119720459,0.3089637756347656
-2.6589958667755127,4.274535655975342,0.2993660271167755
-2.9716293811798096,4.709541320800781,0.32421693205833435
-2.0980939865112305,3.2782084941864014,0.22173571586608887
-2.1124660968780518,3.2507264614105225,0.21562977135181427
-2.155761957168579,3.2693471908569336,0.21251563727855682
-2.18566632270813,3.2685658931732178,0.20795586705207825
-2.2406504154205322,3.3024370670318604,0.20532818138599396
-2.263273239135742,3.287337303161621,0.1994297057390213
-2.306330919265747,3.3053195476531982,0.1954195350408554
-2.357658624649048,3.3316147327423096,0.19149956107139587
-2.3990023136138916,3.3408665657043457,0.18609890341758728
-2.858307361602783,3.9289565086364746,0.21186017990112305
-2.9266409873962402,3.966438055038452,0.20612768828868866
-3.0327961444854736,4.244110584259033,-0.1581994742155075
-2.4479706287384033,3.48103404045105,-0.1371411383152008
-2.790382146835327,4.027286052703857,-0.16646522283554077
-2.759521007537842,4.048131942749023,-0.1750626415014267
-2.242877244949341,3.341609001159668,-0.15049514174461365
-2.1886773109436035,3.311753749847412,-0.15483807027339935
-1.301713466644287,2.0027987957000732,-0.0970945954322815
-1.300135612487793,2.031503200531006,-0.10168448835611343
-2.658290386199951,4.219955921173096,-0.21771705150604248
-1.270171880722046,2.050001621246338,-0.10888010263442993
-1.2515363693237305,2.0521128177642822,-0.11193058639764786
-2.0114243030548096,3.3524398803710938,-0.18762826919555664
-2.0042595863342285,3.397251844406128,-0.19481688737869263
-1.97987961769104,3.4112112522125244,-0.20011146366596222
-1.9637044668197632,3.438223123550415,-0.2060886174440384
-1.1878046989440918,2.1155951023101807,-0.1294560730457306
-1.9314786195755005,3.5004115104675293,-0.21857577562332153
-1.9274338483810425,3.5512194633483887,-0.22591395676136017
-1.9166425466537476,3.5921380519866943,-0.23265263438224792
-1.9174597263336182,3.6575534343719482,-0.24102671444416046
-2.4682116508483887,4.7904133796691895,-0.3209342062473297
-2.4393227100372314,4.817872524261475,-0.3280315697193146
-2.4216835498809814,4.869917869567871,-0.3366475999355316
-2.3929176330566406,4.901042938232422,-0.3438606262207031
-2.3651514053344727,4.931377410888672,-0.3508777916431427
-2.342296838760376,4.972023010253906,-0.3586503565311432
-2.3128228187561035,5.00255823135376,-0.36554911732673645
-2.28559947013855,5.0403032302856445,-0.373101145029068
-2.2628207206726074,5.084288597106934,-0.38096150755882263
-2.230323076248169,5.106701850891113,-0.38723763823509216
-2.174999713897705,5.079260349273682,-0.38949742913246155
-2.1563055515289307,5.13754415512085,-0.39834922552108765
-2.2039997577667236,5.357779502868652,-0.4199391007423401
-2.178204298019409,5.401498317718506,-0.42780378460884094
-2.1496169567108154,5.44183874130249,-0.43523186445236206
-2.121736764907837,5.4857611656188965,-0.44296714663505554
-1.333876132965088,3.522311210632324,-0.2870924472808838
-2.0640320777893066,5.569207191467285,-0.45817503333091736
-2.032489776611328,5.605230808258057,-0.46516740322113037
-1.940237283706665,5.472411632537842,-0.45794478058815
-1.6130282878875732,4.654184341430664,-0.3926915228366852
-1.5780270099639893,4.657601356506348,-0.39613771438598633
-1.9007800817489624,5.743973255157471,-0.4924430549144745
-1.8669874668121338,5.779196739196777,-0.4990352690219879
-0.9725713729858398,3.08532452583313,-0.2683308720588684
-0.9600899815559387,3.121612548828125,-0.2733943462371826
-0.8823593258857727,2.941607713699341,-0.2594257593154907
-0.8004302978515625,2.7383601665496826,-0.24305114150047302
-0.7710255980491638,2.7102067470550537,-0.24205264449119568
-0.7497739791870117,2.707913637161255,-0.24331972002983093
-0.7349522113800049,2.727926254272461,-0.24658510088920593
-0.7139297127723694,2.7252864837646484,-0.2478090524673462
-0.7013449668884277,2.7565081119537354,-0.2519533634185791
-1.485093116760254,6.017492294311523,-0.5529348254203796
-1.4772990942001343,6.1711859703063965,-0.569989025592804
-1.458060383796692,6.283283233642578,-0.5833249688148499
-1.4216967821121216,6.327154636383057,-0.5902331471443176
-1.364652156829834,6.279682159423828,-0.5883363485336304
-1.3179519176483154,6.281373977661133,-0.5910945534706116
-1.2655538320541382,6.24817419052124,-0.5905088782310486
-1.2144291400909424,6.218369960784912,-0.5902402997016907
-1.1613755226135254,6.176772117614746,-0.5885112881660461
-1.1094430685043335,6.13862419128418,-0.586929976940155
-1.0169705152511597,5.866421699523926,-0.5629180669784546
-0.941015899181366,5.662124156951904,-0.5452280044555664
-0.9516893625259399,5.9831953048706055,-0.5781881213188171
-0.9131810069084167,6.012573719024658,-0.5826821327209473
-0.7033001184463501,4.860312461853027,-0.4723151922225952
-0.6755608916282654,4.915096759796143,-0.4789921045303345
-0.6348118185997009,4.869385242462158,-0.4758681058883667
-0.7251458168029785,5.880621910095215,-0.576321005821228
-0.689824640750885,5.935596942901611,-0.5828565955162048
-0.643174409866333,5.893746376037598,-0.5799148082733154
-0.6008477210998535,5.886330604553223,-0.5803737044334412
-0.5555303692817688,5.851572036743164,-0.5781711339950562
-0.5134022831916809,5.839658260345459,-0.5781642198562622
-0.4703996181488037,5.815874099731445,-0.5765393376350403
-0.2533887028694153,3.4308719635009766,-0.34055590629577637
-0.2322964072227478,3.475158214569092,-0.34542006254196167
-0.2095697820186615,3.5076918601989746,-0.3491497337818146
-0.299876868724823,5.6827287673950195,-0.566364586353302
-0.2591993808746338,5.661331653594971,-0.5645532011985779
-0.2189367711544037,5.643531799316406,-0.5631257891654968
-0.17841406166553497,5.606018543243408,-0.5597540140151978
-0.13799221813678741,5.576003074645996,-0.5571599006652832
-0.09888766705989838,5.561246395111084,-0.5559781193733215
-0.05979108437895775,5.526819705963135,-0.5524827837944031
-0.017213035374879837,4.473765850067139,-0.44719353318214417
0.013819028623402119,4.462116718292236,-0.44602906703948975
0.05478542298078537,5.390824317932129,-0.5388883948326111
0.09274191409349442,5.421419143676758,-0.5418456792831421
0.1305420994758606,5.428465843200684,-0.5421273708343506
0.12497884780168533,4.032729625701904,-0.4024440348148346
0.1994195580482483,5.255324363708496,-0.5240928530693054
0.19013762474060059,4.232596397399902,-0.4218304455280304
0.22473858296871185,4.320479393005371,-0.4301926791667938
0.24993810057640076,4.23740291595459,-0.42131349444389343
0.2778319716453552,4.212367057800293,-0.41824042797088623
0.30510732531547546,4.183271884918213,-0.4147913157939911
0.3329211175441742,4.165626525878906,-0.41250312328338623
0.36739039421081543,4.221354007720947,-0.4173257648944855
0.4718901216983795,5.02001428604126,-0.49522480368614197
0.5042550563812256,4.993556499481201,-0.49158552289009094
0.5384915471076965,4.986203670501709,-0.48985230922698975
0.5704713463783264,4.959298133850098,-0.4862261712551117
0.6025883555412292,4.932152271270752,-0.4823882281780243
0.6336522698402405,4.9049072265625,-0.4783802330493927
0.6627942323684692,4.865909099578857,-0.4732643961906433
0.6977003812789917,4.869052410125732,-0.47226929664611816
0.730368971824646,4.856564044952393,-0.469780832529068
0.7609330415725708,4.828444480895996,-0.4655492305755615
0.7879265546798706,4.784911155700684,-0.45973023772239685
0.830114483833313,4.833227634429932,-0.4627549946308136
0.8664857745170593,4.842850685119629,-0.462058424949646
0.8958743214607239,4.813971996307373,-0.4577152132987976
0.9276437163352966,4.800258159637451,-0.45457249879837036
0.9581953883171082,4.778627872467041,-0.45056870579719543
0.986390233039856,4.7492899894714355,-0.4459054470062256
1.0169942378997803,4.7311320304870605,-0.4423087239265442
1.0465881824493408,4.708970069885254,-0.43836748600006104
1.077248454093933,4.69433069229126,-0.4348428547382355
1.1047459840774536,4.664217948913574,-0.42984309792518616
1.1351065635681152,4.649174690246582,-0.4262983798980713
1.1636428833007812,4.62632942199707,-0.42205390334129333
1.1937952041625977,4.610866546630859,-0.4184662699699402
1.2253693342208862,4.602863311767578,-0.4152980148792267
1.2523128986358643,4.5757246017456055,-0.41038990020751953
1.2755554914474487,4.5372514724731445,-0.4045282304286957
1.3049840927124023,4.52105712890625,-0.40067818760871887
1.3339977264404297,4.504755020141602,-0.39671584963798523
1.3625831604003906,4.488358974456787,-0.39261284470558167
1.3938194513320923,4.479062557220459,-0.3891107439994812
0.6042910218238831,1.8953845500946045,-0.1635235995054245
0.6283575892448425,1.9245657920837402,-0.16489219665527344
0.6328774094581604,1.894506573677063,-0.1610937863588333
0.6520930528640747,1.9087001085281372,-0.16105134785175323
0.6562262177467346,1.8785693645477295,-0.1572714000940323
0.6748080253601074,1.8886635303497314,-0.1568329632282257
0.66652512550354,1.8255399465560913,-0.15033885836601257
0.6898418664932251,1.8502870798110962,-0.15103888511657715
0.7079841494560242,1.8602410554885864,-0.15050671994686127
0.7420835494995117,1.9098715782165527,-0.15311244130134583
0.7469797134399414,1.8829854726791382,-0.14954276382923126
1.710929274559021,4.229137420654297,-0.3325609862804413
1.7395684719085693,4.217767715454102,-0.3283470571041107
1.7625579833984375,4.1916422843933105,-0.3229566216468811
1.7794983386993408,4.150914192199707,-0.31644803285598755
1.8115277290344238,4.145881175994873,-0.31252968311309814
1.8363488912582397,4.126750946044922,-0.3075568974018097
1.8645349740982056,4.1144256591796875,-0.3030703067779541
1.8932267427444458,4.1016387939453125,-0.2984890639781952
1.9247277975082397,4.095901966094971,-0.29436883330345154
1.9460357427597046,4.06888484954834,-0.2885880768299103
1.9736328125,4.055903911590576,-0.2838646471500397
1.9949493408203125,4.0284037590026855,-0.2780507802963257
2.006784200668335,3.9836008548736572,-0.2710513174533844
2.0440430641174316,3.991245985031128,-0.2675662934780121
2.067430019378662,3.9707224369049072,-0.2621392011642456
2.095623254776001,3.9562573432922363,-0.2569282054901123
2.1152055263519287,3.9284446239471436,-0.2509060800075531
2.1451334953308105,3.9214041233062744,-0.24617652595043182
2.128228187561035,3.8286054134368896,-0.23606492578983307
2.1645026206970215,3.8309578895568848,-0.23179571330547333
2.173146963119507,3.785956859588623,-0.22455479204654694
2.1981823444366455,3.7717878818511963,-0.21925416588783264
2.220280170440674,3.7500760555267334,-0.21332988142967224
2.246091842651367,3.734987735748291,-0.20774781703948975
2.2706356048583984,3.720425844192505,-0.20216156542301178
2.300203800201416,3.7117159366607666,-0.1966949701309204
2.3177459239959717,3.682666540145874,-0.19007781147956848
2.3419547080993652,3.6676201820373535,-0.18417194485664368
2.378826856613159,3.6720430850982666,-0.1791681945323944
2.3872530460357666,3.629558801651001,-0.1715867668390274
2.398616075515747,3.5942330360412598,-0.1643039435148239
2.439533233642578,3.6046440601348877,-0.15914802253246307
2.442619562149048,3.555583953857422,-0.15097370743751526
2.470278024673462,3.5462236404418945,-0.14453820884227753
2.4935827255249023,3.5301504135131836,-0.1376676708459854
2.5183303356170654,3.5128207206726074,-0.13026706874370575
2.528965711593628,3.481330394744873,-0.12250073254108429
2.181959390640259,2.961338996887207,-0.09810210764408112
2.7696540355682373,3.9112274646759033,0.20328998565673828
2.7354676723480225,3.9252805709838867,0.2109682708978653
2.707782745361328,3.944026470184326,0.21837320923805237
2.65693736076355,3.9357376098632812,0.2242288887500763
2.6345057487487793,3.9644501209259033,0.23172563314437866
2.6191399097442627,4.002230167388916,0.23953242599964142
2.5841734409332275,4.015222072601318,0.24574463069438934
2.5629658699035645,4.0468831062316895,0.2528957724571228
2.542344093322754,4.077878952026367,0.259893000125885
2.507448434829712,4.089895725250244,0.26547104120254517
2.464582681655884,4.0881829261779785,0.2700806260108948
2.4558444023132324,4.138484001159668,0.277828186750412
2.42596697807312,4.155697822570801,0.28332042694091797
2.4018852710723877,4.187274932861328,0.2897724211215973
2.3675343990325928,4.197476387023926,0.2945598065853119
2.3154022693634033,4.172676086425781,0.29670706391334534
2.2494571208953857,4.124063968658447,0.29695621132850647
2.21866512298584,4.140363693237305,0.3017629086971283
2.1954739093780518,4.169989109039307,0.3075156807899475
2.169799566268921,4.191850185394287,0.3125641345977783
2.1464176177978516,4.221035480499268,0.31805405020713806
2.1185202598571777,4.243487358093262,0.3229753375053406
2.0807769298553467,4.244439601898193,0.3262048661708832
2.062452554702759,4.2833452224731445,0.3323012590408325
2.038721799850464,4.311619281768799,0.33749619126319885
2.0004796981811523,4.312008857727051,0.3403535485267639
1.9719878435134888,4.333362102508545,0.34488242864608765
2.0098562240600586,4.499743938446045,0.3609454035758972
4.461758136749268,10.17920207977295,0.8228889107704163
1.9296786785125732,4.491717338562012,0.3657785654067993
1.914897084236145,4.548495769500732,0.3729909658432007
1.8864121437072754,4.572723865509033,0.3775540888309479
1.860317587852478,4.599916934967041,0.3823033571243286
1.8396741151809692,4.641445636749268,0.3882862329483032
1.8053544759750366,4.654615879058838,0.3917042016983032
1.7797924280166626,4.689167022705078,0.39689821004867554
1.3421509265899658,3.613743305206299,0.3076174259185791
1.3169385194778442,3.6227962970733643,0.3100956082344055
1.299492597579956,3.653681755065918,0.3144680857658386
1.2585786581039429,3.622468948364258,0.3133002519607544
1.6302522420883179,4.803596496582031,0.4174320697784424
1.5860347747802734,4.785321235656738,0.41780927777290344
1.5669782161712646,4.84046745300293,0.4245752692222595
1.5308500528335571,4.843596935272217,0.426811546087265
1.4887042045593262,4.832045078277588,0.4275439977645874
1.4651200771331787,4.879672050476074,0.4334357976913452
1.4190326929092407,4.852505207061768,0.4327085018157959
1.4011276960372925,4.918210506439209,0.44023916125297546
0.5190580487251282,1.8712990283966064,0.16814462840557098
1.30768883228302,4.8467607498168945,0.43704792857170105
1.2723556756973267,4.855955123901367,0.439274400472641
1.237528920173645,4.864748477935791,0.4414648711681366
1.2096948623657227,4.899609088897705,0.44602957367897034
1.1810065507888794,4.930417060852051,0.4502418339252472
1.153707504272461,4.968639850616455,0.455168217420578
1.119464635848999,4.984267711639404,0.4577685296535492
1.0897456407546997,5.018552780151367,0.46205395460128784
1.05400550365448,5.026010990142822,0.46389883756637573
1.0220071077346802,5.048325538635254,0.46711859107017517
0.9868682622909546,5.055144786834717,0.4689272940158844
2.1890218257904053,11.6530179977417,1.0835845470428467
2.0655689239501953,11.442072868347168,1.065951943397522
1.9592763185501099,11.310455322265625,1.0556951761245728
1.8436030149459839,11.108831405639648,1.0388894081115723
1.749683141708374,11.017389297485352,1.0323516130447388
1.6494920253753662,10.88306713104248,1.021833062171936
1.545340657234192,10.701631546020508,1.0064886808395386
1.4554163217544556,10.608028411865234,0.9989933371543884
1.357365369796753,10.440418243408203,0.9845429062843323
1.268347144126892,10.322098731994629,0.9747422337532043
1.18985116481781,10.27251148223877,0.9714409112930298
1.097814917564392,10.102615356445312,0.9568021893501282
1.0279401540756226,10.117618560791016,0.9592469930648804
0.4094661474227905,4.332413673400879,0.41108235716819763
0.3736213445663452,4.273138523101807,0.4058011770248413
0.34374746680259705,4.2755889892578125,0.40639516711235046
0.31402432918548584,4.285615921020508,0.40773510932922363
0.2857428193092346,4.310922145843506,0.41054466366767883
0.3306446075439453,5.578268051147461,0.5315355658531189
0.29160362482070923,5.580408573150635,0.5319181680679321
0.25536084175109863,5.644430637359619,0.5382276177406311
0.21556325256824493,5.653835773468018,0.5393616557121277
0.17708228528499603,5.682368278503418,0.5423434376716614
0.13830886781215668,5.71452522277832,0.5457001328468323
0.09904585778713226,5.7464423179626465,0.5487909913063049
0.05911612883210182,5.758661270141602,0.5498716831207275
0.01836603507399559,5.7744927406311035,0.5513229370117188
-0.016321837902069092,4.320169448852539,0.41244634985923767
-0.04562898352742195,4.253852844238281,0.4061107933521271
-0.0727783739566803,4.117356300354004,0.3930945098400116
-0.1023062914609909,4.15564489364624,0.3966071605682373
-0.12731768190860748,4.0343780517578125,0.38480404019355774
-0.1569560319185257,4.06449556350708,0.38746050000190735
-0.2699795961380005,5.924080848693848,0.5644480586051941
-0.18650224804878235,3.549377918243408,0.3380320966243744
-0.21164724230766296,3.555783748626709,0.3385045528411865
-0.23909306526184082,3.596954584121704,0.3421552777290344
-0.28637900948524475,3.8938653469085693,0.37000519037246704
