X,Y,Z
2.1681838035583496,6.655231475830078,1.5629031658172607
2.1096532344818115,6.632092475891113,1.5626027584075928
2.0448532104492188,6.590764045715332,1.557232141494751
1.9868160486221313,6.570983409881592,1.5566434860229492
1.9195619821548462,6.517817974090576,1.5481607913970947
1.8615933656692505,6.489407539367676,1.5454782247543335
1.8028892278671265,6.456902980804443,1.5418648719787598
1.7465823888778687,6.427382469177246,1.5389113426208496
1.6928250789642334,6.408810138702393,1.5379436016082764
0.8345805406570435,3.2539751529693604,0.7824516892433167
1.586355209350586,6.374482154846191,1.5359781980514526
0.8008329272270203,3.31976318359375,0.8016155362129211
1.4772394895553589,6.31599760055542,1.528289556503296
1.4262292385101318,6.295225143432617,1.5265036821365356
1.371250033378601,6.255629062652588,1.5198414325714111
1.3137668371200562,6.204752445220947,1.5097514390945435
1.2685385942459106,6.213083744049072,1.5141620635986328
1.213112711906433,6.165024280548096,1.5048412084579468
1.1657863855361938,6.149931907653809,1.503557562828064
1.11123526096344,6.093389511108398,1.4921791553497314
1.0673586130142212,6.092506408691406,1.4944753646850586
1.019579291343689,6.076760292053223,1.4923354387283325
0.9601114988327026,5.981879711151123,1.4706244468688965
0.9233164191246033,6.025304794311523,1.4829732179641724
0.8704705238342285,5.959539890289307,1.4684948921203613
0.8310221433639526,5.979745388031006,1.4752393960952759
0.7825644016265869,5.939593315124512,1.4671930074691772
0.6260584592819214,5.021915912628174,1.2418850660324097
0.5936547517776489,5.052153587341309,1.250162124633789
0.5725658535957336,5.187736511230469,1.2845945358276367
0.5261625051498413,5.096888065338135,1.2630285024642944
0.3921603262424469,4.0769829750061035,1.011075735092163
0.3679630160331726,4.1321868896484375,1.025622844696045
0.34132710099220276,4.160752773284912,1.0336107015609741
0.3102644383907318,4.136305332183838,1.02809739112854
0.282232403755188,4.153325080871582,1.0326136350631714
0.2546679973602295,4.1815056800842285,1.0399587154388428
0.41652506589889526,7.7490034103393555,1.9279446601867676
0.3606996536254883,7.709710121154785,1.9189741611480713
0.30619487166404724,7.68895959854126,1.9147042036056519
0.25183820724487305,7.660247325897217,1.9085360765457153
0.1978723257780075,7.638962745666504,1.9033442735671997
0.14318856596946716,7.613607406616211,1.896888256072998
0.08982615917921066,7.584061622619629,1.8894838094711304
0.03691906854510307,7.561723709106445,1.8839670419692993
-0.015543477609753609,7.520066738128662,1.8737269639968872
-0.0676645040512085,7.504579544067383,1.8700966835021973
-0.12022136151790619,7.473557949066162,1.8626900911331177
-0.17146052420139313,7.446254253387451,1.8551338911056519
-0.22234377264976501,7.422416687011719,1.8484207391738892
-0.27383193373680115,7.420957088470459,1.8473703861236572
-0.32689398527145386,7.453221797943115,1.8548003435134888
-0.27400845289230347,5.391397476196289,1.3413264751434326
-0.31130310893058777,5.374377250671387,1.336781620979309
-0.34771543741226196,5.357150077819824,1.332201600074768
-0.38359251618385315,5.339896202087402,1.3268325328826904
-0.4193110167980194,5.3223958015441895,1.3214696645736694
-0.447941392660141,5.225315570831299,1.2964330911636353
-0.425913006067276,4.588029861450195,1.1375359296798706
-0.4582245647907257,4.589072227478027,1.1370769739151
-0.4897650480270386,4.582345008850098,1.134747862815857
-0.5197993516921997,4.564152717590332,1.1294481754302979
-0.5484681725502014,4.538390636444092,1.1217564344406128
-0.5782983303070068,4.5199127197265625,1.1159082651138306
-0.6083315014839172,4.508825778961182,1.1119678020477295
-0.6385555267333984,4.49749755859375,1.1080126762390137
-0.666972815990448,4.474702835083008,1.1012927293777466
-0.694570779800415,4.447968482971191,1.093664288520813
-0.7257593870162964,4.443591594696045,1.0911991596221924
-0.7535993456840515,4.424228191375732,1.0847644805908203
-0.7851870656013489,4.427120685577393,1.0838404893875122
-0.8127676844596863,4.407369613647461,1.0774235725402832
-0.828467845916748,4.323934555053711,1.0554970502853394
-0.7252550721168518,3.647998571395874,0.8892467021942139
-0.7495665550231934,3.6358981132507324,0.8850710391998291
-0.9218812584877014,4.322692394256592,1.0502513647079468
-0.9546368718147278,4.331977844238281,1.0504357814788818
-0.9841877818107605,4.32619047164917,1.0470073223114014
-1.0088798999786377,4.297907829284668,1.0381677150726318
-1.0376276969909668,4.284090042114258,1.0328322649002075
-1.0657471418380737,4.270182132720947,1.0275647640228271
-1.0915584564208984,4.248834609985352,1.0203295946121216
-1.124320387840271,4.257011413574219,1.0197645425796509
-1.1513090133666992,4.242888927459717,1.0138965845108032
-1.1766692399978638,4.221118450164795,1.0062143802642822
-1.2041085958480835,4.206453800201416,1.0002682209014893
-1.2281780242919922,4.1806416511535645,0.9917352199554443
-1.2552415132522583,4.165630340576172,0.9858275651931763
-1.2812457084655762,4.150850772857666,0.9793707132339478
-1.3099178075790405,4.143031120300293,0.9745408892631531
-1.3380128145217896,4.135158061981201,0.9697992205619812
-1.3644530773162842,4.119618892669678,0.9632294774055481
-1.3908709287643433,4.103863716125488,0.956653356552124
-1.4221316576004028,4.102351665496826,0.9534446001052856
-1.4423999786376953,4.0722270011901855,0.9430946707725525
-1.458694577217102,4.031174659729004,0.9301300644874573
-1.492522954940796,4.040371417999268,0.9288772940635681
-1.5234099626541138,4.03827428817749,0.9249384999275208
-1.5491344928741455,4.021580219268799,0.9176665544509888
-1.5705010890960693,3.994044303894043,0.9079874753952026
-1.5994895696640015,3.988046407699585,0.9026119112968445
-1.6249706745147705,3.9749882221221924,0.895679235458374
-1.6488736867904663,3.958226442337036,0.887963593006134
-1.67677640914917,3.9479196071624756,0.8815739154815674
-1.7076919078826904,3.9444169998168945,0.876734733581543
-1.7140705585479736,3.8846004009246826,0.859265923500061
-1.7590258121490479,3.9163873195648193,0.861717939376831
-1.7821842432022095,3.898984909057617,0.8533447980880737
-1.8089991807937622,3.8881442546844482,0.8463545441627502
-1.823414921760559,3.8490591049194336,0.8331530690193176
-1.864522099494934,3.8649840354919434,0.8318144083023071
-1.8974428176879883,3.8676531314849854,0.8272076845169067
-1.9028264284133911,3.8152503967285156,0.8107779622077942
-1.9320892095565796,3.8107495307922363,0.8045704960823059
-1.9628239870071411,3.8053629398345947,0.7978996634483337
-1.9792944192886353,3.772509813308716,0.7855303883552551
-1.9983465671539307,3.7468018531799316,0.7742409706115723
-2.023474931716919,3.7350265979766846,0.7658240795135498
-1.7002564668655396,3.089517593383789,0.6284558773040771
-1.722238302230835,3.0788230895996094,0.621040940284729
-1.7479497194290161,3.0746498107910156,0.6149616241455078
-0.8430618643760681,1.4604169130325317,0.2893722653388977
-0.8644261956214905,1.475447654724121,0.2896173596382141
-0.8667518496513367,1.4569357633590698,0.2831619083881378
-0.8771900534629822,1.4514474868774414,0.2791760563850403
-0.8832529783248901,1.4394978284835815,0.27389228343963623
-0.8807145953178406,1.4146429300308228,0.2660519778728485
-0.8985034823417664,1.4224731922149658,0.2643788158893585
-0.8920676112174988,1.3907759189605713,0.2551937997341156
-0.9060640335083008,1.3917207717895508,0.2520139515399933
-0.9067187905311584,1.3736107349395752,0.24527283012866974
-0.9075588583946228,1.3553000688552856,0.2384217232465744
-2.373833417892456,3.4921298027038574,0.6045674085617065
-2.4264917373657227,3.5191650390625,0.5991484522819519
-1.3921103477478027,1.9921765327453613,0.3332923352718353
-1.2945083379745483,2.0547239780426025,-0.20919804275035858
-1.22610604763031,2.0084893703460693,-0.21847906708717346
-1.156710147857666,1.9268964529037476,-0.21635407209396362
-0.8398246169090271,1.444509744644165,-0.1715698540210724
-0.8406046628952026,1.4703235626220703,-0.1793518364429474
-0.9536337852478027,1.6957476139068604,-0.21211721003055573
-0.933768630027771,1.6882840394973755,-0.21640585362911224
-0.900915265083313,1.6568567752838135,-0.2173531949520111
-0.8667296171188354,1.6216448545455933,-0.21755877137184143
-0.8352717757225037,1.5893089771270752,-0.21778249740600586
-0.8131252527236938,1.5738943815231323,-0.2201511114835739
-0.7802647352218628,1.5377349853515625,-0.21949830651283264
-0.7638940811157227,1.5322458744049072,-0.2229500710964203
-0.7427330017089844,1.5160784721374512,-0.22469623386859894
-0.7149680256843567,1.4858229160308838,-0.22417578101158142
-0.6826097965240479,1.4448261260986328,-0.22180528938770294
-0.6689428687095642,1.4420021772384644,-0.22511117160320282
-0.6344203948974609,1.3933497667312622,-0.22115440666675568
-0.6258761882781982,1.4007827043533325,-0.22585245966911316
-0.6141073107719421,1.4010967016220093,-0.22939571738243103
0.5849412083625793,1.3708233833312988,-0.2284417748451233
0.607149600982666,1.3955475091934204,-0.22919349372386932
0.6247320771217346,1.4095757007598877,-0.22808051109313965
0.6441660523414612,1.4269399642944336,-0.2274104356765747
0.673684298992157,1.4651424884796143,-0.2298751324415207
0.6922202110290527,1.4785336256027222,-0.22828823328018188
0.732630729675293,1.5371688604354858,-0.23337814211845398
0.7467782497406006,1.539652705192566,-0.22980469465255737
0.7800278067588806,1.5801318883895874,-0.23171226680278778
0.7876701354980469,1.568378210067749,-0.22584611177444458
0.8126499652862549,1.5911773443222046,-0.22487376630306244
0.8577741980552673,1.651498794555664,-0.22891047596931458
0.8878577947616577,1.6802630424499512,-0.22816531360149384
0.9197467565536499,1.7123585939407349,-0.22773981094360352
0.9557167887687683,1.7509875297546387,-0.2279447764158249
0.9944490194320679,1.792464017868042,-0.22814397513866425
1.0396230220794678,1.8436038494110107,-0.22923943400382996
1.085298776626587,1.8943861722946167,-0.22983555495738983
1.1335293054580688,1.9480853080749512,-0.2305024117231369
1.1889338493347168,2.0110323429107666,-0.23167897760868073
1.2329803705215454,2.0534956455230713,-0.2301173210144043
1.2934993505477905,2.122246742248535,-0.23111049830913544
1.320958137512207,2.1336326599121094,-0.22520852088928223
1.352638602256775,2.151397943496704,-0.21986621618270874
1.373429298400879,2.1528663635253906,-0.21275299787521362
1.3819150924682617,2.134333610534668,-0.20351073145866394
1.3885291814804077,2.112215518951416,-0.19377680122852325
1.7921233177185059,2.686781406402588,-0.23657011985778809
1.7885395288467407,2.643188238143921,-0.2228979617357254
1.8933008909225464,2.7566709518432617,-0.22169464826583862
1.8938381671905518,2.7192986011505127,-0.20800761878490448
1.9256782531738281,2.7264318466186523,-0.19747669994831085
1.438554286956787,2.0064773559570312,-0.13652850687503815
1.4562255144119263,2.0039544105529785,-0.12766844034194946
1.4699357748031616,1.9945210218429565,-0.1178981363773346
1.5873284339904785,2.2464287281036377,0.35482603311538696
1.5741572380065918,2.2636148929595947,0.3652786612510681
1.5473122596740723,2.261808395385742,0.3724634349346161
1.5262924432754517,2.265310287475586,0.3799082338809967
1.5133448839187622,2.281867265701294,0.3892964720726013
1.4993432760238647,2.2989137172698975,0.3986493945121765
1.4989808797836304,2.3346292972564697,0.41089510917663574
1.5894330739974976,2.5138137340545654,0.44875261187553406
1.6041351556777954,2.5806124210357666,0.4669152498245239
3.0308334827423096,4.959366321563721,0.908964991569519
3.0149176120758057,5.011514186859131,0.9293015003204346
2.9787020683288574,5.030460357666016,0.9436115622520447
2.964752435684204,5.094144821166992,0.965689480304718
2.932023525238037,5.128108501434326,0.982471227645874
2.9158403873443604,5.183502674102783,1.0025736093521118
2.88615345954895,5.215182304382324,1.0181803703308105
2.872622489929199,5.281590938568115,1.0401453971862793
2.8394482135772705,5.3144659996032715,1.055446982383728
2.818984270095825,5.370692729949951,1.0754127502441406
2.7945616245269775,5.4156813621521,1.0928531885147095
2.7710468769073486,5.464160442352295,1.1110053062438965
2.7602486610412598,5.544647216796875,1.1351430416107178
1.2207732200622559,2.498549461364746,0.5150268077850342
1.2206294536590576,2.5445034503936768,0.527964174747467
1.195983648300171,2.5381932258605957,0.5299991369247437
1.1905690431594849,2.573587417602539,0.5406842231750488
1.1617541313171387,2.5604913234710693,0.5409166216850281
1.1487622261047363,2.5821640491485596,0.5485203266143799
2.5745794773101807,5.8991169929504395,1.2598053216934204
2.551539897918701,5.961165428161621,1.2798398733139038
2.5239243507385254,6.012316703796387,1.2975276708602905
2.489417552947998,6.053654193878174,1.3122978210449219
2.464381694793701,6.119664669036865,1.3325691223144531
2.4350836277008057,6.174625873565674,1.3504886627197266
2.407169818878174,6.232782363891602,1.3691668510437012
2.3806447982788086,6.2941436767578125,1.388603925704956
2.34572434425354,6.337939262390137,1.4037284851074219
2.318512201309204,6.4070940017700195,1.42418372631073
2.2866477966308594,6.465313911437988,1.4423562288284302
2.253408670425415,6.519576549530029,1.4597231149673462
2.224529266357422,6.584115028381348,1.4793864488601685
2.193650722503662,6.64490270614624,1.4983583688735962
2.143044948577881,6.651648998260498,1.5043549537658691
2.077277898788452,6.6107869148254395,1.4994333982467651
2.011373519897461,6.5695719718933105,1.4945173263549805
1.9496666193008423,6.530795574188232,1.4899450540542603
1.8920823335647583,6.502415180206299,1.4877326488494873
1.8401215076446533,6.491929054260254,1.4896533489227295
1.7812087535858154,6.459471225738525,1.4856510162353516
1.7176392078399658,6.408208847045898,1.477187156677246
0.8419463634490967,3.2354674339294434,0.7475649118423462
1.6054974794387817,6.351983070373535,1.4709898233413696
0.8036520481109619,3.2752509117126465,0.7602241039276123
1.5013608932495117,6.308223247528076,1.467636227607727
1.4530283212661743,6.302737712860107,1.4691530466079712
1.3961583375930786,6.263758182525635,1.4626036882400513
1.3415820598602295,6.227861404418945,1.4567652940750122
1.2896331548690796,6.198883533477783,1.4525572061538696
1.2350431680679321,6.150721549987793,1.4438494443893433
1.192038893699646,6.158168792724609,1.4482427835464478
1.1409965753555298,6.128140926361084,1.4436125755310059
1.0939655303955078,6.1165771484375,1.442625641822815
1.0452274084091187,6.093409061431885,1.4389607906341553
0.9950250387191772,6.058603286743164,1.4325991868972778
0.9480445384979248,6.034549713134766,1.4287893772125244
0.9006860256195068,6.010242938995361,1.4250061511993408
0.8550158739089966,5.989246845245361,1.4220235347747803
0.8086882829666138,5.9643778800964355,1.417409896850586
0.7597154378890991,5.916597366333008,1.4071952104568481
0.6117173433303833,5.045721530914307,1.201097846031189
0.5853177905082703,5.1287360191345215,1.2219582796096802
0.5538392066955566,5.177623748779297,1.2347853183746338
0.40665939450263977,4.0690693855285645,0.9713694453239441
0.37898313999176025,4.079020977020264,0.9746559858322144
0.35712432861328125,4.160869121551514,0.9945910573005676
0.3275699019432068,4.159261703491211,0.9946334958076477
0.2967517077922821,4.146106719970703,0.9919698238372803
0.2690727710723877,4.166807651519775,0.9974437355995178
0.44673073291778564,7.7564005851745605,1.8577724695205688
0.3915161192417145,7.736141681671143,1.854066014289856
0.3361007869243622,7.704226970672607,1.8471245765686035
0.2805147171020508,7.683511257171631,1.8422132730484009
0.22614748775959015,7.662373065948486,1.837289571762085
0.17149068415164948,7.614267349243164,1.8259875774383545
0.11831817775964737,7.599956035614014,1.822874903678894
0.06522204726934433,7.5700812339782715,1.816115140914917
0.011659964919090271,7.543635845184326,1.8102715015411377
-0.040617622435092926,7.513203144073486,1.802746057510376
-0.09247920662164688,7.490104675292969,1.796637773513794
-0.14389067888259888,7.455254077911377,1.7877999544143677
-0.19551996886730194,7.446631908416748,1.7853411436080933
-0.24568764865398407,7.399688243865967,1.773783564567566
-0.30014657974243164,7.451060771942139,1.785875916481018
-0.2552444338798523,5.403619289398193,1.295048475265503
-0.292167991399765,5.394421577453613,1.2920562028884888
-0.3280832767486572,5.36983060836792,1.285305142402649
-0.36412516236305237,5.352583885192871,1.2803807258605957
-0.4001298248767853,5.327466011047363,1.2736254930496216
-0.4372270107269287,5.324860572814941,1.2723262310028076
-0.40919965505599976,4.591452598571777,1.0965545177459717
-0.44224315881729126,4.600120544433594,1.0980952978134155
-0.47351518273353577,4.593620300292969,1.0953718423843384
-0.5032263398170471,4.567958831787109,1.088117241859436
-0.5320705771446228,4.54215669631958,1.08091139793396
-0.5644885897636414,4.5463361740112305,1.0808902978897095
-0.5931387543678284,4.520112991333008,1.0736929178237915
-0.6235349178314209,4.5087738037109375,1.0700894594192505
-0.6525188088417053,4.4859514236450195,1.0635432004928589
-0.6820657253265381,4.474445343017578,1.0592902898788452
-0.7103389501571655,4.455222129821777,1.05326509475708
-0.7408791780471802,4.450827598571777,1.0508002042770386
-0.7666464447975159,4.416161060333252,1.0412267446517944
-0.7987356185913086,4.418790340423584,1.0405044555664062
-0.8258307576179504,4.391170024871826,1.0326910018920898
-0.7138299942016602,3.6575562953948975,0.8587071299552917
-0.7387864589691162,3.6532087326049805,0.8561019897460938
-0.7575163841247559,3.618865489959717,0.84651780128479
-0.9322954416275024,4.306486129760742,1.0055673122406006
-0.97122722864151,4.337663650512695,1.0110232830047607
-0.9963261485099792,4.3092498779296875,1.0026673078536987
-1.0262815952301025,4.302977561950684,0.9993842244148254
-1.0519582033157349,4.281953811645508,0.9921778440475464
-1.0848231315612793,4.290345191955566,0.991837203502655
-1.106898307800293,4.254083156585693,0.9811846613883972
-1.13265061378479,4.23239803314209,0.9739508032798767
-1.1621991395950317,4.225261211395264,0.9701201319694519
-1.189627766609192,4.210572242736816,0.9646067023277283
-1.218359112739563,4.203336715698242,0.9602928757667542
-1.2440818548202515,4.184876918792725,0.9533074498176575
-1.2724529504776,4.17733907699585,0.9489089846611023
-1.2968518733978271,4.154853343963623,0.941110372543335
-1.3213087320327759,4.132131576538086,0.9332939386367798
-1.3526407480239868,4.131040096282959,0.9304137825965881
-1.3790210485458374,4.115368366241455,0.9238258004188538
-1.399370789527893,4.085395336151123,0.9139232039451599
-1.4244695901870728,4.069737911224365,0.9072824120521545
-1.452622652053833,4.060918807983398,0.9021428823471069
-1.4812225103378296,4.051736831665039,0.8969099521636963
-1.509720802307129,4.042360782623291,0.8916834592819214
-1.5351523160934448,4.025830268859863,0.8844496607780457
-1.5596036911010742,4.009466171264648,0.8771581053733826
-1.5866844654083252,4.000075817108154,0.8714444041252136
-1.613062858581543,3.986661195755005,0.8647910952568054
-1.6411049365997314,3.9764885902404785,0.8588444590568542
-1.6576600074768066,3.9376814365386963,0.8467203974723816
-1.6902092695236206,3.9418692588806152,0.8433981537818909
-1.7166738510131836,3.931781768798828,0.8370092511177063
-1.727608323097229,3.8864197731018066,0.8231688737869263
-1.7456103563308716,3.8545243740081787,0.8120763897895813
-1.7766128778457642,3.8502116203308105,0.8067712187767029
-1.809739351272583,3.8531556129455566,0.8028269410133362
-1.845561146736145,3.8631532192230225,0.8000372052192688
-1.8714877367019653,3.8521337509155273,0.7929112315177917
-1.901855230331421,3.847334146499634,0.7868865728378296
-1.9054652452468872,3.7869720458984375,0.7694320678710938
-1.9494174718856812,3.8093111515045166,0.7687866687774658
-1.9748928546905518,3.797760009765625,0.76087486743927
-1.989510416984558,3.765615940093994,0.7489013671875
-2.0085289478302,3.7396717071533203,0.738001823425293
-2.025933027267456,3.7099978923797607,0.7263390421867371
-1.7101356983184814,3.0810232162475586,0.5981404781341553
-1.730663776397705,3.0709311962127686,0.5909528136253357
-0.8267608284950256,1.4450469017028809,0.27561259269714355
-0.8487014174461365,1.4597855806350708,0.27575188875198364
-0.870901882648468,1.4742892980575562,0.27578461170196533
-0.8770528435707092,1.4623757600784302,0.27065372467041016
-0.8706956505775452,1.4308533668518066,0.2619774043560028
-0.8928039073944092,1.4451904296875,0.2615855038166046
-0.8949857354164124,1.4263824224472046,0.2550857663154602
-0.9006475806236267,1.414402723312378,0.24976590275764465
-0.9059699773788452,1.4025547504425049,0.24436673521995544
-0.8986571431159973,1.371160864830017,0.23557838797569275
-0.9170309901237488,1.3783252239227295,0.23332291841506958
-0.9436396956443787,1.3985183238983154,0.233078271150589
-2.405858039855957,3.5179226398468018,0.576876699924469
-1.262631893157959,1.7927002906799316,0.28325003385543823
-1.3695942163467407,2.1555612087249756,-0.21017396450042725
-1.3143385648727417,2.1021294593811035,-0.21238861978054047
-1.1866042613983154,1.959839940071106,-0.21116827428340912
-1.1505467891693115,1.930816650390625,-0.21425768733024597
-0.8383857607841492,1.4545284509658813,-0.17062368988990784
-0.9832529425621033,1.7335941791534424,-0.20857858657836914
-0.9836748242378235,1.7638219594955444,-0.21746917068958282
-0.9463852047920227,1.7260174751281738,-0.21788789331912994
-0.8879914879798889,1.6465981006622314,-0.21252977848052979
-0.8794922828674316,1.6592273712158203,-0.21890874207019806
-0.8421529531478882,1.6167888641357422,-0.21780358254909515
-0.8039336800575256,1.5703709125518799,-0.21581527590751648
-0.7927408814430237,1.5753750801086426,-0.2206946164369583
-0.7623996734619141,1.5421946048736572,-0.22008852660655975
-0.7407534718513489,1.5262287855148315,-0.22184878587722778
-0.7231466174125671,1.5168449878692627,-0.22433196008205414
-0.6926078796386719,1.4792343378067017,-0.22249962389469147
-0.6704897880554199,1.4589855670928955,-0.2230459600687027
-0.647120475769043,1.4349766969680786,-0.22288987040519714
-0.6369076371192932,1.4389076232910156,-0.22692885994911194
-0.6172306537628174,1.4215633869171143,-0.22762297093868256
-0.5902661085128784,1.3862707614898682,-0.22516894340515137
-0.5713197588920593,1.368495225906372,-0.22542047500610352
0.5797564387321472,1.398348093032837,-0.23071987926959991
0.5926805138587952,1.4019155502319336,-0.22820162773132324
0.6223798394203186,1.4444676637649536,-0.23186080157756805
0.6324450969696045,1.4407126903533936,-0.2279547154903412
0.6583835482597351,1.47213876247406,-0.22950774431228638
0.6802531480789185,1.4926204681396484,-0.2291366308927536
0.7037383317947388,1.5165365934371948,-0.2291840761899948
0.7308056950569153,1.5472545623779297,-0.23009666800498962
0.7568348050117493,1.5741193294525146,-0.23022300004959106
0.7714306712150574,1.5763163566589355,-0.22663214802742004
0.7998709678649902,1.6061687469482422,-0.22680319845676422
0.8232563138008118,1.625457763671875,-0.22539469599723816
0.8667195439338684,1.6823177337646484,-0.22889594733715057
0.898475706577301,1.7146000862121582,-0.22878243029117584
0.9285093545913696,1.7433193922042847,-0.2279702126979828
0.9719476103782654,1.7955962419509888,-0.22998376190662384
1.0055062770843506,1.8266818523406982,-0.22880622744560242
1.0448803901672363,1.867750883102417,-0.22872555255889893
1.0941071510314941,1.9254721403121948,-0.23036298155784607
1.1347063779830933,1.9656745195388794,-0.22949357330799103
1.199810266494751,2.0455024242401123,-0.23274454474449158
1.2499353885650635,2.0979762077331543,-0.23233486711978912
1.3064628839492798,2.1600968837738037,-0.23270945250988007
1.3299307823181152,2.1648385524749756,-0.2263697385787964
1.359444499015808,2.179408073425293,-0.22095255553722382
1.36996328830719,2.16438364982605,-0.2124861478805542
1.3747878074645996,2.1390066146850586,-0.20271775126457214
1.3813711404800415,2.116940975189209,-0.19336864352226257
1.7825666666030884,2.693120002746582,-0.23669959604740143
1.8467035293579102,2.749621629714966,-0.231822669506073
1.8069084882736206,2.650411605834961,-0.21358923614025116
1.8801372051239014,2.7192184925079346,-0.2087867707014084
1.8942782878875732,2.7007296085357666,-0.1967964619398117
1.440536379814148,2.0241079330444336,-0.13923229277133942
1.4537240266799927,2.0152511596679688,-0.13035883009433746
1.4768821001052856,2.018306016921997,-0.1216813251376152
1.467264175415039,1.9774811267852783,-0.11026948690414429
2.1845805644989014,3.0669870376586914,0.45586255192756653
1.5462347269058228,2.206115961074829,0.3355400860309601
1.5530554056167603,2.2519097328186035,0.34993189573287964
1.541144847869873,2.2681448459625244,0.3592688739299774
1.5236680507659912,2.2786028385162354,0.367540568113327
1.509757399559021,2.295775890350342,0.3768315315246582
1.4970364570617676,2.3120529651641846,0.3855445981025696
1.6234383583068848,2.5467352867126465,0.43110817670822144
1.6074360609054565,2.5646214485168457,0.44029727578163147
3.0499351024627686,4.946979999542236,0.8607608079910278
3.01436185836792,4.96626615524292,0.8748967051506042
3.000563383102417,5.026129245758057,0.8962400555610657
2.9790873527526855,5.076722621917725,0.915506899356842
2.9484970569610596,5.109924793243408,0.9314811825752258
2.9308955669403076,5.162078380584717,0.9505565166473389
2.893221378326416,5.180912017822266,0.9634212255477905
2.8805084228515625,5.251649856567383,0.985663652420044
2.847717523574829,5.2846550941467285,1.0007805824279785
2.8334107398986816,5.346836566925049,1.0209975242614746
2.813056468963623,5.398758411407471,1.039420485496521
2.783111572265625,5.437989711761475,1.0549287796020508
2.7738959789276123,5.522368431091309,1.0793370008468628
2.7399325370788574,5.554256439208984,1.0933029651641846
1.2327722311019897,2.5434916019439697,0.5040849447250366
1.204715609550476,2.530391216278076,0.5049023032188416
1.1791774034500122,2.5245068073272705,0.5067614912986755
1.1761633157730103,2.56730055809021,0.5184468030929565
1.1570683717727661,2.5750255584716797,0.5230827331542969
2.592092275619507,5.87772274017334,1.2007092237472534
2.5625641345977783,5.922070026397705,1.2165693044662476
2.5351645946502686,5.977782249450684,1.234055995941162
2.511234998703003,6.044118881225586,1.2538156509399414
2.4761548042297363,6.085578918457031,1.2685834169387817
2.4501426219940186,6.143761157989502,1.2866387367248535
2.422091245651245,6.198246955871582,1.3040552139282227
2.3964011669158936,6.263847827911377,1.3234490156173706
2.362267255783081,6.311830520629883,1.338813066482544
2.3332903385162354,6.377880573272705,1.35824716091156
2.3020050525665283,6.432219982147217,1.375061273574829
2.27178692817688,6.489872932434082,1.3926677703857422
2.237147569656372,6.536520481109619,1.4080437421798706
2.2112982273101807,6.616333961486816,1.4297770261764526
2.1703438758850098,6.656380653381348,1.443038821220398
2.108891725540161,6.630311012268066,1.441956639289856
2.050947666168213,6.606845855712891,1.4412835836410522
1.990041732788086,6.57194709777832,1.438137412071228
1.9264906644821167,6.525545120239258,1.432425618171692
1.8654485940933228,6.490208148956299,1.4281632900238037
1.809319257736206,6.472957134246826,1.4279786348342896
1.7493770122528076,6.436602592468262,1.4235482215881348
1.6945135593414307,6.410455226898193,1.4212809801101685
0.8352189064025879,3.25111985206604,0.7226305603981018
1.5786793231964111,6.32722282409668,1.409944772720337
0.8075072169303894,3.339409351348877,0.7455846667289734
1.4782092571258545,6.310047626495361,1.4115225076675415
1.4277266263961792,6.297098636627197,1.4113774299621582
1.3613860607147217,6.205284595489502,1.3935091495513916
1.3179830312728882,6.2136077880859375,1.3981398344039917
1.2736973762512207,6.221774101257324,1.4028583765029907
1.2198796272277832,6.181118488311768,1.3958847522735596
1.168629765510559,6.151365756988525,1.3911144733428955
1.1184817552566528,6.124969005584717,1.387154221534729
1.0686670541763306,6.09433650970459,1.382254958152771
1.024049162864685,6.093440055847168,1.3841710090637207
0.972457230091095,6.043182373046875,1.3748791217803955
0.925489604473114,6.0189642906188965,1.3712912797927856
0.8805490136146545,6.00970458984375,1.3704607486724854
0.8311243653297424,5.966141223907471,1.3618601560592651
0.7850978970527649,5.948718070983887,1.3593040704727173
0.6430694460868835,5.1483306884765625,1.1776572465896606
0.5938175916671753,5.038702011108398,1.153852105140686
0.5771638751029968,5.208786964416504,1.1941721439361572
0.5343635082244873,5.151716232299805,1.1819180250167847
0.39223480224609375,4.059584617614746,0.931868851184845
0.3661721348762512,4.096168041229248,0.9408376216888428
0.34340521693229675,4.170478343963623,0.9585208892822266
0.3129476010799408,4.1535258293151855,0.955278754234314
0.28352150321006775,4.1477484703063965,0.9546490907669067
0.2581459581851959,4.206368446350098,0.9688623547554016
0.41845670342445374,7.716536521911621,1.7776118516921997
0.36513593792915344,7.734277248382568,1.7820277214050293
0.30914103984832764,7.690791606903076,1.772421956062317
0.2553064227104187,7.684940814971924,1.7715710401535034
0.2009589970111847,7.652076244354248,1.7645745277404785
0.14640513062477112,7.630262851715088,1.760218858718872
0.09285148978233337,7.585310459136963,1.7501717805862427
0.03989938274025917,7.5591888427734375,1.7437667846679688
-0.012614999897778034,7.544118404388428,1.7399977445602417
-0.06474357843399048,7.498232364654541,1.729207158088684
-0.11752893775701523,7.478616237640381,1.7245590686798096
-0.16898861527442932,7.454844951629639,1.7190392017364502
-0.21998544037342072,7.4231085777282715,1.7117657661437988
-0.2706320285797119,7.398794651031494,1.705572247505188
-0.3231988549232483,7.427484035491943,1.7112085819244385
-0.27284377813339233,5.406498908996582,1.2449432611465454
-0.3092370629310608,5.374268054962158,1.2369223833084106
-0.34603336453437805,5.364624500274658,1.234174132347107
-0.3822305202484131,5.347128868103027,1.2296801805496216
-0.4178408682346344,5.325597286224365,1.224320888519287
-0.4512893557548523,5.285035133361816,1.2139370441436768
-0.4252329170703888,4.599606990814209,1.055510401725769
-0.457693874835968,4.604497909545898,1.0557093620300293
-0.48632052540779114,4.571276664733887,1.0472216606140137
-0.5172431468963623,4.560568332672119,1.0439447164535522
-0.5480403304100037,4.549649715423584,1.0406725406646729
-0.5782010555267334,4.530938148498535,1.035535454750061
-0.6092965006828308,4.527362823486328,1.0333417654037476
-0.634494960308075,4.482072353363037,1.0216877460479736
-0.6675516963005066,4.493175983428955,1.0229427814483643
-0.696360170841217,4.473875045776367,1.0173139572143555
-0.7255980968475342,4.454288959503174,1.0116525888442993
-0.7566400766372681,4.449621200561523,1.0094525814056396
-0.7833004593849182,4.4223551750183105,1.001795768737793
-0.8121846318244934,4.41002893447876,0.9972656965255737
-0.8380216956138611,4.382536888122559,0.9893670678138733
-0.7234744429588318,3.647752523422241,0.8221146464347839
-0.749310314655304,3.643080234527588,0.8196868300437927
-0.7803085446357727,3.6644155979156494,0.8231611847877502
-0.952721357345581,4.326477527618408,0.9703396558761597
-0.9855814576148987,4.335540771484375,0.9702206254005432
-1.0064096450805664,4.292330265045166,0.9584594964981079
-1.0379754304885864,4.293442726135254,0.9566184282302856
-1.0659128427505493,4.2795023918151855,0.9514694809913635
-1.0938942432403564,4.2653326988220215,0.9463099241256714
-1.1197333335876465,4.243600845336914,0.9395320415496826
-1.1418298482894897,4.210862159729004,0.929959774017334
-1.176001787185669,4.222190856933594,0.9299066662788391
-1.2015260457992554,4.203968524932861,0.923423707485199
-1.2261848449707031,4.181812286376953,0.9161001443862915
-1.2576487064361572,4.181354999542236,0.9135406613349915
-1.2824034690856934,4.15873384475708,0.9061879515647888
-1.3138645887374878,4.157899379730225,0.9033016562461853
-1.3349885940551758,4.128067493438721,0.8938648700714111
-1.3653393983840942,4.127202987670898,0.8907566666603088
-1.393627405166626,4.11876106262207,0.886013388633728
-1.4125279188156128,4.0809645652771,0.8749487996101379
-1.4411431550979614,4.071979999542236,0.8701297640800476
-1.4528175592422485,4.016013145446777,0.8550228476524353
-1.4918524026870728,4.03957462310791,0.8566222786903381
-1.5191453695297241,4.030515670776367,0.8513111472129822
-1.54686439037323,4.021100044250488,0.8459042906761169
-1.5737242698669434,4.007706642150879,0.8396305441856384
-1.6023762226104736,3.99751353263855,0.8340137004852295
-1.623867392539978,3.973475217819214,0.8252333998680115
-1.6505892276763916,3.9636878967285156,0.8192650675773621
-1.656265377998352,3.904247283935547,0.8031198382377625
-1.6957261562347412,3.922013998031616,0.8027666807174683
-1.7269362211227417,3.9180612564086914,0.7978679537773132
-1.7544175386428833,3.9071125984191895,0.7915796637535095
-1.7806334495544434,3.8965792655944824,0.7849348783493042
-1.7873021364212036,3.8440542221069336,0.7699209451675415
-1.820203423500061,3.846947431564331,0.7659777998924255
-1.8512892723083496,3.8420357704162598,0.7602533102035522
-1.8750929832458496,3.8232853412628174,0.7519190311431885
-1.9077707529067993,3.825725555419922,0.7473143935203552
-1.9298838376998901,3.8074285984039307,0.7385997772216797
-1.9486958980560303,3.781966209411621,0.7284775972366333
-1.9791688919067383,3.7763094902038574,0.7219719290733337
-2.0065152645111084,3.763371467590332,0.7140035033226013
-2.0245018005371094,3.7377381324768066,0.7033398747444153
-2.0420188903808594,3.7121312618255615,0.6926912665367126
-1.7251002788543701,3.0868918895721436,0.5710310935974121
-1.747001051902771,3.075876235961914,0.5638447999954224
-0.8410466909408569,1.4571436643600464,0.2645898461341858
-0.8506646156311035,1.452188491821289,0.2610611021518707
-0.8641958832740784,1.4538019895553589,0.2587125301361084
-0.8785149455070496,1.454904556274414,0.25605878233909607
-0.8848839998245239,1.4426581859588623,0.25104764103889465
-0.8988116383552551,1.4438294172286987,0.2481852024793625
-0.8918336629867554,1.4123703241348267,0.23978927731513977
-0.9017192721366882,1.4067754745483398,0.23567213118076324
-0.8991146683692932,1.3815206289291382,0.22824907302856445
-0.9040430784225464,1.3697247505187988,0.2229897826910019
-0.9174490571022034,1.370803952217102,0.21974506974220276
-0.9446136951446533,1.3905932903289795,0.2191801369190216
-2.4434921741485596,3.5443363189697266,0.5488799810409546
-1.2788000106811523,1.8302419185638428,0.27818265557289124
-1.3247863054275513,1.8700038194656372,0.2786261737346649
-1.3782687187194824,2.1870405673980713,-0.21158453822135925
-1.3028945922851562,2.1002495288848877,-0.210100457072258
-1.2695090770721436,2.078899383544922,-0.21465735137462616
-1.183513879776001,1.9709984064102173,-0.20991754531860352
-0.818865180015564,1.4082529544830322,-0.15852919220924377
-0.8451030850410461,1.4778226613998413,-0.1707289218902588
-1.0227277278900146,1.818731427192688,-0.21541909873485565
-0.9850838780403137,1.7811877727508545,-0.2160489410161972
-0.9517598152160645,1.750042200088501,-0.21713028848171234
-0.916842520236969,1.7152410745620728,-0.21752919256687164
-0.8864027857780457,1.6867679357528687,-0.21842163801193237
-0.847673237323761,1.6406534910202026,-0.21675285696983337
-0.8214347958564758,1.6185569763183594,-0.21808111667633057
-0.7870630025863647,1.578763723373413,-0.216765895485878
-0.7689802646636963,1.569769024848938,-0.2194260060787201
-0.7459716796875,1.5501476526260376,-0.22051118314266205
-0.7213841080665588,1.5269066095352173,-0.22089777886867523
-0.7070192694664001,1.524449110031128,-0.22419418394565582
-0.6719489097595215,1.4760348796844482,-0.2205771803855896
-0.6519377827644348,1.458985686302185,-0.22139191627502441
-0.6351568102836609,1.4488942623138428,-0.2231292426586151
-0.6125033497810364,1.424409031867981,-0.22254693508148193
-0.6023573279380798,1.4281415939331055,-0.22628696262836456
-0.5786575078964233,1.3997526168823242,-0.22488750517368317
-0.5598120093345642,1.3818488121032715,-0.22495101392269135
-0.5527377724647522,1.3924368619918823,-0.2296077311038971
0.5652875304222107,1.4045718908309937,-0.2288110852241516
0.5854933261871338,1.4261168241500854,-0.22935351729393005
0.5911053419113159,1.4118051528930664,-0.22410403192043304
0.6176071166992188,1.4473447799682617,-0.22662192583084106
0.6401879191398621,1.4718942642211914,-0.22722604870796204
0.6647427082061768,1.4997342824935913,-0.22820693254470825
0.6881169080734253,1.52379310131073,-0.22848676145076752
0.7148562073707581,1.5547624826431274,-0.22959211468696594
0.7223743796348572,1.5433505773544312,-0.22437883913516998
0.7651731967926025,1.6051650047302246,-0.22954778373241425
0.7663652896881104,1.579422116279602,-0.22215010225772858
0.8098681569099426,1.640752911567688,-0.22684267163276672
0.835166871547699,1.6634492874145508,-0.22595976293087006
0.8698965907096863,1.7030363082885742,-0.2271142303943634
0.8961632251739502,1.7250802516937256,-0.22574496269226074
0.9317721128463745,1.76405668258667,-0.22630923986434937
0.9697752594947815,1.8060712814331055,-0.22704416513442993
1.006805181503296,1.8441237211227417,-0.22695577144622803
1.0497801303863525,1.8921114206314087,-0.2278146892786026
1.0989973545074463,1.9498779773712158,-0.2295220047235489
1.1457732915878296,2.000035047531128,-0.22978384792804718
1.17164146900177,2.0127675533294678,-0.22559258341789246
1.234736442565918,2.089195966720581,-0.22823701798915863
1.3030948638916016,2.1714720726013184,-0.2309594750404358
1.3184837102890015,2.1629409790039062,-0.22355468571186066
1.352071762084961,2.1841843128204346,-0.21902050077915192
1.366778016090393,2.1757521629333496,-0.2115388661623001
1.3590624332427979,2.130690336227417,-0.2003132402896881
1.3781198263168335,2.1284165382385254,-0.19317929446697235
1.7730151414871216,2.699463367462158,-0.23618030548095703
1.8591357469558716,2.7882192134857178,-0.2341948002576828
1.802151083946228,2.6630513668060303,-0.21429355442523956
1.861659049987793,2.7129430770874023,-0.20868591964244843
1.8759925365447998,2.694385528564453,-0.19715557992458344
1.4198503494262695,2.0099925994873047,-0.13931488990783691
1.4422805309295654,2.0137598514556885,-0.13161945343017578
1.4655565023422241,2.0167839527130127,-0.12333065271377563
1.4697808027267456,1.9948925971984863,-0.11345870047807693
2.1786787509918213,3.0830447673797607,0.44060447812080383
2.1457529067993164,3.085388422012329,0.4511438310146332
2.1453330516815186,3.131096839904785,0.46736299991607666
1.542016863822937,2.288266658782959,0.3483836352825165
1.5240955352783203,2.298996686935425,0.35650819540023804
1.5160237550735474,2.321683645248413,0.3660143315792084
1.5697720050811768,2.4425113201141357,0.3911823332309723
1.6353079080581665,2.5876450538635254,0.42070773243904114
1.5953948497772217,2.5657334327697754,0.4230756163597107
3.0247128009796143,4.94068717956543,0.825538158416748
3.002898931503296,4.98779296875,0.8438018560409546
2.979794502258301,5.035243511199951,0.862139880657196
2.9645116329193115,5.09126091003418,0.8814496397972107
2.923563003540039,5.103718280792236,0.8933314681053162
2.911506175994873,5.1705241203308105,0.9141674041748047
2.8922863006591797,5.2276482582092285,0.9333125352859497
2.850131034851074,5.239810466766357,0.9441457986831665
2.849026679992676,5.325935363769531,0.9682155847549438
2.818258047103882,5.361907482147217,0.9832018613815308
2.7915258407592773,5.408503532409668,0.9996547102928162
2.776759624481201,5.478871822357178,1.0206109285354614
2.7584567070007324,5.537790775299072,1.0391392707824707
1.2275030612945557,2.5077807903289795,0.47399523854255676
1.2119766473770142,2.522958278656006,0.48011067509651184
1.1897389888763428,2.5241270065307617,0.4834307134151459
1.184000015258789,2.5599019527435303,0.4933818280696869
1.1594640016555786,2.553363800048828,0.4950985312461853
1.153864860534668,2.5887610912323,0.5049879550933838
2.576018810272217,5.893736362457275,1.155969262123108
2.5509252548217773,5.957140922546387,1.174657940864563
2.512838125228882,5.988113880157471,1.186914086341858
2.493809223175049,6.060779094696045,1.2073113918304443
2.461000442504883,6.101349353790283,1.221448302268982
2.4338080883026123,6.160040378570557,1.2389168739318848
2.4082648754119873,6.230097770690918,1.2584328651428223
2.378546953201294,6.289027214050293,1.2757606506347656
2.345672369003296,6.336500644683838,1.2907112836837769
2.3166677951812744,6.394449234008789,1.3078643083572388
2.283051013946533,6.441446304321289,1.3229132890701294
2.2577121257781982,6.52185583114624,1.344101071357727
2.223449945449829,6.576563358306885,1.3600201606750488
2.192314386367798,6.641946792602539,1.3782637119293213
2.1456868648529053,6.655610084533691,1.3857063055038452
2.0805022716522217,6.610491752624512,1.3809441328048706
2.022853374481201,6.590780258178711,1.381361484527588
1.9596285820007324,6.552557468414307,1.3770490884780884
1.89820396900177,6.517441272735596,1.3733999729156494
1.838711142539978,6.485406875610352,1.3703969717025757
1.7820371389389038,6.45625114440918,1.3679215908050537
1.7247992753982544,6.422952651977539,1.3645925521850586
1.672878384590149,6.411685466766357,1.3658159971237183
1.6068967580795288,6.344607830047607,1.3543471097946167
1.554742455482483,6.3289384841918945,1.353875756263733
1.48716139793396,6.245848178863525,1.3389841318130493
1.4469354152679443,6.269948482513428,1.347027063369751
1.3972138166427612,6.256651878356934,1.347158432006836
1.350208044052124,6.25029182434082,1.3487231731414795
1.2976559400558472,6.221522808074951,1.344609260559082
1.2448309659957886,6.1885857582092285,1.3396364450454712
1.193269968032837,6.15897274017334,1.3354240655899048
1.1417025327682495,6.12515926361084,1.3303297758102417
1.0948659181594849,6.109601974487305,1.3292006254196167
1.0450645685195923,6.0748748779296875,1.323941707611084
1.0021679401397705,6.081421852111816,1.3270471096038818
0.9452803134918213,6.001010417938232,1.3109533786773682
0.9007464051246643,5.999508380889893,1.3121685981750488
0.8542057871818542,5.974853038787842,1.3083341121673584
0.8114796876907349,5.972498893737793,1.3094247579574585
0.7644401788711548,5.935770511627197,1.30302894115448
0.6163997650146484,5.065268516540527,1.1132142543792725
0.5798020958900452,5.061554908752441,1.113141417503357
0.5552042126655579,5.175266742706299,1.1389808654785156
0.40723615884780884,4.0662665367126465,0.8955963850021362
0.3788909316062927,4.068727493286133,0.8968588709831238
0.3581070005893707,4.158411979675293,0.9174064993858337
0.3297746181488037,4.168124675750732,0.9203733205795288
0.29790198802948,4.139730930328369,0.9145409464836121
0.2673962414264679,4.118730068206787,0.9101603627204895
0.44521069526672363,7.692352771759033,1.700429916381836
0.39417964220046997,7.748333930969238,1.7134568691253662
0.3388897776603699,7.720131874084473,1.707950472831726
0.2832059860229492,7.69156551361084,1.7024527788162231
0.22862720489501953,7.65877628326416,1.6960493326187134
0.17472095787525177,7.637279510498047,1.6911029815673828
0.12088286131620407,7.600151062011719,1.6827787160873413
0.06758459657430649,7.574087619781494,1.6769866943359375
0.013958314433693886,7.55146598815918,1.6720396280288696
-0.03837776556611061,7.528472423553467,1.6670899391174316
-0.0903434231877327,7.4936747550964355,1.659605860710144
-0.14192377030849457,7.4700446128845215,1.6542855501174927
-0.1931169033050537,7.4462199211120605,1.648250937461853
-0.24448776245117188,7.437291622161865,1.6455962657928467
-0.2970007658004761,7.4355974197387695,1.6446114778518677
-0.24928078055381775,5.315135478973389,1.1752341985702515
-0.29090937972068787,5.401034355163574,1.1939069032669067
-0.3275524377822876,5.383805274963379,1.1898359060287476
-0.36271706223487854,5.351229667663574,1.1819053888320923
-0.39968377351760864,5.341276168823242,1.1787242889404297
-0.43560048937797546,5.327308654785156,1.1747337579727173
-0.41851919889450073,4.716411590576172,1.039265751838684
-0.4410965144634247,4.607326984405518,1.0145341157913208
-0.4707590341567993,4.581658363342285,1.0082389116287231
-0.5023340582847595,4.570911884307861,1.005270004272461
-0.5320152044296265,4.552605628967285,1.0000183582305908
-0.5623506903648376,4.541687488555908,0.9964381456375122
-0.5915709733963013,4.5229949951171875,0.9912051558494568
-0.621861457824707,4.511645317077637,0.9876247048377991
-0.6538407802581787,4.507552146911621,0.9856585264205933
-0.6811537742614746,4.476893901824951,0.9779581427574158
-0.7109305262565613,4.465000629425049,0.9741520285606384
-0.7390114068984985,4.445507526397705,0.9683288931846619
-0.7668084502220154,4.425843238830566,0.962526798248291
-0.7923870086669922,4.394715309143066,0.9542883038520813
-0.825702428817749,4.40080451965332,0.9541304111480713
-0.7153759598731995,3.6716575622558594,0.7948684096336365
-0.7364115118980408,3.6445701122283936,0.787873387336731
-0.7566760182380676,3.617546319961548,0.7804657816886902
-0.9348702430725098,4.322729110717773,0.930696427822113
-0.9699309468269348,4.339189529418945,0.9323269724845886
-0.9947554469108582,4.31070613861084,0.9243573546409607
-1.0266021490097046,4.311779975891113,0.9227592945098877
-1.052993893623352,4.290341854095459,0.9163942933082581
-1.0806764364242554,4.276302337646484,0.9113456010818481
-1.104432225227356,4.247323513031006,0.9028124809265137
-1.1372188329696655,4.255301475524902,0.9022216200828552
-1.162332534790039,4.23343563079834,0.8953237533569336
-1.1846256256103516,4.200226306915283,0.8860490918159485
-1.218224287033081,4.207355499267578,0.8853334188461304
-1.2434972524642944,4.184826850891113,0.8782147765159607
-1.2718244791030884,4.177215576171875,0.8738737106323242
-1.2978233098983765,4.162093162536621,0.8680062294006348
-1.3191858530044556,4.132153034210205,0.8590908050537109
-1.3457343578338623,4.116446018218994,0.8531215190887451
-1.3726401329040527,4.100407600402832,0.8470875024795532
-1.4036015272140503,4.0989603996276855,0.8440227508544922
-1.431283950805664,4.090393543243408,0.8390810489654541
-1.451166033744812,4.059961318969727,0.8297091722488403
-1.477522611618042,4.047372817993164,0.8240138292312622
-1.4951589107513428,4.009177207946777,0.8130826354026794
-1.5292093753814697,4.013792514801025,0.8108314275741577
-1.5513204336166382,3.9898877143859863,0.8026881217956543
-1.58100426197052,3.9875943660736084,0.7985860705375671
-1.61356520652771,3.992215633392334,0.7958906888961792
-1.6293466091156006,3.9537086486816406,0.7845593690872192
-1.6666208505630493,3.9643337726593018,0.7828741669654846
-1.6915512084960938,3.9465456008911133,0.7756651043891907
-1.7152283191680908,3.929126739501953,0.7681558728218079
-1.741640567779541,3.91870379447937,0.7619428038597107
-1.752165675163269,3.873030424118042,0.7489418387413025
-1.7831753492355347,3.8685975074768066,0.7437114119529724
-1.8104723691940308,3.8571417331695557,0.7372335195541382
-1.8370262384414673,3.8458361625671387,0.7305805683135986
-1.8728288412094116,3.8555357456207275,0.7276465892791748
-1.8917797803878784,3.830392599105835,0.7181606888771057
-1.9225517511367798,3.825040578842163,0.7121121883392334
-1.9425753355026245,3.798954725265503,0.7022918462753296
-1.9616941213607788,3.7731058597564697,0.692392885684967
-1.990412950515747,3.7681450843811035,0.6860767602920532
-2.011850595474243,3.7493650913238525,0.6772749423980713
-2.025383949279785,3.712773323059082,0.6650078892707825
