X,Y,Z
0.7350839376449585,3.948946475982666,-0.14868731796741486
0.7630526423454285,3.9476377964019775,-0.14817172288894653
0.7921141982078552,3.949899673461914,-0.14772793650627136
0.8207568526268005,3.9520483016967773,-0.14729425311088562
0.8482435941696167,3.9462673664093018,-0.14656317234039307
0.8681017756462097,3.9059910774230957,-0.14456184208393097
0.9169310331344604,3.995041608810425,-0.14729458093643188
0.9339748024940491,3.942997694015503,-0.14475134015083313
0.9646440148353577,3.9517130851745605,-0.14446204900741577
0.9882712960243225,3.929802417755127,-0.14305080473423004
1.030229926109314,3.979560136795044,-0.14424894750118256
1.0616703033447266,3.987483263015747,-0.14387673139572144
1.115049123764038,4.074199676513672,-0.14626140892505646
1.1607357263565063,4.130436420440674,-0.14754289388656616
1.1753404140472412,4.073545455932617,-0.14477309584617615
1.2202785015106201,4.121456146240234,-0.14573271572589874
1.2429155111312866,4.094329357147217,-0.14398029446601868
1.2735263109207153,4.093130111694336,-0.14308074116706848
1.3120346069335938,4.11788272857666,-0.14309999346733093
1.3430800437927246,4.116116523742676,-0.1421775221824646
1.3865673542022705,4.151136875152588,-0.1425207406282425
1.4476983547210693,4.237673759460449,-0.14453375339508057
1.4969770908355713,4.2867865562438965,-0.1452104151248932
1.5044368505477905,4.213809967041016,-0.14173324406147003
1.5511384010314941,4.250959396362305,-0.1419694870710373
1.6257216930389404,4.360823631286621,-0.14459750056266785
1.6440401077270508,4.320596694946289,-0.14213579893112183
1.7170032262802124,4.42227029800415,-0.14432695508003235
1.7479854822158813,4.410167694091797,-0.1427379846572876
1.7976365089416504,4.445014953613281,-0.14267359673976898
1.0911568403244019,2.6458775997161865,-0.08419106900691986
1.0998528003692627,2.6169118881225586,-0.0825120210647583
1.1236588954925537,2.623809337615967,-0.08196617662906647
1.148465633392334,2.6301302909851074,-0.0813608467578888
1.1540027856826782,2.5935840606689453,-0.07945035398006439
1.168129324913025,2.5787136554718018,-0.07817130535840988
1.1837247610092163,2.567324638366699,-0.07700559496879578
1.1848446130752563,2.523768663406372,-0.07486457377672195
1.2026616334915161,2.515359878540039,-0.07376212626695633
1.2092925310134888,2.486182689666748,-0.0720376968383789
1.218888521194458,2.4641098976135254,-0.07052358984947205
1.2322328090667725,2.448756217956543,-0.06918679177761078
1.2492382526397705,2.440157175064087,-0.06803293526172638
1.2421960830688477,2.3866944313049316,-0.06562603265047073
1.2546006441116333,2.371396780014038,-0.06426307559013367
1.2670907974243164,2.3559138774871826,-0.06288959830999374
1.2797083854675293,2.3402183055877686,-0.061502307653427124
1.2877230644226074,2.31799578666687,-0.05993027240037918
1.297227144241333,2.29927921295166,-0.058452531695365906
1.3055187463760376,2.2766239643096924,-0.05682703107595444
1.3251770734786987,2.2743136882781982,-0.05572383478283882
1.3320319652557373,2.2522060871124268,-0.05411812290549278
1.3388670682907104,2.2299787998199463,-0.052509140223264694
1.342159628868103,2.2006285190582275,-0.05069543421268463
1.3654096126556396,2.204707145690918,-0.04962470009922981
1.379714846611023,2.1958134174346924,-0.04826534166932106
1.3779464960098267,2.1599833965301514,-0.04626629501581192
1.3969075679779053,2.1571123600006104,-0.04496973380446434
1.4000327587127686,2.1317896842956543,-0.04320143908262253
1.416797399520874,2.125411033630371,-0.04174288734793663
1.4291491508483887,2.112440824508667,-0.040137916803359985
1.438173770904541,2.0968704223632812,-0.0384758859872818
1.447813868522644,2.0807454586029053,-0.03673584386706352
1.4437516927719116,2.0454652309417725,-0.034639742225408554
1.443153977394104,2.017167568206787,-0.03266395255923271
1.4708961248397827,2.026089906692505,-0.031160255894064903
1.4838881492614746,2.0166213512420654,-0.029347926378250122
2.2982943058013916,3.2395777702331543,0.07053836435079575
2.269785165786743,3.2500269412994385,0.07339223474264145
2.249809503555298,3.2733023166656494,0.0764523297548294
3.176710367202759,4.692718505859375,0.11301668733358383
3.1365444660186768,4.710184097290039,0.11671917885541916
3.1171884536743164,4.755645275115967,0.12096798419952393
3.1009414196014404,4.803394317626953,0.12517236173152924
1.626497507095337,2.561642646789551,0.06831558048725128
1.6240390539169312,2.6000616550445557,0.07088375836610794
1.5935750007629395,2.5913281440734863,0.0720868706703186
2.9423747062683105,4.86529016494751,0.13798068463802338
2.7844078540802,4.682174205780029,0.135268434882164
2.7774336338043213,4.745147705078125,0.13942846655845642
2.7135722637176514,4.714402198791504,0.14083899557590485
2.4611616134643555,4.350317478179932,0.13199420273303986
2.458468437194824,4.418912887573242,0.13605068624019623
2.4069855213165283,4.398187637329102,0.13732074201107025
2.402631998062134,4.467110633850098,0.14135847985744476
2.3871912956237793,4.5195088386535645,0.14492958784103394
2.482985019683838,4.782208442687988,0.15524572134017944
2.424765110015869,4.750619888305664,0.1560693234205246
2.3533942699432373,4.694756031036377,0.15597957372665405
2.3119497299194336,4.697827339172363,0.15780211985111237
1.2231695652008057,2.5311319828033447,0.08592614531517029
1.2055481672286987,2.539532423019409,0.08708766847848892
1.190588116645813,2.5551586151123047,0.08847171068191528
1.1800181865692139,2.5814976692199707,0.09022096544504166
1.1567729711532593,2.5791265964508057,0.09095505625009537
1.1466690301895142,2.6049392223358154,0.09266911447048187
1.120267391204834,2.5951149463653564,0.09311585128307343
2.043065071105957,4.828756809234619,0.17462767660617828
2.022909164428711,4.87945556640625,0.17784243822097778
2.002063274383545,4.925926208496094,0.1808767169713974
1.9821109771728516,4.975967884063721,0.18406961858272552
2.040890693664551,5.233875274658203,0.1949702799320221
2.0001494884490967,5.241154670715332,0.1965423822402954
1.9885807037353516,5.324735164642334,0.20098449289798737
1.9621834754943848,5.367714881896973,0.20389391481876373
1.9379589557647705,5.417917728424072,0.20710188150405884
1.8803067207336426,5.380268573760986,0.20685186982154846
1.8831336498260498,5.515516757965088,0.21324291825294495
1.8489347696304321,5.543471813201904,0.2155071496963501
1.9445621967315674,5.968111991882324,0.23327136039733887
1.8959002494812012,5.959105968475342,0.23417896032333374
1.8663291931152344,6.017428398132324,0.2375955432653427
1.850297212600708,6.1202497482299805,0.24278195202350616
1.811329960823059,6.1481099128723145,0.24501344561576843
1.7748841047286987,6.183035373687744,0.24752815067768097
1.7474961280822754,6.251582622528076,0.25141528248786926
1.734691858291626,6.380568504333496,0.2576074004173279
1.6921851634979248,6.408061504364014,0.2597317695617676
1.6486223936080933,6.427405834197998,0.2615169584751129
0.8113738894462585,3.2572035789489746,0.1330304890871048
1.5434675216674805,6.38510274887085,0.26177334785461426
0.7879320979118347,3.3631958961486816,0.13835303485393524
1.4271178245544434,6.295992851257324,0.2598453760147095
1.3739928007125854,6.267796516418457,0.2595188021659851
1.3303773403167725,6.277148246765137,0.26073676347732544
1.270262360572815,6.205898284912109,0.25860852003097534
1.218494176864624,6.172466278076172,0.2579962909221649
1.1710927486419678,6.165702819824219,0.25836506485939026
1.120416283607483,6.135400295257568,0.25774356722831726
1.0787296295166016,6.150751113891602,0.25904321670532227
1.0307643413543701,6.127270698547363,0.25871217250823975
0.9837983846664429,6.107275009155273,0.25853458046913147
0.9264119863510132,6.025404930114746,0.25559014081954956
0.8793753981590271,6.0008625984191895,0.2550334334373474
0.8348856568336487,5.991419792175293,0.25512734055519104
0.789621889591217,5.96996545791626,0.2547118365764618
0.7480908632278442,5.97528076171875,0.25544846057891846
0.6148549318313599,5.205165863037109,0.2229383885860443
0.5629798769950867,5.077526569366455,0.21776479482650757
0.5385730862617493,5.190028190612793,0.22289472818374634
0.3943979740142822,4.0787858963012695,0.17541775107383728
0.3667122423648834,4.089189052581787,0.17611952126026154
0.34179458022117615,4.134408473968506,0.17833253741264343
0.31677719950675964,4.195096492767334,0.18114063143730164
0.2865859270095825,4.185521602630615,0.1808677613735199
0.2567422091960907,4.179628372192383,0.1807624101638794
0.23000234365463257,4.224167823791504,0.1828470528125763
0.36959150433540344,7.784718036651611,0.3372766673564911
0.3139621317386627,7.771518230438232,0.3370334506034851
0.2586304545402527,7.738406181335449,0.33568835258483887
0.2037937492132187,7.708805084228516,0.33450019359588623
0.1493075042963028,7.671012878417969,0.3329716622829437
0.09546131640672684,7.628933429718018,0.33127158880233765
0.04144827276468277,7.613800048828125,0.330759197473526
-0.01141350343823433,7.582679748535156,0.3294987082481384
-0.06387373805046082,7.555104732513428,0.3282041847705841
-0.024344364181160927,1.5803542137145996,0.06863594055175781
-0.03569035232067108,1.5957539081573486,0.06929109990596771
-0.04529144614934921,1.5447566509246826,0.0670667216181755
-0.05777091532945633,1.58729887008667,0.06890670955181122
-0.06879429519176483,1.5868613719940186,0.06885682791471481
-0.08213183283805847,1.6331223249435425,0.07081045210361481
-0.30974745750427246,5.411855220794678,0.23448540270328522
-0.3458174765110016,5.38621711730957,0.23321910202503204
-0.38334906101226807,5.3758625984191895,0.2326240837574005
-0.41914474964141846,5.353628158569336,0.23152972757816315
-0.4528389275074005,5.311733722686768,0.22945228219032288
-0.4353533685207367,4.721692085266113,0.20370861887931824
-0.45832279324531555,4.621499061584473,0.19914476573467255
-0.49013233184814453,4.610400676727295,0.1984298676252365
-0.5194602608680725,4.583639144897461,0.19705629348754883
-0.550308108329773,4.572193145751953,0.19633212685585022
-0.5807399153709412,4.560581684112549,0.19548188149929047
-0.6089155673980713,4.533301830291748,0.19397208094596863
-0.6390882730484009,4.5173444747924805,0.19295109808444977
-0.6693328022956848,4.505093574523926,0.19210246205329895
-0.7006387710571289,4.5003533363342285,0.19158397614955902
-0.7291832566261292,4.480025291442871,0.19033557176589966
-0.7572612166404724,4.459559917449951,0.18901607394218445
-0.7864096760749817,4.44661283493042,0.18802709877490997
-0.8163127899169922,4.433312892913818,0.18702088296413422
-0.8427082896232605,4.40455961227417,0.18538092076778412
-0.7281333804130554,3.667433738708496,0.15400747954845428
-0.7531846165657043,3.6623988151550293,0.15333962440490723
-0.7765477895736694,3.649564504623413,0.15234549343585968
-0.9479286670684814,4.307347774505615,0.17926041781902313
-0.9846852421760559,4.331154823303223,0.17971500754356384
-1.0129414796829224,4.316649436950684,0.17858491837978363
-1.042595624923706,4.309618949890137,0.1777172088623047
-1.0577116012573242,4.245660781860352,0.17445184290409088
-1.0850775241851807,4.230728626251221,0.17320847511291504
-1.1232410669326782,4.257136344909668,0.1736619770526886
-1.152742624282837,4.249281406402588,0.1727185845375061
-1.182129144668579,4.241238594055176,0.17176534235477448
-1.206518292427063,4.2181715965271,0.1700925976037979
-1.2300422191619873,4.191079139709473,0.1682586818933487
-1.2609363794326782,4.190083980560303,0.16748729348182678
-1.2854609489440918,4.166332244873047,0.16580301523208618
-1.3144232034683228,4.157329082489014,0.16471636295318604
-1.3402280807495117,4.140923500061035,0.16324396431446075
-1.3686965703964233,4.131649017333984,0.16202645003795624
-1.3942341804504395,4.114906311035156,0.16053597629070282
-1.4099558591842651,4.068301677703857,0.1578799933195114
-1.4381372928619385,4.058472633361816,0.1566663533449173
-1.4735139608383179,4.070730209350586,0.156225323677063
-1.4980778694152832,4.053482532501221,0.154623344540596
-1.5258841514587402,4.043148994445801,0.1532714068889618
-1.55118727684021,4.0251946449279785,0.15162663161754608
-1.5705641508102417,3.992565155029297,0.14944452047348022
-1.60043203830719,3.9891538619995117,0.148283451795578
-1.624153971672058,3.9711740016937256,0.1465654820203781
-1.6440380811691284,3.94189715385437,0.1444108933210373
-1.671393871307373,3.9304308891296387,0.1429143249988556
-1.6986905336380005,3.918765068054199,0.14141514897346497
-1.724738359451294,3.9074277877807617,0.1398303508758545
-1.750740885734558,3.8959033489227295,0.1382436603307724
-1.7681005001068115,3.862366199493408,0.13583523035049438
-1.7883471250534058,3.8358664512634277,0.13369348645210266
-1.8178290128707886,3.830686330795288,0.1322702318429947
-1.846622109413147,3.8256211280822754,0.13080807030200958
-1.875598430633545,3.8202579021453857,0.12932808697223663
-1.881600260734558,3.765059471130371,0.12610593438148499
-1.9076427221298218,3.751990795135498,0.12433473020792007
-1.93228280544281,3.7394213676452637,0.12250371277332306
-1.682736873626709,3.2046761512756348,0.10376954078674316
-1.989982008934021,3.726874828338623,0.11918377131223679
-2.030857563018799,3.740406036376953,0.11810003221035004
-1.7089555263519287,3.0976004600524902,0.09646942466497421
-1.7292892932891846,3.0863466262817383,0.09479894489049911
-0.7979798316955566,1.4014654159545898,0.042415548115968704
-0.774462103843689,1.3384464979171753,0.03989729657769203
-0.7930802702903748,1.3502161502838135,0.03960604965686798
-0.8400219678878784,1.4086740016937256,0.040633220225572586
-0.8821777701377869,1.4562606811523438,0.041256263852119446
-0.8880061507225037,1.4435781240463257,0.04014517739415169
-0.8890340924263,1.4245905876159668,0.03885596618056297
-0.8943504095077515,1.412048101425171,0.03772829473018646
-2.374079704284668,3.5334646701812744,0.08567196130752563
-2.43021821975708,3.5662777423858643,0.08405505865812302
-1.6096575260162354,2.3294992446899414,0.05326321721076965
-1.3634428977966309,1.9441711902618408,0.042975082993507385
-1.2624986171722412,1.8050953149795532,-0.03857675567269325
-1.2839744091033936,1.8662092685699463,-0.04158453270792961
-1.081303596496582,1.621335744857788,-0.03881588950753212
-1.1890228986740112,1.8122648000717163,-0.04482563957571983
-1.1954269409179688,1.8499985933303833,-0.04710753262042999
-0.8579056859016418,1.4161802530288696,-0.03994430601596832
-0.8173646926879883,1.3721712827682495,-0.03957801312208176
-0.8116937875747681,1.3845655918121338,-0.04076042026281357
-0.749061107635498,1.2989939451217651,-0.03901582956314087
-0.824176549911499,1.4539321660995483,-0.04450253024697304
-0.9810396432876587,1.7599141597747803,-0.0548420213162899
-1.6352390050888062,2.9821135997772217,-0.09452366083860397
-1.6210284233093262,3.0075550079345703,-0.09690345823764801
-1.5875366926193237,2.9988207817077637,-0.09820136427879333
-1.6404247283935547,3.151798963546753,-0.10475775599479675
-1.6148886680603027,3.15612530708313,-0.10643503814935684
-1.588326096534729,3.160776138305664,-0.10806522518396378
-1.5653249025344849,3.172166109085083,-0.10992269963026047
-1.5461806058883667,3.190157890319824,-0.11198396980762482
-1.5321630239486694,3.21848464012146,-0.11439412087202072
-1.7813795804977417,3.8131186962127686,-0.13714204728603363
-1.7667313814163208,3.8542375564575195,-0.1402410864830017
-1.7398688793182373,3.8663649559020996,-0.1422407478094101
-1.7318274974822998,3.921168565750122,-0.14583270251750946
-1.7076301574707031,3.9444580078125,-0.14822274446487427
-1.6912883520126343,3.9853675365448,-0.1512727290391922
-1.6664178371429443,4.004216194152832,-0.15345588326454163
-1.6325782537460327,4.001198768615723,-0.15480269491672516
-1.615517020225525,4.041697978973389,-0.15776342153549194
-1.5858575105667114,4.0533552169799805,-0.15961667895317078
-1.5599859952926636,4.071673393249512,-0.16169223189353943
-1.534350037574768,4.089671611785889,-0.16374839842319489
-1.497418999671936,4.0783281326293945,-0.16459186375141144
-1.4787075519561768,4.118276596069336,-0.1674458235502243
-1.4461413621902466,4.12148380279541,-0.16883930563926697
-1.417433738708496,4.131377696990967,-0.17045851051807404
-1.3936219215393066,4.155874729156494,-0.17269282042980194
-1.3616148233413696,4.158194065093994,-0.17391394078731537
-1.3402235507965088,4.1937665939331055,-0.17652104794979095
-1.3043161630630493,4.184571266174316,-0.17725998163223267
-1.2706751823425293,4.178531646728516,-0.1780974417924881
-1.2348084449768066,4.16478967666626,-0.17858386039733887
-1.196520447731018,4.143403053283691,-0.17863276600837708
-1.1596206426620483,4.125452518463135,-0.17882679402828217
-1.1184074878692627,4.088224411010742,-0.17816020548343658
-1.0764268636703491,4.046943187713623,-0.17731527984142303
-1.0402641296386719,4.024096488952637,-0.17719778418540955
-1.0240627527236938,4.0805277824401855,-0.18050263822078705
-0.9757270812988281,4.008004665374756,-0.17810599505901337
-0.9342917799949646,3.957692861557007,-0.1766647845506668
-0.9044755697250366,3.9565577507019043,-0.17742730677127838
-0.8909831047058105,4.02754545211792,-0.1813589483499527
-0.8346995711326599,3.9039599895477295,-0.17646072804927826
-0.8038788437843323,3.8944432735443115,-0.1767025589942932
-0.7592270374298096,3.811875820159912,-0.1736091822385788
-0.7219241857528687,3.763460636138916,-0.1720668226480484
-0.6608238816261292,3.580355167388916,-0.16424529254436493
-0.6355689167976379,3.5848920345306396,-0.16494964063167572
-0.6312141418457031,3.712354898452759,-0.17133557796478271
-0.6104105710983276,3.7474312782287598,-0.1734803467988968
-0.5779120922088623,3.713060140609741,-0.17242619395256042
-0.5490425229072571,3.6976850032806396,-0.17217721045017242
-0.5208571553230286,3.6859707832336426,-0.1720362901687622
-0.48871326446533203,3.643104314804077,-0.17044301331043243
-0.4604395031929016,3.623159885406494,-0.16991795599460602
-0.4338940382003784,3.6146185398101807,-0.16993139684200287
-0.4065232276916504,3.6020686626434326,-0.16970744729042053
-0.3812977373600006,3.604807138442993,-0.17011132836341858
-0.35455313324928284,3.5918335914611816,-0.16978052258491516
-0.3280732333660126,3.5786571502685547,-0.16944520175457
-0.30314311385154724,3.580836534500122,-0.16984353959560394
-0.2759327292442322,3.559536933898926,-0.16910721361637115
-0.25208964943885803,3.5769386291503906,-0.17011362314224243
-0.22381651401519775,3.527981758117676,-0.16797062754631042
-0.2016455978155136,3.5722951889038086,-0.17027518153190613
-0.15042050182819366,3.547456741333008,-0.16949506103992462
-0.1254505217075348,3.5406136512756348,-0.16923470795154572
-0.09969491511583328,3.5023932456970215,-0.16748182475566864
-0.07565166056156158,3.5186009407043457,-0.16833928227424622
-0.050901997834444046,3.5034313201904297,-0.16770382225513458
-0.026071030646562576,3.5036990642547607,-0.16781678795814514
-0.001628001919016242,3.4803853034973145,-0.1666845679283142
0.022434227168560028,3.4530019760131836,-0.16534507274627686
0.04606243222951889,3.4215521812438965,-0.16381928324699402
0.0698600634932518,3.4211504459381104,-0.16378818452358246
0.09405022114515305,3.436185121536255,-0.1645040065050125
0.1177544817328453,3.419844150543213,-0.1636372059583664
0.14181087911128998,3.4267494678497314,-0.1638403683900833
0.165937602519989,3.4334867000579834,-0.16404296457767487
0.1881035715341568,3.401089906692505,-0.1623840481042862
0.21276871860027313,3.4152820110321045,-0.16295777261257172
0.23583711683750153,3.3981330394744873,-0.1619846671819687
0.2599634528160095,3.4042134284973145,-0.16205120086669922
0.28421616554260254,3.4101197719573975,-0.1621159166097641
0.3078920245170593,3.408078193664551,-0.16180984675884247
0.3300716280937195,3.3903353214263916,-0.16076676547527313
0.35481077432632446,3.395698070526123,-0.1607910841703415
0.3808446228504181,3.4164559841156006,-0.161442831158638
0.4035095274448395,3.4060158729553223,-0.16062653064727783
0.42711174488067627,3.403158187866211,-0.16017498075962067
0.4538315236568451,3.423337459564209,-0.16081249713897705
0.4747883379459381,3.3968780040740967,-0.15925303101539612
0.503827691078186,3.4321632385253906,-0.16047939658164978
0.5238822102546692,3.405500650405884,-0.15881487727165222
0.5499135851860046,3.417231559753418,-0.15894721448421478
0.5794879794120789,3.4479856491088867,-0.15996387600898743
0.6034549474716187,3.443899631500244,-0.15936776995658875
0.6303767561912537,3.454975128173828,-0.15934444963932037
0.6555507183074951,3.4582648277282715,-0.15896619856357574
0.6809210777282715,3.4613473415374756,-0.1585809290409088
0.7065477967262268,3.464207172393799,-0.15818674862384796
0.7378922700881958,3.4936041831970215,-0.15900570154190063
0.7564608454704285,3.461714267730713,-0.1569206714630127
0.7836061716079712,3.4717142581939697,-0.15673771500587463
0.8021903038024902,3.443469285964966,-0.15483364462852478
0.8416314721107483,3.5023510456085205,-0.15684069693088531
0.8622273206710815,3.4812979698181152,-0.1552666574716568
0.8961167335510254,3.51306414604187,-0.15593628585338593
0.926047682762146,3.529552459716797,-0.1559194177389145
0.9553799033164978,3.5419862270355225,-0.15571734309196472
0.9821010828018188,3.5428171157836914,-0.15499773621559143
1.0291858911514282,3.6147663593292236,-0.15737873315811157
1.0630033016204834,3.637559413909912,-0.1574682891368866
1.078810214996338,3.600371837615967,-0.15497784316539764
1.1127625703811646,3.6227519512176514,-0.15504908561706543
1.140315294265747,3.622411012649536,-0.15413644909858704
1.1654086112976074,3.614468812942505,-0.1528920829296112
1.2062972784042358,3.6545586585998535,-0.15355928242206573
1.2510610818862915,3.705510139465332,-0.15467946231365204
1.2830443382263184,3.7152693271636963,-0.154046431183815
1.3387385606765747,3.7909700870513916,-0.1561211198568344
1.358160376548767,3.7633743286132812,-0.15388056635856628
1.3903276920318604,3.772479772567749,-0.1530836969614029
1.4438437223434448,3.835919141769409,-0.15444546937942505
1.4803098440170288,3.8513481616973877,-0.15384060144424438
1.5512794256210327,3.953667402267456,-0.15667003393173218
1.5925430059432983,3.979374885559082,-0.15633265674114227
1.6104892492294312,3.946930408477783,-0.15369568765163422
1.6545292139053345,3.975296974182129,-0.15337781608104706
1.7325035333633423,4.082338333129883,-0.15605099499225616
1.1266591548919678,2.6049232482910156,-0.09862106293439865
1.1504271030426025,2.611635208129883,-0.09787896275520325
1.1584532260894775,2.582481622695923,-0.09579437971115112
1.175082802772522,2.5707149505615234,-0.09432127326726913
1.19287109375,2.5625574588775635,-0.09300018101930618
1.1999393701553345,2.5334081649780273,-0.09087798744440079
1.2066717147827148,2.5042788982391357,-0.08877835422754288
1.2102447748184204,2.4678618907928467,-0.08640644699335098
1.2241618633270264,2.452312469482422,-0.0847637951374054
1.2280867099761963,2.4197869300842285,-0.08252383023500443
1.240552544593811,2.404683828353882,-0.08089176565408707
1.2571638822555542,2.396090030670166,-0.07943881303071976
1.2664759159088135,2.3735406398773193,-0.0775258019566536
1.2822142839431763,2.365123748779297,-0.07605156302452087
1.2830538749694824,2.3291144371032715,-0.07368475198745728
1.2991864681243896,2.320202350616455,-0.07215698063373566
1.3112534284591675,2.3044703006744385,-0.07041843980550766
1.3087749481201172,2.265427350997925,-0.06796017289161682
1.319916009902954,2.2499501705169678,-0.06621157377958298
1.3278071880340576,2.2271838188171387,-0.06418605893850327
1.3427197933197021,2.218271017074585,-0.06258127093315125
1.3530746698379517,2.2028543949127197,-0.06078995764255524
1.3599135875701904,2.180295944213867,-0.0587443970143795
1.3748681545257568,2.1709423065185547,-0.05704290792346001
1.393383264541626,2.168440580368042,-0.05546779930591583
1.40366792678833,2.1525237560272217,-0.0535227507352829
1.427160620689392,2.155824899673462,-0.052005231380462646
1.4278569221496582,2.1272425651550293,-0.04971151053905487
1.4353959560394287,2.108045816421509,-0.04759491607546806
1.4457429647445679,2.0915191173553467,-0.04544578120112419
1.4545207023620605,2.0759356021881104,-0.043352726846933365
1.4594351053237915,2.0533883571624756,-0.0410250760614872
1.4639685153961182,2.0309720039367676,-0.03866804018616676
1.4767545461654663,2.021733283996582,-0.03655290603637695
1.4721492528915405,1.9863694906234741,-0.03379840403795242
2.3055343627929688,3.2245078086853027,0.08393117785453796
2.271373748779297,3.2294821739196777,0.08737988024950027
2.2576427459716797,3.2580254077911377,0.09113186597824097
2.241924524307251,3.2876884937286377,0.09491623938083649
3.148721218109131,4.692024230957031,0.1394781619310379
3.124534845352173,4.7267680168151855,0.14427271485328674
3.0987396240234375,4.766884803771973,0.14925731718540192
3.088931083679199,4.828830242156982,0.15476767718791962
1.6503996849060059,2.6199796199798584,0.08579931408166885
1.6226396560668945,2.6188342571258545,0.08754732459783554
1.5828492641448975,2.597384214401245,0.08855720609426498
2.8054380416870117,4.677854061126709,0.16244767606258392
2.7596564292907715,4.677704334259033,0.16528576612472534
2.7324419021606445,4.7115912437438965,0.1692810207605362
2.743426561355591,4.808745384216309,0.1754690408706665
2.5073115825653076,4.466726779937744,0.1654345691204071
2.4568378925323486,4.454485893249512,0.167367622256279
2.4014549255371094,4.431258201599121,0.16880683600902557
2.4384515285491943,4.575253963470459,0.17652978003025055
2.4589922428131104,4.6923370361328125,0.183330237865448
2.4511258602142334,4.762293338775635,0.18826641142368317
2.3978147506713867,4.745542526245117,0.18982575833797455
2.324751138687134,4.681612491607666,0.1893041878938675
1.258174180984497,2.5785791873931885,0.10538402944803238
1.2258102893829346,2.5594804286956787,0.10564500093460083
1.198729157447815,2.550668239593506,0.10631430894136429
1.1856924295425415,2.569600820541382,0.1081000566482544
1.1674772500991821,2.5778708457946777,0.10945437103509903
1.1584786176681519,2.6075198650360107,0.11166586726903915
1.1301223039627075,2.5943546295166016,0.11202182620763779
2.0528829097747803,4.806215763092041,0.20920370519161224
2.0374364852905273,4.863506317138672,0.21334965527057648
2.013117551803589,4.9030680656433105,0.21676389873027802
1.9920520782470703,4.953660488128662,0.220540851354599
1.9860860109329224,5.044147491455078,0.22614054381847382
2.012375831604004,5.218106269836426,0.23551684617996216
1.9925525188446045,5.275700569152832,0.23969891667366028
1.9721626043319702,5.337376594543457,0.24406372010707855
1.946811318397522,5.388094425201416,0.24782828986644745
1.902681827545166,5.3871870040893555,0.2492353320121765
1.8701740503311157,5.414982795715332,0.25193360447883606
1.8686243295669556,5.535003662109375,0.25896507501602173
1.8629677295684814,5.651981353759766,0.26585716009140015
1.916724443435669,5.9585981369018555,0.28165677189826965
1.8808850049972534,5.994455814361572,0.2847452759742737
1.8606716394424438,6.0782470703125,0.29010775685310364
1.8272112607955933,6.120879650115967,0.2935391962528229
1.7960375547409058,6.1747212409973145,0.2974500060081482
1.7551778554916382,6.202592849731445,0.3000287711620331
1.7407599687576294,6.324009895324707,0.30714908242225647
1.7096171379089355,6.384938716888428,0.31134873628616333
1.6749964952468872,6.434346675872803,0.31501203775405884
0.8226603269577026,3.2531626224517822,0.15988582372665405
1.570290446281433,6.404301643371582,0.3158089220523834
0.798419713973999,3.359459161758423,0.16621042788028717
1.464629888534546,6.361086368560791,0.3157558739185333
1.393964171409607,6.253005504608154,0.31141433119773865
1.3570095300674438,6.292988300323486,0.31444618105888367
1.3013743162155151,6.252862453460693,0.31331750750541687
1.2446492910385132,6.200678825378418,0.3115309476852417
1.1910724639892578,6.159477233886719,0.3102946877479553
1.1531904935836792,6.194401264190674,0.31289058923721313
1.0935721397399902,6.110042095184326,0.3094674348831177
1.057350754737854,6.159902095794678,0.3127793073654175
1.0005089044570923,6.0863261222839355,0.30966901779174805
0.9471826553344727,6.027674674987793,0.30731838941574097
0.9038246870040894,6.026389122009277,0.3078937828540802
0.8552495241165161,5.986138820648193,0.30648401379585266
0.8118236064910889,5.984258651733398,0.3070589601993561
0.768775999546051,5.982034683227539,0.30744123458862305
0.7233412265777588,5.960153102874756,0.3067770004272461
0.5760337710380554,5.042584419250488,0.25994959473609924
0.5513043999671936,5.143413543701172,0.26556479930877686
0.5197559595108032,5.189793109893799,0.26839300990104675
0.38474154472351074,4.136781215667725,0.21427388489246368
0.3523983657360077,4.100492477416992,0.21258363127708435
0.33005115389823914,4.184516429901123,0.21714374423027039
0.30075711011886597,4.18670654296875,0.2174713909626007
0.269890695810318,4.161428928375244,0.2163798063993454
0.24245108664035797,4.198268413543701,0.21853351593017578
0.3949024975299835,7.780229091644287,0.4053072929382324
0.34015464782714844,7.774990081787109,0.4051949977874756
0.28457432985305786,7.742075443267822,0.4036589562892914
0.22989612817764282,7.720460891723633,0.4027300179004669
0.17430564761161804,7.675076961517334,0.40058180689811707
0.12114834040403366,7.683887481689453,0.40127676725387573
0.013399917632341385,1.521304965019226,0.07945679873228073
0.0028410458471626043,1.5291634798049927,0.07986067235469818
-0.008084642700850964,1.5876595973968506,0.08291281759738922
-0.018851388245821,1.5485563278198242,0.08087193220853806
-0.030359303578734398,1.5873903036117554,0.08290526270866394
-0.03925526142120361,1.5052493810653687,0.07862404733896255
-0.052911993116140366,1.602414608001709,0.08365368098020554
-0.06310249865055084,1.578624963760376,0.08236455172300339
-0.07203548401594162,1.5352896451950073,0.08006152510643005
-0.08478806912899017,1.5698028802871704,0.0818215012550354
-0.09570203721523285,1.5691787004470825,0.08175384253263474
-0.10660186409950256,1.568480134010315,0.08167684078216553
-0.11917182058095932,1.5910544395446777,0.0827580988407135
-0.13207446038722992,1.6135281324386597,0.08383522182703018
-0.4741886556148529,5.331180095672607,0.27670004963874817
-0.44453564286231995,4.6326823234558105,0.24020400643348694
-0.47472912073135376,4.610098361968994,0.2388029843568802
-0.5057414770126343,4.598973751068115,0.23793643712997437
-0.5337678790092468,4.564414978027344,0.23576372861862183
-0.5657212734222412,4.5605950355529785,0.23518623411655426
-0.596228301525116,4.548867225646973,0.23421771824359894
-0.6256669163703918,4.529188632965088,0.23285134136676788
-0.6581804156303406,4.532491207122803,0.2326788306236267
-0.6864181756973267,4.508606910705566,0.23099714517593384
-0.7141497135162354,4.480634689331055,0.22906020283699036
-0.7460835576057434,4.4833760261535645,0.22871516644954681
-0.7744794487953186,4.462758541107178,0.22718402743339539
-0.8012813329696655,4.434276580810547,0.22526688873767853
-0.8262935280799866,4.397968769073486,0.22295688092708588
-0.849578857421875,4.357807159423828,0.2203134149312973
-0.7414560914039612,3.667325496673584,0.18489237129688263
-0.7681789398193359,3.6698317527770996,0.18451978266239166
-0.9398520588874817,4.339370250701904,0.21759483218193054
-0.9716994166374207,4.340392112731934,0.21706523001194
-0.9980167746543884,4.3184494972229,0.21531584858894348
-1.0297363996505737,4.319072246551514,0.21461209654808044
-1.053539752960205,4.289278507232666,0.21242240071296692
-1.0745545625686646,4.247901916503906,0.2096678465604782
-1.0981554985046387,4.217728137969971,0.20748187601566315
-1.1364786624908447,4.24398136138916,0.20806874334812164
-1.1698514223098755,4.25115442276001,0.20756252110004425
-1.1923009157180786,4.220649719238281,0.205241397023201
-1.220052719116211,4.2087082862854,0.20383095741271973
-1.2492711544036865,4.200188636779785,0.20258337259292603
-1.2693228721618652,4.161606311798096,0.1999014914035797
-1.3050634860992432,4.175139427185059,0.19960284233093262
-1.3308398723602295,4.158867359161377,0.1978626698255539
-1.3516720533370972,4.1275787353515625,0.19542145729064941
-1.3828295469284058,4.125545024871826,0.19435161352157593
-1.4013646841049194,4.086361885070801,0.19154633581638336
-1.4344111680984497,4.091493606567383,0.19075816869735718
-1.462424397468567,4.081637382507324,0.1892002820968628
-1.4871960878372192,4.064436912536621,0.18733195960521698
-1.5126053094863892,4.04679012298584,0.18542422354221344
-1.535057544708252,4.021693706512451,0.1831899732351303
-1.5651960372924805,4.018511772155762,0.18189270794391632
-1.5838558673858643,3.986084222793579,0.1791985183954239
-1.6104798316955566,3.975477695465088,0.17752110958099365
-1.6306993961334229,3.946197271347046,0.17497316002845764
-1.664230465888977,3.9491982460021973,0.17386619746685028
-1.6570422649383545,3.859020948410034,0.16860635578632355
-1.6863867044448853,3.8548903465270996,0.1670738160610199
-1.7282748222351074,3.879143476486206,0.16677364706993103
-1.755211353302002,3.8671112060546875,0.16486907005310059
-1.7820428609848022,3.8549017906188965,0.16296304762363434
-1.8042590618133545,3.8360116481781006,0.16067975759506226
-1.8368782997131348,3.8379013538360596,0.15924404561519623
-1.8734318017959595,3.8463456630706787,0.15804976224899292
-1.8862667083740234,3.8053293228149414,0.1548130214214325
-1.9049044847488403,3.7786409854888916,0.15212637186050415
-1.9191162586212158,3.7452292442321777,0.14914536476135254
-1.9514609575271606,3.746181011199951,0.14751194417476654
-1.9706306457519531,3.7185587882995605,0.14467093348503113
-1.9960018396377563,3.705090045928955,0.142399862408638
-1.7092030048370361,3.123457193374634,0.11852079629898071
-1.7147722244262695,3.084791421890259,0.11552310734987259
-1.728537917137146,3.0592503547668457,0.11297085881233215
-0.8476657271385193,1.4762154817581177,0.05371573567390442
-0.845482349395752,1.4504507780075073,0.05198143050074577
-0.8551493287086487,1.444808840751648,0.05096299201250076
-0.8772726655006409,1.458926796913147,0.05059611052274704
-0.8870522379875183,1.4530389308929443,0.04950832203030586
-0.8883880972862244,1.433919072151184,0.04794957488775253
-0.8981361985206604,1.4278712272644043,0.04680832475423813
-0.8870230913162231,1.3887217044830322,0.044585637748241425
-2.3680155277252197,3.499420166015625,0.10193978250026703
-1.318981647491455,1.9224183559417725,0.05445240065455437
-1.6180715560913086,2.3233983516693115,0.06376253813505173
-1.4175630807876587,2.044346570968628,-0.05200550705194473
-1.3479069471359253,1.9737040996551514,-0.052218347787857056
-1.1918708086013794,1.7727502584457397,-0.04865599796175957
-1.264662742614746,1.911905288696289,-0.05433036386966705
-1.3213859796524048,2.0287628173828125,-0.059492044150829315
-1.169450283050537,1.8246749639511108,-0.05510428175330162
-0.7839677929878235,1.3055084943771362,-0.04363272339105606
-0.7828061580657959,1.3243423700332642,-0.04522094130516052
-0.8860184550285339,1.575666069984436,-0.05708855018019676
-1.6324820518493652,2.9519083499908447,-0.10892009735107422
-1.6536006927490234,3.0426478385925293,-0.11419778317213058
-2.021333932876587,3.7845652103424072,-0.14440695941448212
-2.005824327468872,3.819178819656372,-0.14799948036670685
-1.93755042552948,3.7533888816833496,-0.1476486772298813
-1.9166499376296997,3.781510353088379,-0.1509518027305603
-1.8965377807617188,3.8089821338653564,-0.15416763722896576
-1.8700063228607178,3.821972131729126,-0.15675576031208038
-1.8580259084701538,3.8667192459106445,-0.16063128411769867
-1.8216019868850708,3.862337112426758,-0.16244161128997803
-1.8055719137191772,3.8998818397521973,-0.1659877598285675
-1.7665765285491943,3.887601613998413,-0.16741564869880676
-1.5227432250976562,3.4151289463043213,-0.1487116664648056
-1.5417711734771729,3.5261011123657227,-0.15519101917743683
-1.6411981582641602,3.8274614810943604,-0.17021237313747406
-1.6402390003204346,3.8998537063598633,-0.17517969012260437
-1.4040534496307373,3.406231164932251,-0.1545306295156479
-1.3605042695999146,3.3691177368164062,-0.1542593240737915
-1.3334543704986572,3.3714380264282227,-0.15577274560928345
-1.3747992515563965,3.547952651977539,-0.16536793112754822
-1.5327963829040527,4.038978099822998,-0.18989530205726624
-1.480229377746582,3.9877514839172363,-0.18901164829730988
-1.4315788745880127,3.943162679672241,-0.18837647140026093
-1.393437147140503,3.923598051071167,-0.1888805627822876
-1.398107886314392,4.025261878967285,-0.19524119794368744
-1.3207933902740479,3.8908169269561768,-0.19008135795593262
-1.2556672096252441,3.7891054153442383,-0.1863989233970642
-1.2611534595489502,3.8980813026428223,-0.1930573582649231
-1.1658447980880737,3.6908771991729736,-0.18400205671787262
-1.1355468034744263,3.683901786804199,-0.1848624050617218
-1.0970375537872314,3.650686025619507,-0.1842758059501648
-1.0754238367080688,3.673302173614502,-0.18649038672447205
-1.0384176969528198,3.6433074474334717,-0.18604303896427155
-1.000471830368042,3.605273485183716,-0.18514275550842285
-0.9752674698829651,3.6121022701263428,-0.18651971220970154
-0.936726450920105,3.5698132514953613,-0.18523705005645752
-0.9036523699760437,3.546065092086792,-0.1849057525396347
-0.8755854964256287,3.5409796237945557,-0.18554852902889252
-0.8363759517669678,3.4862241744995117,-0.1835588961839676
-0.8004849553108215,3.442532777786255,-0.18208634853363037
-0.7761135101318359,3.448054075241089,-0.18312154710292816
-0.7417475581169128,3.4076623916625977,-0.18171754479408264
-0.714326024055481,3.3975179195404053,-0.18192505836486816
-0.6868071556091309,3.3832342624664307,-0.1818968653678894
-0.6556378602981567,3.349622964859009,-0.18076393008232117
-0.6334589719772339,3.361781597137451,-0.18202073872089386
-0.5979020595550537,3.300872325897217,-0.17932070791721344
-0.5731146931648254,3.297302722930908,-0.17973513901233673
-0.5488406419754028,3.2934770584106445,-0.18013036251068115
-0.523277223110199,3.2817959785461426,-0.18003442883491516
-0.5024924874305725,3.300788640975952,-0.18154768645763397
-0.47807776927948,3.2964940071105957,-0.1817907840013504
-0.4525963068008423,3.284303903579712,-0.1816059798002243
-0.42518895864486694,3.2525291442871094,-0.18033112585544586
-0.39963406324386597,3.232156753540039,-0.17962349951267242
-0.37695541977882385,3.2348530292510986,-0.18011194467544556
-0.3517129719257355,3.2141270637512207,-0.1793026626110077
-0.32695090770721436,3.193190813064575,-0.17848268151283264
-0.3017879128456116,3.1682159900665283,-0.17744557559490204
-0.27971601486206055,3.170217275619507,-0.17787109315395355
-0.2556442320346832,3.1487536430358887,-0.17688333988189697
-0.2341938018798828,3.1582255363464355,-0.17764100432395935
-0.21064633131027222,3.1364123821258545,-0.17664529383182526
-0.18801365792751312,3.1300182342529297,-0.1765279918909073
-0.08208902925252914,1.5461440086364746,-0.08730896562337875
-0.14332811534404755,3.10893177986145,-0.17566530406475067
-0.1213393583893776,3.1020519733428955,-0.1753922998905182
-0.09973198920488358,3.1028125286102295,-0.17555934190750122
-0.0779518112540245,3.111229181289673,-0.1761707216501236
-0.056167975068092346,3.1038877964019775,-0.17589230835437775
-0.03416026756167412,3.0691049098968506,-0.17391908168792725
-0.012790716253221035,3.0770678520202637,-0.17437660694122314
0.008654391393065453,3.092681407928467,-0.1752762496471405
0.03047741949558258,3.0847418308258057,-0.17485003173351288
0.05166858062148094,3.068856716156006,-0.17398130893707275
0.07205948233604431,3.0294411182403564,-0.1716594398021698
0.09333918988704681,3.0366714000701904,-0.17196892201900482
0.1141352429986,3.028162717819214,-0.17139539122581482
0.1348448097705841,3.0195109844207764,-0.1708223819732666
0.15662559866905212,3.026277780532837,-0.17112863063812256
0.1785314977169037,3.0407047271728516,-0.1717773824930191
0.19959938526153564,3.03941011428833,-0.17150089144706726
0.22122299671173096,3.0457491874694824,-0.17166286706924438
0.24299879372119904,3.0519299507141113,-0.1718227118253708
0.26525548100471497,3.0579216480255127,-0.17197607457637787
0.28424423933029175,3.0327329635620117,-0.17030151188373566
0.3051833510398865,3.030722141265869,-0.16986311972141266
0.32697048783302307,3.0363192558288574,-0.16985802352428436
0.3498471677303314,3.04949688911438,-0.17028112709522247
0.37330538034439087,3.0624568462371826,-0.17069166898727417
0.3925185799598694,3.044351577758789,-0.16932979226112366
0.4145468473434448,3.049335241317749,-0.16917981207370758
0.43668949604034424,3.0541558265686035,-0.16902613639831543
0.45902660489082336,3.0587992668151855,-0.16886653006076813
0.4818829298019409,3.0632119178771973,-0.16869193315505981
0.5062710642814636,3.0790770053863525,-0.16911740601062775
0.5287617444992065,3.083249807357788,-0.1688094288110733
0.5540496110916138,3.1026227474212646,-0.16933704912662506
0.5784224271774292,3.1140830516815186,-0.16942887008190155
0.600079357624054,3.110022783279419,-0.16868048906326294
0.6204798817634583,3.098104238510132,-0.1674702912569046
0.6433221697807312,3.101457118988037,-0.16700296103954315
0.6662396192550659,3.104642391204834,-0.1665312945842743
0.6894457340240479,3.107611656188965,-0.1660463511943817
0.7223909497261047,3.1522161960601807,-0.16777995228767395
0.7445976138114929,3.1470956802368164,-0.16681598126888275
0.7679571509361267,3.1495635509490967,-0.16617801785469055
0.7895117998123169,3.14428448677063,-0.16513632237911224
0.8191341161727905,3.168999433517456,-0.16565994918346405
0.8441784977912903,3.1745879650115967,-0.1651797592639923
0.8747565746307373,3.1987268924713135,-0.16559594869613647
0.902902364730835,3.215280055999756,-0.16554413735866547
0.9335023760795593,3.2390878200531006,-0.16585761308670044
0.9538121819496155,3.225093126296997,-0.16422034800052643
0.9932254552841187,3.274444818496704,-0.16580285131931305
1.0114811658859253,3.252579927444458,-0.16369223594665527
1.0359870195388794,3.2531180381774902,-0.16268274188041687
1.0787397623062134,3.3091013431549072,-0.16442865133285522
1.033813238143921,3.0980114936828613,-0.1529371589422226
1.1713519096374512,3.430537700653076,-0.16824579238891602
1.194702386856079,3.4225540161132812,-0.16665039956569672
1.2261698246002197,3.4363558292388916,-0.16607286036014557
1.2591111660003662,3.45359206199646,-0.16565755009651184
1.2735801935195923,3.4192278385162354,-0.16275928914546967
1.3124526739120483,3.450542449951172,-0.16296686232089996
1.3653843402862549,3.5180823802948,-0.164765864610672
1.4067689180374146,3.5522453784942627,-0.16493774950504303
1.4255688190460205,3.527998447418213,-0.16237773001194
1.4664629697799683,3.55776309967041,-0.16229800879955292
1.5117751359939575,3.5981783866882324,-0.16259221732616425
1.5713390111923218,3.670515298843384,-0.16424719989299774
1.1441773176193237,2.622164726257324,-0.11614477634429932
1.152869701385498,2.5928139686584473,-0.11366664618253708
1.1673710346221924,2.577817440032959,-0.11181080341339111
1.1829735040664673,2.5664656162261963,-0.1100807934999466
1.2052545547485352,2.5690865516662598,-0.10894099622964859
1.2335411310195923,2.5816779136657715,-0.10815049707889557
1.2359728813171387,2.541574478149414,-0.10517547279596329
1.9693794250488281,3.981945037841797,-0.16267159581184387
1.1979970932006836,2.381939649581909,-0.09603545814752579
1.2394179105758667,2.422276258468628,-0.09631834179162979
1.2380801439285278,2.379103660583496,-0.09326953440904617
1.2687078714370728,2.3983702659606934,-0.09260906279087067
1.269931674003601,2.3623886108398438,-0.08983168005943298
1.282576560974121,2.346719741821289,-0.08779667317867279
1.2872447967529297,2.3174681663513184,-0.08525872230529785
1.3140207529067993,2.3293912410736084,-0.08420591801404953
1.3124980926513672,2.2899014949798584,-0.08124636858701706
1.3244757652282715,2.2740280628204346,-0.07913138717412949
1.3436611890792847,2.2718873023986816,-0.07748118788003922
1.3464670181274414,2.2430076599121094,-0.07492248713970184
1.3618886470794678,2.2337429523468018,-0.07295597344636917
1.361061692237854,2.1976513862609863,-0.07008365541696548
1.3670291900634766,2.175581455230713,-0.06769886612892151
1.3774150609970093,2.159825563430786,-0.06547503918409348
1.3859981298446655,2.140446901321411,-0.06310109049081802
1.4105541706085205,2.147804021835327,-0.0614936389029026
1.4054609537124634,2.109093189239502,-0.05849910527467728
1.4354058504104614,2.121975898742676,-0.056877512484788895
1.4336107969284058,2.0901808738708496,-0.05404771864414215
1.456318974494934,2.0935399532318115,-0.05206671729683876
1.4527231454849243,2.0579674243927,-0.049025874584913254
1.4613587856292725,2.0423035621643066,-0.04644639790058136
1.470582365989685,2.0260848999023438,-0.04374612495303154
1.4746004343032837,2.0038528442382812,-0.040874216705560684
2.2928898334503174,3.233001232147217,0.10170558840036392
2.2692277431488037,3.2495203018188477,0.10586383193731308
2.253156900405884,3.2795162200927734,0.11040898412466049
3.1488845348358154,4.6535139083862305,0.1613265424966812
3.1356048583984375,4.709266662597656,0.16780142486095428
3.106860637664795,4.742101192474365,0.17336536943912506
3.0864336490631104,4.783144950866699,0.17898322641849518
1.6425590515136719,2.5874783992767334,0.09900545328855515
1.6270332336425781,2.6063766479492188,0.10190314054489136
1.588365077972412,2.5843098163604736,0.10301242768764496
2.922981023788452,4.833906173706055,0.19627882540225983
2.804762840270996,4.717986583709717,0.19500616192817688
2.7792646884918213,4.750983715057373,0.19959962368011475
2.764934778213501,4.804257869720459,0.20509524643421173
2.4811253547668457,4.386277198791504,0.19005483388900757
2.439295768737793,4.387204647064209,0.19285047054290771
2.4291956424713135,4.441657543182373,0.19788067042827606
2.4198148250579834,4.499876976013184,0.2031044065952301
2.3876590728759766,4.5212812423706055,0.20665432512760162
2.476895809173584,4.773980617523193,0.2208324521780014
2.4222381114959717,4.749276161193848,0.22218777239322662
2.355351448059082,4.6998491287231445,0.2223060131072998
2.324164628982544,4.723901748657227,0.22577430307865143
1.233599305152893,2.554940700531006,0.12338075041770935
1.2074284553527832,2.5457561016082764,0.12412121146917343
1.1929725408554077,2.561096668243408,0.12605798244476318
1.1742380857467651,2.569664478302002,0.12759430706501007
1.1554416418075562,2.578094244003296,0.12913057208061218
1.1451419591903687,2.6039392948150635,0.1315115988254547
2.075551748275757,4.811811923980713,0.24504567682743073
2.050348997116089,4.847899913787842,0.24878917634487152
2.024012327194214,4.884172439575195,0.2524915039539337
1.9961167573928833,4.916567325592041,0.25600460171699524
1.9762274026870728,4.9664812088012695,0.26040294766426086
2.0273642539978027,5.201989650726318,0.27467262744903564
2.006479263305664,5.2600884437561035,0.27948543429374695
1.983349323272705,5.314550399780273,0.2841191291809082
1.9561725854873657,5.357719898223877,0.28815707564353943
1.9319484233856201,5.407816410064697,0.2925649881362915
1.8884954452514648,5.4064836502075195,0.2942396104335785
1.8835469484329224,5.519497871398926,0.30194079875946045
1.852400302886963,5.558693885803223,0.3056544363498688
1.8938615322113037,5.820079326629639,0.321652352809906
1.8969823122024536,5.970553398132324,0.33161690831184387
1.8696131706237793,6.0321550369262695,0.3367430567741394
1.8399038314819336,6.09007453918457,0.3414466381072998
1.8105008602142334,6.151632308959961,0.34638282656669617
1.7796926498413086,6.209197521209717,0.35111895203590393
1.7542680501937866,6.28517484664917,0.35691037774086
