X,Y,Z
-0.9067381620407104,1.4185739755630493,0.1145859807729721
-0.907684326171875,1.399624228477478,0.1110280454158783
-0.9131971597671509,1.3869153261184692,0.1078903079032898
-0.9181554913520813,1.3744776248931885,0.10471948236227036
-2.406973123550415,3.554280996322632,0.26511430740356445
-1.3403491973876953,1.922576665878296,0.13657516241073608
-1.3682172298431396,1.9366567134857178,0.1340421885251999
-1.379548192024231,1.9600129127502441,-0.08773940056562424
-1.3145318031311035,1.8956968784332275,-0.08913420140743256
-1.1662005186080933,1.7085353136062622,-0.08412738889455795
-1.3036916255950928,1.9404430389404297,-0.0996871218085289
-1.3718822002410889,2.0729780197143555,-0.11065268516540527
-1.0983840227127075,1.6874711513519287,-0.09347638487815857
-1.1871731281280518,1.8528671264648438,-0.10612840950489044
-1.1025981903076172,1.7766188383102417,-0.10813003778457642
-1.8082886934280396,3.0087106227874756,-0.19331730902194977
-0.8073883056640625,1.4113773107528687,-0.09733415395021439
-1.6517291069030762,2.935922861099243,-0.20681840181350708
-1.5882412195205688,2.872755289077759,-0.20663797855377197
-1.5195266008377075,2.7944958209991455,-0.20490683615207672
-1.4703350067138672,2.7498254776000977,-0.20542605221271515
-1.4229024648666382,2.708461284637451,-0.20599286258220673
-1.3889678716659546,2.6906492710113525,-0.2081998884677887
-1.3257285356521606,2.613250970840454,-0.20559626817703247
-1.28797447681427,2.583946943283081,-0.2065219134092331
-1.2417582273483276,2.536938190460205,-0.20587049424648285
-1.2219678163528442,2.541903495788574,-0.20931346714496613
-1.1808435916900635,2.5007882118225098,-0.20886069536209106
-1.144894003868103,2.4700100421905518,-0.20911362767219543
-1.1040661334991455,2.4284610748291016,-0.20837309956550598
-1.0598818063735962,2.375473976135254,-0.20642465353012085
-1.0401262044906616,2.3754141330718994,-0.20898081362247467
-1.00014328956604,2.3288252353668213,-0.20730672776699066
-0.9863673448562622,2.3428752422332764,-0.21095171570777893
-0.9457159638404846,2.2920737266540527,-0.20871701836585999
-0.9077489376068115,2.244258165359497,-0.20658835768699646
-0.8946495056152344,2.2576351165771484,-0.20998184382915497
-0.8516669869422913,2.194823980331421,-0.20617789030075073
-0.8360656499862671,2.200572967529297,-0.20873762667179108
-0.8014395236968994,2.155155658721924,-0.2064075618982315
-0.7836230993270874,2.1531875133514404,-0.20811814069747925
-0.7564867734909058,2.125520706176758,-0.20723438262939453
-0.7387972474098206,2.1232757568359375,-0.2087981253862381
-0.7114338278770447,2.0913405418395996,-0.20738328993320465
-0.6941099166870117,2.0887374877929688,-0.20888127386569977
-0.6684293746948242,2.0601308345794678,-0.2075745016336441
-0.6537507772445679,2.0646326541900635,-0.20958727598190308
-0.6300546526908875,2.039254665374756,-0.20853452384471893
-0.6045668125152588,2.0061886310577393,-0.20664918422698975
-0.5882036685943604,2.0027570724487305,-0.2077081948518753
-0.5705021023750305,1.995560646057129,-0.20832718908786774
-0.5542936325073242,1.9918744564056396,-0.20928044617176056
-0.5322763919830322,1.9655003547668457,-0.20781570672988892
-0.5145883560180664,1.9539588689804077,-0.20789387822151184
-0.49499115347862244,1.9347999095916748,-0.20698846876621246
-0.47637873888015747,1.9192944765090942,-0.2064807116985321
-0.46476590633392334,1.9299745559692383,-0.20876120030879974
-0.44774362444877625,1.917883038520813,-0.20858292281627655
-0.42913931608200073,1.8980951309204102,-0.2074757218360901
-0.4124067425727844,1.8857614994049072,-0.20708172023296356
-0.39567071199417114,1.8733282089233398,-0.2066861391067505
-0.3810664117336273,1.8682910203933716,-0.20707739889621735
-0.36805054545402527,1.8707622289657593,-0.20830704271793365
-0.35131245851516724,1.854100227355957,-0.2072603404521942
-0.33826732635498047,1.8564077615737915,-0.20830410718917847
-0.32234784960746765,1.8433557748794556,-0.20763936638832092
-0.3056494891643524,1.8224680423736572,-0.20606723427772522
-0.2880007028579712,1.7937813997268677,-0.20357973873615265
-0.2777438163757324,1.8110153675079346,-0.20614536106586456
-0.26390495896339417,1.8051445484161377,-0.2060929536819458
-0.2484099268913269,1.7876555919647217,-0.20472244918346405
-0.23848630487918854,1.8084899187088013,-0.2077389508485794
-0.22346310317516327,1.7907682657241821,-0.2062651365995407
-0.21182498335838318,1.7999258041381836,-0.20777736604213715
-0.19665680825710297,1.7781498432159424,-0.20572488009929657
-0.18349125981330872,1.7716830968856812,-0.20544226467609406
-0.17243829369544983,1.7883150577545166,-0.20785893499851227
-0.15791036188602448,1.7662246227264404,-0.2056635022163391
-0.1449354737997055,1.7595007419586182,-0.2051880955696106
-0.1338113397359848,1.775896430015564,-0.20742030441761017
-0.11986444890499115,1.7535094022750854,-0.20513015985488892
-0.10791482031345367,1.7620092630386353,-0.20646655559539795
-0.09562642127275467,1.762687087059021,-0.20673798024654388
-0.08221336454153061,1.7400325536727905,-0.20424151420593262
-0.0707113966345787,1.756042242050171,-0.20629224181175232
-0.058230526745319366,1.748709797859192,-0.20561139285564423
-0.045838363468647,1.7490509748458862,-0.20584549009799957
-0.03394916281104088,1.7648377418518066,-0.2077154517173767
-0.021666405722498894,1.7650266885757446,-0.20775550603866577
-0.009300175122916698,1.7496122121810913,-0.20596879720687866
0.002886583562940359,1.7651478052139282,-0.20783556997776031
0.015160451643168926,1.7418060302734375,-0.20510704815387726
0.0277458094060421,1.772708773612976,-0.20860601961612701
0.039534009993076324,1.749220371246338,-0.20571373403072357
0.05168483406305313,1.748921513557434,-0.20556028187274933
0.06441443413496017,1.7640459537506104,-0.2072284072637558
0.07632557302713394,1.7558287382125854,-0.2061089128255844
0.08910229802131653,1.7630367279052734,-0.20667119324207306
0.10179077833890915,1.7701622247695923,-0.20723584294319153
0.11257074028253555,1.7462223768234253,-0.20417611300945282
0.1258028894662857,1.7609187364578247,-0.2056446671485901
0.13679911196231842,1.7445805072784424,-0.20341485738754272
0.15106166899204254,1.7668325901031494,-0.2055855095386505
0.1640048325061798,1.773533582687378,-0.20595629513263702
0.17635424435138702,1.7724100351333618,-0.20542415976524353
0.18869592249393463,1.771200180053711,-0.20489197969436646
0.2009904533624649,1.7699223756790161,-0.20424215495586395
0.21347612142562866,1.7685437202453613,-0.20351342856884003
0.22771301865577698,1.782501459121704,-0.20456403493881226
0.2411615550518036,1.7886483669281006,-0.20471897721290588
0.2525101602077484,1.7793242931365967,-0.20311373472213745
0.2591085135936737,1.7392382621765137,-0.1978735476732254
0.2713390290737152,1.737473726272583,-0.19698020815849304
0.28338468074798584,1.7356494665145874,-0.19609946012496948
0.3104775846004486,1.8217580318450928,-0.20512598752975464
0.32042860984802246,1.8043688535690308,-0.20246651768684387
0.3385326862335205,1.832780122756958,-0.20478658378124237
0.34533795714378357,1.8000121116638184,-0.2002803534269333
0.3580515384674072,1.7976504564285278,-0.19916245341300964
0.3705716133117676,1.7952332496643066,-0.1980600655078888
0.38951894640922546,1.823130488395691,-0.20023730397224426
0.40375667810440063,1.8281276226043701,-0.1997823715209961
0.42153677344322205,1.8481638431549072,-0.20096389949321747
0.43642953038215637,1.8528326749801636,-0.20043794810771942
0.44749951362609863,1.8423383235931396,-0.19830037653446198
0.462119460105896,1.8468897342681885,-0.19768483936786652
0.47095629572868347,1.828768253326416,-0.194607213139534
0.5024948120117188,1.8969964981079102,-0.20068877935409546
0.5292313694953918,1.942291498184204,-0.20424717664718628
0.5448569655418396,1.9462064504623413,-0.20344044268131256
0.5668041706085205,1.9724832773208618,-0.20481368899345398
0.5847408175468445,1.9836387634277344,-0.20459522306919098
0.6007804870605469,1.9871485233306885,-0.20356498658657074
0.622953474521637,2.009009599685669,-0.2043708860874176
0.646255373954773,2.0344903469085693,-0.20546789467334747
0.6674038767814636,2.052400588989258,-0.20569972693920135
0.6888917684555054,2.0700974464416504,-0.2058785855770111
0.7095952033996582,2.0838520526885986,-0.20562225580215454
0.7292402386665344,2.093747138977051,-0.20496757328510284
0.7542154788970947,2.118166923522949,-0.20553739368915558
0.7766597270965576,2.1351161003112793,-0.2053782194852829
0.8063920140266418,2.170006513595581,-0.20687143504619598
0.8270640969276428,2.1790952682495117,-0.20585769414901733
0.8504615426063538,2.195361852645874,-0.20542670786380768
0.8699625134468079,2.200507879257202,-0.2038516253232956
0.9113128185272217,2.259671926498413,-0.20723308622837067
0.9345226883888245,2.2714786529541016,-0.2061700075864792
0.959296703338623,2.2867276668548584,-0.20535419881343842
0.9840108156204224,2.301882743835449,-0.20442578196525574
1.0202282667160034,2.3416407108306885,-0.20556974411010742
1.0555161237716675,2.377429962158203,-0.20627667009830475
1.0896581411361694,2.4093375205993652,-0.20655499398708344
1.1254469156265259,2.444650888442993,-0.2069600522518158
1.1667696237564087,2.4901528358459473,-0.2081262171268463
1.2012547254562378,2.517226457595825,-0.20752619206905365
1.2255594730377197,2.5231058597564697,-0.20517615973949432
1.2546305656433105,2.539523124694824,-0.20356111228466034
1.3190150260925293,2.625274419784546,-0.2073657065629959
1.3745734691619873,2.6891658306121826,-0.20915383100509644
1.418373465538025,2.7282795906066895,-0.20885978639125824
1.4332947731018066,2.7119743824005127,-0.2041623890399933
1.3870832920074463,2.58232045173645,-0.19112242758274078
1.3771058320999146,2.521523952484131,-0.1832990050315857
1.3716769218444824,2.4713966846466064,-0.176357239484787
1.3996225595474243,2.4828505516052246,-0.17381523549556732
1.4169166088104248,2.4733126163482666,-0.16962863504886627
1.4341728687286377,2.4636316299438477,-0.16543427109718323
1.4387074708938599,2.4341225624084473,-0.15990273654460907
1.4588619470596313,2.431471347808838,-0.1561446338891983
1.4799060821533203,2.42814302444458,-0.15213735401630402
1.5090407133102417,2.437995195388794,-0.14884521067142487
1.4939312934875488,2.378722906112671,-0.1414341926574707
1.4284874200820923,2.240334987640381,-0.12943969666957855
1.3761076927185059,2.125828266143799,-0.11916160583496094
1.3985469341278076,2.1300628185272217,-0.11568935215473175
1.4197622537612915,2.1303040981292725,-0.11174297332763672
1.4387826919555664,2.127167224884033,-0.10756254196166992
1.44142746925354,2.1019771099090576,-0.10229332745075226
1.4512760639190674,2.0859107971191406,-0.09728115051984787
1.4608901739120483,2.069859504699707,-0.09218944609165192
1.4516018629074097,2.028778314590454,-0.08598887920379639
1.4656997919082642,2.0188286304473877,-0.08086588233709335
1.4740126132965088,2.0032782554626465,-0.07554379105567932
2.289806842803955,3.2303318977355957,0.2042718380689621
2.334517478942871,3.3462250232696533,0.2183839976787567
2.3466875553131104,3.4179344177246094,0.22965331375598907
2.35933518409729,3.489044189453125,0.24074102938175201
2.3670523166656494,3.5584869384765625,0.2516656816005707
2.331974744796753,3.5624427795410156,0.2577834725379944
1.605558156967163,2.490339994430542,0.18402576446533203
1.6348117589950562,2.577718496322632,0.19430361688137054
1.6067813634872437,2.576569080352783,0.19799666106700897
1.5967867374420166,2.6007540225982666,0.20333778858184814
3.0004758834838867,4.967074871063232,0.3948361873626709
2.9805965423583984,5.019214630126953,0.405354768037796
2.9483351707458496,5.046634674072266,0.41361454129219055
2.8871121406555176,5.022943496704102,0.41759535670280457
2.834578037261963,5.016400337219238,0.4226089119911194
2.827147960662842,5.09138822555542,0.43448179960250854
2.764853000640869,5.0628485679626465,0.43725064396858215
2.6592352390289307,4.9511518478393555,0.43262556195259094
2.6001088619232178,4.929108619689941,0.43551743030548096
2.559643268585205,4.940911293029785,0.44124504923820496
2.524489402770996,4.9584245681762695,0.4472701847553253
2.480957269668579,4.958052158355713,0.4516313076019287
2.470642328262329,5.02781867980957,0.46223577857017517
1.2239432334899902,2.538658618927002,0.235513836145401
1.207259178161621,2.5506792068481445,0.23866702616214752
1.1845006942749023,2.5482006072998047,0.2404041439294815
1.1697663068771362,2.563300371170044,0.243779256939888
1.1652169227600098,2.6035420894622803,0.24943625926971436
1.1492151021957397,2.6188933849334717,0.2527473568916321
2.5468552112579346,5.918389797210693,0.5752514600753784
2.525057315826416,5.982107162475586,0.5854637026786804
2.4912750720977783,6.020979881286621,0.59311842918396
2.4691178798675537,6.092574119567871,0.6038396954536438
2.433133125305176,6.1316118240356445,0.611411988735199
2.4106431007385254,6.2025933265686035,0.6221432089805603
2.3782460689544678,6.247860908508301,0.6303203105926514
2.3499197959899902,6.307880401611328,0.6398170590400696
1.9659488201141357,5.3962860107421875,0.5501204133033752
2.2880337238311768,6.424601078033447,0.6582638621330261
2.253758668899536,6.473268032073975,0.6665380001068115
2.2285730838775635,6.54722785949707,0.6774319410324097
2.1957449913024902,6.602903842926025,0.6863266825675964
2.16843318939209,6.680973529815674,0.6973043084144592
2.10725474357605,6.655221939086914,0.697491466999054
2.0434353351593018,6.61770486831665,0.6964226961135864
1.987117052078247,6.597864151000977,0.6971359848976135
1.9278533458709717,6.566389560699463,0.6966065764427185
1.8689287900924683,6.53856086730957,0.69596266746521
1.8093981742858887,6.506504058837891,0.6948770880699158
1.7518198490142822,6.477585315704346,0.6941125392913818
1.6940101385116577,6.444360256195068,0.6928775310516357
0.831737220287323,3.2560477256774902,0.35124844312667847
1.5875533819198608,6.40265417098999,0.6927493214607239
0.8081199526786804,3.361612558364868,0.3646791875362396
1.479201078414917,6.352141857147217,0.6909489631652832
1.4217803478240967,6.309183597564697,0.6881424188613892
1.3619810342788696,6.246535778045654,0.6831409931182861
1.3111356496810913,6.221374988555908,0.6822412610054016
1.2622781991958618,6.20742654800415,0.6821594834327698
1.2061421871185303,6.155012607574463,0.677785336971283
1.1658265590667725,6.1862287521362305,0.6826731562614441
1.113680362701416,6.144278049468994,0.6794593334197998
1.0682320594787598,6.136326789855957,0.6800212264060974
1.0171622037887573,6.0935797691345215,0.6767207980155945
0.9703825116157532,6.077417850494385,0.6759136319160461
0.9184492826461792,6.0303053855896,0.6717033386230469
0.87313312292099,6.01722526550293,0.6712843179702759
0.8290772438049316,6.00758695602417,0.6712638139724731
0.7831819653511047,5.982229709625244,0.6695112586021423
0.7414921522140503,5.987359523773193,0.6711283922195435
0.5836288332939148,5.0012969970703125,0.5611404776573181
0.5583454370498657,5.101712226867676,0.5729957222938538
0.5307287573814392,5.18649959564209,0.5831347107887268
0.39230483770370483,4.11562967300415,0.4632375240325928
0.3602655827999115,4.079497814178467,0.45969271659851074
0.34035539627075195,4.186285018920898,0.4722341001033783
0.31047898530960083,4.188551902770996,0.4727223515510559
0.2793019711971283,4.163459777832031,0.4701404273509979
0.25318998098373413,4.215628623962402,0.47630733251571655
0.4121386408805847,7.763895511627197,0.8777592182159424
0.358137845993042,7.766474723815918,0.8786401152610779
0.3012985587120056,7.722180366516113,0.8742015957832336
0.24654346704483032,7.6969122886657715,0.8713541626930237
0.19244728982448578,7.68289852142334,0.8698230385780334
0.13785743713378906,7.629696846008301,0.8638968467712402
0.08465491235256195,7.618802070617676,0.8628016114234924
0.0305927861481905,7.5958967208862305,0.8603909015655518
-0.022196833044290543,7.580376148223877,0.8588457107543945
-0.07434160262346268,7.529626846313477,0.8527392745018005
-0.1261887103319168,7.4979248046875,0.8488340973854065
-0.17833688855171204,7.496910095214844,0.8484454154968262
-0.22920478880405426,7.456737995147705,0.8436678051948547
-0.2818574905395508,7.454977989196777,0.8432753086090088
-0.33397194743156433,7.460639476776123,0.8437663316726685
-0.28029656410217285,5.42313289642334,0.6128482818603516
-0.3168724477291107,5.405646324157715,0.6103761196136475
-0.35423576831817627,5.403408050537109,0.6096561551094055
-0.39131560921669006,5.385364532470703,0.6071736812591553
-0.4269731938838959,5.359372138977051,0.6038343906402588
-0.4605553448200226,5.313811779022217,0.5983251333236694
-0.4332421123981476,4.626500606536865,0.5203121900558472
-0.46358633041381836,4.608065128326416,0.5175729393959045
-0.49473899602890015,4.593225479125977,0.5152536630630493
-0.5247827172279358,4.574371814727783,0.5125224590301514
-0.5556232929229736,4.563018321990967,0.5106576085090637
-0.5853391885757446,4.543756008148193,0.5079352259635925
-0.6134119033813477,4.516685485839844,0.5040872097015381
-0.6438056230545044,4.504762172698975,0.5018604397773743
-0.6706721782684326,4.473508358001709,0.49752527475357056
-0.7028369307518005,4.476579189300537,0.4970272481441498
-0.7326997518539429,4.464069366455078,0.4948194921016693
-0.7623764276504517,4.451367378234863,0.4926183819770813
-0.7915617227554321,4.438560962677002,0.4901503324508667
-0.8167443871498108,4.402591705322266,0.48506176471710205
-0.8401963710784912,4.362771034240723,0.479607492685318
-0.7341985106468201,3.67529559135437,0.40313807129859924
-0.7565949559211731,3.655043363571167,0.4000406563282013
-0.780335545539856,3.6422603130340576,0.3977867066860199
-0.963505744934082,4.349921226501465,0.47375041246414185
-0.9887335896492004,4.324554920196533,0.4696747064590454
-1.0145952701568604,4.3028154373168945,0.4660229980945587
-1.035298466682434,4.258132457733154,0.4598980247974396
-1.0630664825439453,4.243494510650635,0.4570503830909729
-1.0881505012512207,4.2172980308532715,0.45293155312538147
-1.1277536153793335,4.251364231109619,0.4550282657146454
-1.1545453071594238,4.236363410949707,0.45188388228416443
-1.1813496351242065,4.2211480140686035,0.4487342834472656
-1.2106788158416748,4.213083744049072,0.44634079933166504
-1.2382447719573975,4.197218894958496,0.4431198835372925
-1.2636367082595825,4.177730083465576,0.43942397832870483
-1.2929596900939941,4.173098564147949,0.4371427893638611
-1.3175758123397827,4.153438568115234,0.4333105683326721
-1.3437330722808838,4.137159824371338,0.42982444167137146
-1.3705854415893555,4.120438575744629,0.42626598477363586
-1.394296646118164,4.096335411071777,0.4220035970211029
-1.4193298816680908,4.079802989959717,0.41827675700187683
-1.4467724561691284,4.0704569816589355,0.4152989387512207
-1.4717215299606323,4.0535359382629395,0.4115544259548187
-1.5053224563598633,4.0580854415893555,0.4099540114402771
-1.5285134315490723,4.0330915451049805,0.4053543210029602
-1.5614893436431885,4.037448406219482,0.4035785496234894
-1.5742281675338745,3.9910457134246826,0.39665913581848145
-1.6009292602539062,3.9807374477386475,0.3933655023574829
-1.625725507736206,3.9626052379608154,0.3892262876033783
-1.6433207988739014,3.926175594329834,0.3832871913909912
-1.6838183403015137,3.9474196434020996,0.382900595664978
-1.7070419788360596,3.9293017387390137,0.3785720467567444
-1.7300974130630493,3.9110453128814697,0.3742564618587494
-1.7429695129394531,3.8673014640808105,0.3674299120903015
-1.7802252769470215,3.8763694763183594,0.3655923306941986
-1.796581506729126,3.843419075012207,0.3597095012664795
-1.8221170902252197,3.8317487239837646,0.3557490408420563
-1.8410083055496216,3.8057873249053955,0.3504641056060791
-1.8710076808929443,3.8001906871795654,0.34695613384246826
-1.8909751176834106,3.773266315460205,0.34147578477859497
-1.9301012754440308,3.788782835006714,0.33968880772590637
-1.9443469047546387,3.755586624145508,0.33352774381637573
-1.9627093076705933,3.728820323944092,0.3278730511665344
-1.9812991619110107,3.7017102241516113,0.32216283679008484
-2.017496347427368,3.7091293334960938,0.31937235593795776
-1.7143874168395996,3.102726936340332,0.26412978768348694
-1.7274634838104248,3.077946186065674,0.25899940729141235
-0.8378227353096008,1.4687530994415283,0.12207350879907608
-0.8518129587173462,1.469864010810852,0.12062002718448639
-0.8693104982376099,1.4778639078140259,0.11966121941804886
-0.8633116483688354,1.4453495740890503,0.1153855174779892
-0.8815106153488159,1.4527623653411865,0.11425948143005371
-0.8831983804702759,1.4336280822753906,0.11102776229381561
-0.8883340358734131,1.4214354753494263,0.10832209140062332
-0.9062302708625793,1.428767204284668,0.10703162103891373
-0.8868202567100525,1.3765733242034912,0.10122502595186234
-0.8937007784843445,1.3676303625106812,0.09866134077310562
-0.9024554491043091,1.362036108970642,0.0963335856795311
-0.9576488733291626,1.4238355159759521,0.09850072115659714
-2.4092767238616943,3.530935049057007,0.2387123554944992
-1.3069850206375122,1.8894035816192627,0.12465120851993561
-1.4745739698410034,2.1009361743927,0.13492628931999207
-1.4895490407943726,2.130948781967163,-0.0918031856417656
-1.218835473060608,1.7721736431121826,-0.08015409111976624
-1.311231017112732,1.9357653856277466,-0.09140182286500931
-1.275181770324707,1.912764310836792,-0.0940123051404953
-1.33592689037323,2.0361523628234863,-0.10387466847896576
-1.2157422304153442,1.8813612461090088,-0.09927132725715637
-1.1493728160858154,1.807830810546875,-0.09851067513227463
-1.2269402742385864,1.9616844654083252,-0.11022103577852249
-1.9926643371582031,3.3444981575012207,-0.20355716347694397
-0.8751435875892639,1.5436829328536987,-0.10058674961328506
-1.7058230638504028,3.0583603382110596,-0.20334194600582123
-1.6448246240615845,2.9982008934020996,-0.2032746970653534
-1.5987528562545776,2.965240240097046,-0.20484790205955505
-1.536861777305603,2.900747299194336,-0.20409320294857025
-1.5003324747085571,2.8800032138824463,-0.2061295360326767
-1.4458768367767334,2.824467658996582,-0.2055153101682663
-1.3919737339019775,2.768474578857422,-0.20468086004257202
-1.3550677299499512,2.743035078048706,-0.2059062421321869
-1.3253040313720703,2.7312843799591064,-0.20812109112739563
-1.2670024633407593,2.659588575363159,-0.2055271416902542
-1.2262076139450073,2.622555732727051,-0.20546528697013855
-1.1850073337554932,2.5812642574310303,-0.20488852262496948
-1.1637266874313354,2.582122325897217,-0.20759867131710052
-1.12464439868927,2.5438528060913086,-0.20701879262924194
-1.087328314781189,2.508903980255127,-0.20666466653347015
-1.052935004234314,2.476797103881836,-0.2063627541065216
-1.0326224565505981,2.4766533374786377,-0.20867803692817688
-0.9957243204116821,2.436877727508545,-0.20750783383846283
-0.9665959477424622,2.4148216247558594,-0.20776644349098206
-0.9279420375823975,2.367082118988037,-0.2057459056377411
-0.9057901501655579,2.358747959136963,-0.20704840123653412
-0.8698177933692932,2.3138949871063232,-0.2050178050994873
-0.8478332161903381,2.3052453994750977,-0.20610113441944122
-0.8248923420906067,2.2926712036132812,-0.20679613947868347
-0.8033936619758606,2.2835848331451416,-0.2077978104352951
-0.7721213698387146,2.2448151111602783,-0.20598186552524567
-0.7449085712432861,2.2168827056884766,-0.20501776039600372
-0.7315301299095154,2.22933292388916,-0.20777490735054016
-0.7088284492492676,2.2119638919830322,-0.20772098004817963
-0.6780034303665161,2.1684799194335938,-0.20520250499248505
-0.6625890135765076,2.173065662384033,-0.20703504979610443
-0.6382546424865723,2.147719144821167,-0.20599408447742462
-0.6166809797286987,2.1295571327209473,-0.20560073852539062
-0.5976058840751648,2.1186606884002686,-0.2058860808610916
-0.5734696984291077,2.088883876800537,-0.20425547659397125
-0.5584094524383545,2.0928053855895996,-0.20583628118038177
-0.5396898984909058,2.081493377685547,-0.20589923858642578
-0.5213760733604431,2.0699708461761475,-0.20591704547405243
-0.5032488703727722,2.058295965194702,-0.2059127688407898
-0.4815501272678375,2.031393527984619,-0.20423558354377747
-0.46607476472854614,2.030876874923706,-0.20518715679645538
-0.45265039801597595,2.037761688232422,-0.20687377452850342
-0.43108808994293213,2.00653338432312,-0.20467954874038696
-0.41864994168281555,2.016977310180664,-0.20670804381370544
-0.3952520191669464,1.9740365743637085,-0.2031124383211136
-0.382556676864624,1.9843388795852661,-0.2050032913684845
-0.365876168012619,1.9715631008148193,-0.2044939547777176
-0.3535197377204895,1.9816004037857056,-0.20635570585727692
-0.33703336119651794,1.9686001539230347,-0.20575013756752014
-0.32131606340408325,1.959322452545166,-0.2054315060377121
-0.3073214590549469,1.9614720344543457,-0.20632845163345337
-0.2925245761871338,1.955784797668457,-0.20639123022556305
-0.2767256498336792,1.9422951936721802,-0.2056327760219574
-0.26314935088157654,1.9441020488739014,-0.20637854933738708
-0.24755088984966278,1.9304122924804688,-0.20542213320732117
-0.23310764133930206,1.924311876296997,-0.20527681708335876
-0.21768832206726074,1.9104067087173462,-0.20431028306484222
-0.2043854296207428,1.911804437637329,-0.20497632026672363
-0.19099754095077515,1.9131332635879517,-0.20548877120018005
-0.17615507543087006,1.8989027738571167,-0.20430876314640045
-0.16289637982845306,1.9000345468521118,-0.2047874927520752
-0.14943720400333405,1.901087999343872,-0.20527319610118866
-0.1359511762857437,1.8981550931930542,-0.20532895624637604
-0.12294827401638031,1.9029020071029663,-0.20603878796100616
-0.10854563862085342,1.8842965364456177,-0.20422843098640442
-0.09463685005903244,1.8694612979888916,-0.20283229649066925
-0.08276179432868958,1.9010908603668213,-0.2064928561449051
-0.06870032846927643,1.8783067464828491,-0.20422230660915375
-0.05492693930864334,1.855439305305481,-0.2017844021320343
-0.04219430312514305,1.8635311126708984,-0.2027227133512497
-0.029473522678017616,1.8793007135391235,-0.20450688898563385
-0.01610896736383438,1.8716853857040405,-0.2037578672170639
-0.0030988247599452734,1.8795136213302612,-0.2046504020690918
0.009944421239197254,1.871732473373413,-0.20372018218040466
0.022958556190133095,1.8716270923614502,-0.20363570749759674
0.0359557680785656,1.8714317083358765,-0.20355135202407837
0.04874825105071068,1.86338210105896,-0.20262272655963898
0.06266027688980103,1.8862965106964111,-0.20499804615974426
0.07542726397514343,1.8780856132507324,-0.20388248562812805
0.08879834413528442,1.8853060007095337,-0.20445223152637482
0.10193407535552979,1.8846713304519653,-0.20417781174182892
0.11506526172161102,1.8839449882507324,-0.20390339195728302
0.1284112185239792,1.8831223249435425,-0.20353294909000397
0.1379971206188202,1.835759162902832,-0.19806210696697235
0.1545640379190445,1.881255030632019,-0.20261971652507782
0.1683204174041748,1.8879221677780151,-0.20299500226974487
0.18219293653964996,1.894487738609314,-0.2033659964799881
0.18916720151901245,1.831398367881775,-0.19616132974624634
0.20353025197982788,1.8455567359924316,-0.19719186425209045
0.21358861029148102,1.821021556854248,-0.19409888982772827
0.23008863627910614,1.8503974676132202,-0.19675740599632263
0.24194596707820892,1.8411152362823486,-0.1953088790178299
0.2591845393180847,1.8702313899993896,-0.19779416918754578
0.27434638142585754,1.8838589191436768,-0.19860707223415375
0.2891542315483093,1.8935210704803467,-0.19900096952915192
0.30110660195350647,1.8838746547698975,-0.19737093150615692
0.31677842140197754,1.8971487283706665,-0.19814935326576233
0.32854023575782776,1.887362003326416,-0.19636650383472443
0.3445698618888855,1.900406002998352,-0.19694261252880096
0.3577445149421692,1.8980740308761597,-0.19593864679336548
0.3709664046764374,1.8956382274627686,-0.1949298232793808
0.38567811250686646,1.9007387161254883,-0.19467613101005554
0.40357255935668945,1.9209766387939453,-0.19583198428153992
0.42776840925216675,1.9676021337509155,-0.19963733851909637
0.4465559124946594,1.9874608516693115,-0.20070978999137878
0.46741360425949097,2.0147247314453125,-0.20251357555389404
0.48135557770729065,2.0115725994110107,-0.20118512213230133
0.4998294711112976,2.0272324085235596,-0.20164541900157928
0.5159186124801636,2.031367063522339,-0.2009350210428238
0.534023642539978,2.042908191680908,-0.200957253575325
0.5543171763420105,2.0618112087249756,-0.20169425010681152
0.5726566314697266,2.073092222213745,-0.20156210660934448
0.5953670144081116,2.099205493927002,-0.20281802117824554
0.6112232804298401,2.0988595485687256,-0.20147381722927094
0.6347817778587341,2.1245176792144775,-0.20262540876865387
0.654127836227417,2.135087251663208,-0.20229753851890564
0.6734204292297363,2.1455740928649902,-0.2018260359764099
0.6929039359092712,2.1558918952941895,-0.2013261765241623
0.7190863490104675,2.1843833923339844,-0.20245608687400818
0.7442544102668762,2.2089951038360596,-0.20321306586265564
0.7670421600341797,2.226088047027588,-0.20316725969314575
0.7964585423469543,2.2613699436187744,-0.20469066500663757
0.8251794576644897,2.2926580905914307,-0.20579272508621216
0.843867838382721,2.294344663619995,-0.20418719947338104
0.8669194579124451,2.306746244430542,-0.20347243547439575
0.8909878730773926,2.322805404663086,-0.2029803991317749
0.9181346297264099,2.3459019660949707,-0.20307311415672302
0.9532665014266968,2.3866615295410156,-0.20459218323230743
0.9728633165359497,2.3873722553253174,-0.20264019072055817
1.0103445053100586,2.431135416030884,-0.204167440533638
1.0465902090072632,2.4710652828216553,-0.20531269907951355
1.0729281902313232,2.48545503616333,-0.20424391329288483
1.1137596368789673,2.531635284423828,-0.20571190118789673
1.143805980682373,2.5526371002197266,-0.20499640703201294
1.1677879095077515,2.559145450592041,-0.20299945771694183
1.1886460781097412,2.55836820602417,-0.20041058957576752
1.2181687355041504,2.574902057647705,-0.19911402463912964
1.2628746032714844,2.622905969619751,-0.20013219118118286
1.3319411277770996,2.7195987701416016,-0.2046673595905304
1.3787134885787964,2.766319990158081,-0.20517711341381073
1.4279817342758179,2.8159921169281006,-0.20578739047050476
1.4436124563217163,2.7995190620422363,-0.20146945118904114
1.4315869808197021,2.7313475608825684,-0.19347670674324036
1.431963562965393,2.6873199939727783,-0.18723730742931366
1.396803855895996,2.578113317489624,-0.17657282948493958
1.3975071907043457,2.5379979610443115,-0.17070163786411285
1.4181691408157349,2.535698652267456,-0.1674453318119049
1.4126529693603516,2.4853358268737793,-0.16092410683631897
1.429935336112976,2.475680112838745,-0.15707486867904663
1.442384123802185,2.459650993347168,-0.1527990996837616
1.4552435874938965,2.443233013153076,-0.1484108418226242
1.4843862056732178,2.4532816410064697,-0.14556027948856354
1.4661444425582886,2.386962652206421,-0.1382112205028534
1.4095849990844727,2.2615976333618164,-0.12768499553203583
1.4022939205169678,2.2157137393951416,-0.12169554829597473
1.3922812938690186,2.1667768955230713,-0.11558324843645096
1.3978285789489746,2.1447958946228027,-0.11104760318994522
1.4125417470932007,2.1353416442871094,-0.1069948822259903
1.4205873012542725,2.1161115169525146,-0.10241127759218216
1.4342398643493652,2.107076406478882,-0.09833476692438126
1.4400838613510132,2.0843374729156494,-0.09334344416856766
1.4361445903778076,2.049222230911255,-0.08788087964057922
1.44928777217865,2.0401296615600586,-0.08356302976608276
1.458944320678711,2.0238044261932373,-0.07862105220556259
1.467331886291504,2.0082437992095947,-0.07374359667301178
1.4667582511901855,1.9797536134719849,-0.06819954514503479
2.2889866828918457,3.203507661819458,0.18100573122501373
2.2691686153411865,3.2267043590545654,0.1886279433965683
2.4023709297180176,3.4711124897003174,0.20934328436851501
2.3581652641296387,3.45845890045166,0.21448291838169098
3.1591906547546387,4.710456371307373,0.29994168877601624
2.4045205116271973,3.642564058303833,0.2376345843076706
2.357189655303955,3.626509666442871,0.2420366108417511
1.632051706314087,2.5530948638916016,0.1740303933620453
1.6338437795639038,2.597835063934326,0.18063242733478546
1.599174976348877,2.5824122428894043,0.182878315448761
3.0241193771362305,4.964698314666748,0.35776016116142273
2.9897303581237793,4.9940056800842285,0.3660672605037689
2.9684367179870605,5.037864685058594,0.3749410808086395
2.899596929550171,5.000814437866211,0.3777267634868622
2.8137381076812744,4.937252044677734,0.3781575858592987
2.7561748027801514,4.92002010345459,0.38195666670799255
2.69092059135437,4.884443759918213,0.3840745687484741
2.6244919300079346,4.844759941101074,0.38562238216400146
2.557112693786621,4.805275917053223,0.38690486550331116
2.5000624656677246,4.782037258148193,0.38935503363609314
2.439887762069702,4.746960163116455,0.39056485891342163
2.3794476985931396,4.711719036102295,0.3917251527309418
2.3238000869750977,4.686864852905273,0.3933863341808319
1.2391493320465088,2.546111583709717,0.21572698652744293
1.221329689025879,2.5544838905334473,0.21835245192050934
1.1984864473342896,2.552154541015625,0.22006583213806152
1.1799310445785522,2.56056809425354,0.2225867062807083
1.1607403755187988,2.569103479385376,0.22512111067771912
1.1564786434173584,2.6091878414154053,0.23037996888160706
1.14133620262146,2.624128818511963,0.2334098219871521
2.526796340942383,5.9226226806640625,0.5306189060211182
2.4999823570251465,5.979973316192627,0.5392641425132751
2.4761006832122803,6.048357009887695,0.5490494966506958
2.4521195888519287,6.112218379974365,0.5583322644233704
2.423567771911621,6.164978981018066,0.5666372776031494
2.3924918174743652,6.214200019836426,0.5745640993118286
2.3664965629577637,6.281966209411621,0.5839791893959045
2.3280210494995117,6.320765495300293,0.5908285975456238
1.941769003868103,5.38847541809082,0.5063280463218689
2.275341510772705,6.454692840576172,0.6096687912940979
2.2450525760650635,6.514263153076172,0.6183879375457764
2.207821846008301,6.559417724609375,0.6254600286483765
2.1801135540008545,6.6379075050354,0.6358345150947571
2.1438136100769043,6.686089038848877,0.6432660222053528
2.082071542739868,6.65220308303833,0.6427862048149109
2.0209059715270996,6.617786884307861,0.6422460079193115
1.9622050523757935,6.594501972198486,0.6423062682151794
1.8985702991485596,6.552031517028809,0.6404865384101868
1.8383734226226807,6.5203447341918945,0.6397401690483093
1.7794573307037354,6.483916282653809,0.6384398341178894
1.7242103815078735,6.458245277404785,0.6381961107254028
1.6686934232711792,6.43233060836792,0.6376830339431763
0.8184215426445007,3.250185489654541,0.32315871119499207
1.56367826461792,6.406043529510498,0.638857901096344
0.7969763278961182,3.3671786785125732,0.3367851972579956
1.4539809226989746,6.339540958404541,0.6359503865242004
1.3887537717819214,6.2543416023254395,0.629270076751709
1.3336244821548462,6.21441125869751,0.6266704797744751
1.2925450801849365,6.242693901062012,0.630984902381897
1.242878794670105,6.224789142608643,0.6306326985359192
1.1811248064041138,6.137639045715332,0.6232407093048096
1.1340348720550537,6.122568130493164,0.6231724619865417
1.089809775352478,6.122481346130371,0.6245306730270386
1.0430219173431396,6.114668369293213,0.6247941851615906
0.9852553009986877,6.03350305557251,0.617557942867279
0.9439195394515991,6.047794818878174,0.6201027631759644
0.901846170425415,6.054033279418945,0.6218392848968506
0.8439627289772034,5.948390007019043,0.6120915412902832
0.8099125623703003,6.015707015991211,0.6199831366539001
0.7655578851699829,6.005711078643799,0.619665265083313
0.6206503510475159,5.158196926116943,0.532856285572052
0.5744664072990417,5.073498249053955,0.5247542262077332
0.5501682162284851,5.181596755981445,0.5366184115409851
0.40368515253067017,4.071590900421143,0.42221951484680176
0.37434837222099304,4.070417881011963,0.42252177000045776
0.35327890515327454,4.1619391441345215,0.4323079586029053
0.3267650902271271,4.199124336242676,0.4364795684814453
0.294941246509552,4.166367053985596,0.4334009289741516
0.266690194606781,4.179893970489502,0.4351547062397003
0.238880917429924,4.212650299072266,0.43894147872924805
0.3863796591758728,7.772552013397217,0.8102778792381287
0.3311098515987396,7.751726150512695,0.8082686066627502
0.2753748893737793,7.7110981941223145,0.804232656955719
0.22080187499523163,7.681716442108154,0.801405668258667
0.16559530794620514,7.644200325012207,0.7977713942527771
0.11229343712329865,7.633469581604004,0.7969645261764526
0.059060756117105484,7.602972030639648,0.7938429713249207
0.006164782214909792,7.579905986785889,0.7912323474884033
-0.04635978862643242,7.548704147338867,0.7878120541572571
-0.09968201816082001,7.544321537017822,0.7872278094291687
-0.15120753645896912,7.496851444244385,0.7821884751319885
-0.20249906182289124,7.464566707611084,0.778772234916687
-0.25434139370918274,7.463024139404297,0.7783496975898743
-0.30576658248901367,7.453394889831543,0.7767919301986694
-0.3593044579029083,7.489981651306152,0.7800859212875366
-0.29792216420173645,5.411832332611084,0.5632911920547485
-0.3350186049938202,5.401933670043945,0.5619401931762695
-0.37199196219444275,5.391780853271484,0.5605907440185547
-0.4063846170902252,5.350404262542725,0.5558692812919617
-0.44385775923728943,5.355320930480957,0.5557390451431274
-0.4247061312198639,4.7213664054870605,0.4893984794616699
-0.4471847116947174,4.6139817237854,0.47775834798812866
-0.4780779480934143,4.599247932434082,0.4757436215877533
-0.5108829736709595,4.603623390197754,0.47572970390319824
-0.5391374230384827,4.569195747375488,0.47159942984580994
-0.5710928440093994,4.565433502197266,0.47041958570480347
-0.6004208922386169,4.546109676361084,0.4676752984523773
-0.62857985496521,4.518880367279053,0.46414288878440857
-0.657185971736908,4.495291233062744,0.4610080122947693
-0.6872146129608154,4.483054161071777,0.4590648412704468
-0.7186955809593201,4.478248596191406,0.4577582776546478
-0.7467944025993347,4.458036422729492,0.4547242820262909
-0.7786148190498352,4.460629463195801,0.45404091477394104
-0.802396297454834,4.4170637130737305,0.44867995381355286
-0.8301644325256348,4.396256923675537,0.4456566274166107
-0.8465098738670349,4.318050384521484,0.43685269355773926
-0.7427518367767334,3.6531622409820557,0.36870360374450684
-0.7692572474479675,3.655768394470215,0.36798328161239624
-0.9371486902236938,4.307766437530518,0.4324704706668854
-0.971932590007782,4.324141979217529,0.432973712682724
-1.005488634109497,4.332609176635742,0.43268606066703796
-1.0289040803909302,4.295313835144043,0.4278324842453003
-1.0600897073745728,4.295933723449707,0.42657575011253357
-1.089242935180664,4.288841247558594,0.42449435591697693
-1.1163829565048218,4.274024963378906,0.42167046666145325
-1.1399599313735962,4.243851184844971,0.4173318147659302
-1.1699600219726562,4.2358903884887695,0.4151786267757416
-1.192970871925354,4.2054266929626465,0.4108448922634125
-1.2202839851379395,4.193763256072998,0.40811577439308167
-1.2486450672149658,4.1856369972229,0.40574875473976135
-1.2782872915267944,4.180978298187256,0.40372413396835327
-1.3043794631958008,4.160922527313232,0.40017417073249817
-1.3333085775375366,4.151976585388184,0.39774471521377563
-1.3592218160629272,4.135622501373291,0.3944644629955292
-1.3870950937271118,4.126613140106201,0.39177995920181274
-1.4148703813552856,4.117426872253418,0.38909900188446045
-1.4381802082061768,4.093109607696533,0.38496366143226624
-1.461894154548645,4.068428993225098,0.38078242540359497
-1.4846230745315552,4.043874263763428,0.3766195476055145
-1.5144834518432617,4.041374683380127,0.3743285834789276
-1.5388160943984985,4.024115085601807,0.3706873059272766
-1.5692126750946045,4.020995140075684,0.3683225214481354
-1.5890029668807983,3.9883735179901123,0.36321404576301575
-1.6196203231811523,3.9847238063812256,0.36079099774360657
-1.6462005376815796,3.9741129875183105,0.3575117290019989
-1.6696488857269287,3.956162691116333,0.3535953164100647
-1.6966090202331543,3.944974422454834,0.3502507507801056
-1.7245961427688599,3.933128595352173,0.3467685580253601
-1.745535135269165,3.9071297645568848,0.3420877456665039
-1.7569913864135742,3.8638370037078857,0.3357287049293518
-1.7859379053115845,3.8594350814819336,0.3327803313732147
-1.8123642206192017,3.847412347793579,0.3291071951389313
-1.8295022249221802,3.813713550567627,0.3235204517841339
-1.8555796146392822,3.801412582397461,0.3197532594203949
-1.8807100057601929,3.789367437362671,0.31587928533554077
-1.898712396621704,3.7632548809051514,0.3108603060245514
-1.9284753799438477,3.757185697555542,0.3073608875274658
-1.9474246501922607,3.730158567428589,0.30216747522354126
-1.9689730405807495,3.7103497982025146,0.29739364981651306
-2.004429817199707,3.7182319164276123,0.29486414790153503
-2.0447633266448975,3.7321369647979736,0.2926616370677948
-1.7219001054763794,3.0915958881378174,0.23961865901947021
-1.74273681640625,3.0801901817321777,0.23583725094795227
-0.8427802324295044,1.4668043851852417,0.1108643114566803
-0.848751425743103,1.4544793367385864,0.10847581177949905
-0.8628988862037659,1.4553472995758057,0.10702339559793472
-0.8807082772254944,1.463017225265503,0.1060221791267395
-0.8902130126953125,1.457397699356079,0.10401909053325653
-0.8797304034233093,1.4182130098342896,0.09956154227256775
-0.8896377086639404,1.4121661186218262,0.0974559336900711
-0.8904485106468201,1.3933217525482178,0.09444619715213776
-0.8994231820106506,1.3876869678497314,0.09234032779932022
-0.894106388092041,1.3586996793746948,0.08856932818889618
-0.909932017326355,1.3623957633972168,0.08690200746059418
-2.403698444366455,3.550039052963257,0.22144396603107452
-1.4293360710144043,2.080488443374634,0.12662075459957123
-1.6153767108917236,2.3173203468322754,0.1373860239982605
-1.4093502759933472,1.9950051307678223,0.1150650680065155
-1.2901166677474976,1.8324373960494995,-0.07194999605417252
-1.3969472646713257,2.014810800552368,-0.08305877447128296
-1.2624486684799194,1.8793996572494507,-0.08447974175214767
-1.1782327890396118,1.780572772026062,-0.08303849399089813
-1.1478571891784668,1.7629979848861694,-0.08520898222923279
-1.2611291408538818,1.9684393405914307,-0.09832846373319626
-1.634615421295166,2.590963125228882,-0.13337914645671844
-1.197738766670227,1.9296342134475708,-0.10223434120416641
-1.9733939170837402,3.3384811878204346,-0.1910337507724762
-0.8560039401054382,1.4967482089996338,-0.08955595642328262
-1.750051498413086,3.110668182373047,-0.19000744819641113
-1.709739327430725,3.0926687717437744,-0.19275601208209991
-1.7043170928955078,3.1353931427001953,-0.1991317719221115
-1.6437337398529053,3.074733257293701,-0.19881919026374817
-1.5906230211257935,3.0275769233703613,-0.1991788148880005
-1.5505276918411255,3.004218816757202,-0.20098677277565002
-1.4920142889022827,2.941913366317749,-0.19999729096889496
-1.474900245666504,2.9589860439300537,-0.20427311956882477
-1.4242219924926758,2.9098401069641113,-0.20383037626743317
-1.3710180521011353,2.8530688285827637,-0.20272836089134216
-1.3277279138565063,2.8129959106445312,-0.20260949432849884
-1.2865943908691406,2.776052474975586,-0.2026216983795166
-1.2596291303634644,2.7710344791412354,-0.20486226677894592
-1.2221530675888062,2.740656852722168,-0.2051313817501068
-1.1842595338821411,2.706045389175415,-0.20493771135807037
-1.1483783721923828,2.6746551990509033,-0.20491166412830353
-1.1079360246658325,2.632354736328125,-0.203875333070755
-1.0752815008163452,2.6077516078948975,-0.2041870802640915
-1.0512255430221558,2.6005301475524902,-0.20572791993618011
-1.0158437490463257,2.5641276836395264,-0.2049233615398407
-0.98478102684021,2.5384490489959717,-0.20479875802993774
-0.9499653577804565,2.5015478134155273,-0.2037147879600525
-0.917161226272583,2.4679083824157715,-0.20283560454845428
-0.8945744037628174,2.459423542022705,-0.20395323634147644
-0.8666560053825378,2.436173677444458,-0.2037275731563568
-0.8517664074897766,2.4494848251342773,-0.20650580525398254
-0.8181476593017578,2.407336711883545,-0.2045716941356659
-0.8010405898094177,2.412903308868408,-0.20667755603790283
-0.762485682964325,2.3516271114349365,-0.20295599102973938
-0.739847719669342,2.3382771015167236,-0.20322081446647644
-0.7186048626899719,2.3284404277801514,-0.2037794142961502
-0.6978897452354431,2.318319082260132,-0.2042752504348755
-0.6663716435432434,2.2706820964813232,-0.20143672823905945
-0.6500569581985474,2.2752575874328613,-0.20311063528060913
-0.6287025213241577,2.260916233062744,-0.20303648710250854
-0.6107417345046997,2.257629632949829,-0.2039429396390915
-0.5910061001777649,2.2466437816619873,-0.20414221286773682
-0.5656509399414062,2.2128825187683105,-0.20222614705562592
-0.5449953079223633,2.1978940963745117,-0.20188908278942108
-0.5257821679115295,2.186441421508789,-0.20185230672359467
-0.5087215304374695,2.1823618412017822,-0.202482670545578
-0.4952244460582733,2.1933181285858154,-0.20451441407203674
-0.47483986616134644,2.1738204956054688,-0.20362642407417297
-0.4560089707374573,2.161839485168457,-0.20336611568927765
-0.43923115730285645,2.1572649478912354,-0.2037866711616516
-0.41893643140792847,2.1334519386291504,-0.20237821340560913
-0.3896157443523407,2.059781789779663,-0.19620826840400696
-0.3751523196697235,2.0623745918273926,-0.19715675711631775
-0.367061585187912,2.103229284286499,-0.20175862312316895
-0.3471781313419342,2.0749778747558594,-0.19972914457321167
-0.3364050090312958,2.10029673576355,-0.20285935699939728
-0.32060742378234863,2.094810724258423,-0.20302826166152954
-0.308135986328125,2.1123290061950684,-0.20526130497455597
-0.28663745522499084,2.0681862831115723,-0.20150868594646454
-0.26965972781181335,2.0507924556732178,-0.20034316182136536
-0.25540828704833984,2.052546977996826,-0.20105037093162537
-0.24113260209560394,2.054205894470215,-0.20173482596874237
-0.2250562161207199,2.040332317352295,-0.20074863731861115
-0.209966778755188,2.034071683883667,-0.2005174607038498
-0.19556382298469543,2.035454273223877,-0.2010524719953537
-0.1800331026315689,2.021223783493042,-0.2000449001789093
-0.16056132316589355,1.9565174579620361,-0.1939912587404251
-0.14806489646434784,1.9730628728866577,-0.19586274027824402
-0.1337791532278061,1.9662574529647827,-0.19542628526687622
-0.12030572444200516,1.97488272190094,-0.19653743505477905
-0.10695478320121765,1.983402967453003,-0.19764548540115356
-0.09276537597179413,1.9763075113296509,-0.1971435844898224
-0.07896517217159271,1.9768915176391602,-0.19729867577552795
-0.06541739404201508,1.9851489067077637,-0.1982296109199524
-0.050966471433639526,1.9700038433074951,-0.1968344897031784
-0.03757351636886597,1.9858397245407104,-0.19854235649108887
-0.023678148165345192,1.9782718420028687,-0.19784347712993622
-0.00984322838485241,1.9628437757492065,-0.19626550376415253
0.0038212002255022526,1.970640778541565,-0.19701947271823883
0.01776188611984253,1.970566987991333,-0.19699576497077942
0.03135707601904869,1.9626249074935913,-0.19619540870189667
0.04553228244185448,1.9856860637664795,-0.19841371476650238
0.05909428372979164,1.977571725845337,-0.19743461906909943
0.07199017703533173,1.953826904296875,-0.19490693509578705
0.08626002073287964,1.9688321352005005,-0.1962549090385437
0.10058563947677612,1.975956916809082,-0.19682280719280243
0.11385630071163177,1.9674795866012573,-0.1957484483718872
0.1280026137828827,1.9744380712509155,-0.19614262878894806
0.14169418811798096,1.9735403060913086,-0.19576464593410492
0.15602390468120575,1.9802955389022827,-0.1961534172296524
0.17235659062862396,2.0062928199768066,-0.19844815135002136
0.1898605078458786,2.0438072681427,-0.2017705887556076
0.1974387764930725,1.9767377376556396,-0.19472073018550873
