X,Y,Z
-1.5555543899536133,3.999443531036377,0.11950943619012833
-1.5895990133285522,4.002879619598389,0.11878842860460281
-1.6071721315383911,3.9664130210876465,0.11690482497215271
-1.6338379383087158,3.955538511276245,0.11571246385574341
-1.6572458744049072,3.9373514652252197,0.11430414766073227
-1.6902223825454712,3.9403457641601562,0.11349749565124512
-1.7118101119995117,3.9140098094940186,0.11181803792715073
-1.732408046722412,3.887877941131592,0.11015632748603821
-1.7517999410629272,3.8620705604553223,0.10845246911048889
-1.7709251642227173,3.8361775875091553,0.10675818473100662
-1.8073889017105103,3.845076084136963,0.10599716752767563
-1.8345636129379272,3.8322231769561768,0.10461263358592987
-1.8500256538391113,3.798776149749756,0.10264112055301666
-1.8682236671447754,3.7724740505218506,0.10085511952638626
-1.8902426958084106,3.7527852058410645,0.0992315486073494
-1.9162150621414185,3.739628553390503,0.0977625772356987
-1.9523849487304688,3.7473526000976562,0.09681764990091324
-1.9737144708633423,3.7273662090301514,0.09510623663663864
-2.0022661685943604,3.721017837524414,0.09374705702066422
-1.709473729133606,3.124591827392578,0.07766877859830856
-1.7155835628509521,3.085575819015503,0.07564134895801544
-1.7396068572998047,3.081102132797241,0.07443593442440033
-0.7694987654685974,1.341519832611084,0.03191222622990608
-0.778830349445343,1.3361390829086304,0.03127402812242508
-0.7758978009223938,1.3106998205184937,0.030166873708367348
-0.8688979148864746,1.4462374448776245,0.032707542181015015
-0.8786712288856506,1.440337061882019,0.03197170048952103
-0.9011855125427246,1.4540189504623413,0.03163616359233856
-0.8940132260322571,1.4216793775558472,0.03029862977564335
-0.8801292181015015,1.3796350955963135,0.028777102008461952
-2.4227652549743652,3.581136703491211,0.06736654043197632
-1.332790493965149,1.9418154954910278,0.03543299064040184
-1.512366533279419,2.1738200187683105,0.03841931372880936
-1.3759177923202515,1.983243465423584,-0.0359579399228096
-1.2463254928588867,1.8258514404296875,-0.03440328314900398
-1.250563383102417,1.860693097114563,-0.036296747624874115
-1.36880362033844,2.0681793689727783,-0.04165869578719139
-1.293197751045227,1.9869624376296997,-0.041295990347862244
-0.8793195486068726,1.4399147033691406,-0.03315306827425957
-0.8568392395973206,1.426114559173584,-0.033581625670194626
-0.8044882416725159,1.3618183135986328,-0.03275088593363762
-0.7908046841621399,1.3607639074325562,-0.03337768837809563
-0.7929678559303284,1.3865448236465454,-0.03465183451771736
-0.8517048358917236,1.5148382186889648,-0.038543328642845154
-1.6638166904449463,3.011463165283203,-0.07798747718334198
-1.654022216796875,3.0435073375701904,-0.08009935170412064
-1.5993778705596924,2.9930639266967773,-0.08001415431499481
-1.5774296522140503,3.004648208618164,-0.08153747022151947
-1.6184886693954468,3.137317180633545,-0.08637535572052002
-1.596187949180603,3.148679494857788,-0.08791162073612213
-1.5701850652694702,3.1529624462127686,-0.08920741081237793
-1.550532579421997,3.1713271141052246,-0.0908864438533783
-1.5313286781311035,3.1892685890197754,-0.09253165870904922
-1.50909423828125,3.199808120727539,-0.09394551813602448
-1.4863024950027466,3.2104172706604004,-0.09533765912055969
-1.4625681638717651,3.221257448196411,-0.0967375710606575
-1.4428168535232544,3.2386629581451416,-0.09830207377672195
-1.4170926809310913,3.2414393424987793,-0.09940687566995621
-1.3972163200378418,3.2585151195526123,-0.10093353688716888
-1.3736127614974976,3.2684953212738037,-0.10221433639526367
-1.3571687936782837,3.2964396476745605,-0.10407596081495285
-1.334205985069275,3.3057613372802734,-0.10531458258628845
-1.3096561431884766,3.311326026916504,-0.10643277317285538
-1.5424425601959229,3.9832749366760254,-0.12908242642879486
-1.516528844833374,4.001518726348877,-0.13073232769966125
-1.4906870126724243,4.019500732421875,-0.1323748677968979
-1.4693021774291992,4.048095703125,-0.13435664772987366
-1.4483413696289062,4.0804643630981445,-0.13643048703670502
-1.4266701936721802,4.112851142883301,-0.1384909600019455
-1.4024397134780884,4.137624740600586,-0.14029981195926666
-1.373223900794983,4.147368431091309,-0.1416027545928955
-1.3528175354003906,4.182758331298828,-0.1437772810459137
-1.3206747770309448,4.184790134429932,-0.144700825214386
-1.2908685207366943,4.1940388679504395,-0.14587973058223724
-1.268153190612793,4.225385665893555,-0.1478269100189209
-1.2408545017242432,4.241577625274658,-0.14925208687782288
-1.216991662979126,4.272806167602539,-0.15120476484298706
-1.1865489482879639,4.281322002410889,-0.1522713154554367
-1.1560100317001343,4.28963041305542,-0.15333911776542664
-1.1280536651611328,4.30510139465332,-0.15465517342090607
-1.1000114679336548,4.320371627807617,-0.15597231686115265
-1.07108736038208,4.335639476776123,-0.1572614312171936
-1.0403389930725098,4.343085765838623,-0.15819527208805084
-1.0095770359039307,4.350305557250977,-0.15912796556949615
-0.9835765361785889,4.376232147216797,-0.1607440710067749
-0.9514573812484741,4.375303745269775,-0.1613832414150238
-0.9202358722686768,4.38194465637207,-0.16226056218147278
-0.8923842310905457,4.403604507446289,-0.16362547874450684
-0.8560026288032532,4.38295316696167,-0.16342554986476898
-0.8225858807563782,4.3734307289123535,-0.16363464295864105
-0.7879922389984131,4.355967044830322,-0.1635487973690033
-0.7516403198242188,4.330667495727539,-0.16312110424041748
-0.7166489958763123,4.308873653411865,-0.16274160146713257
-0.6813503503799438,4.28295373916626,-0.1622089445590973
-0.6456238031387329,4.248981952667236,-0.16136692464351654
-0.6109634637832642,4.218585968017578,-0.16066080331802368
-0.5767039656639099,4.191864013671875,-0.16005939245224
-0.5542508959770203,4.249990463256836,-0.16261208057403564
-0.5234058499336243,4.2460150718688965,-0.1627998799085617
-0.4919736385345459,4.234035015106201,-0.16268424689769745
-0.46000170707702637,4.214050769805908,-0.1622643768787384
-0.42988482117652893,4.209364891052246,-0.16241829097270966
-0.4006091356277466,4.220080375671387,-0.16306297481060028
-0.36661791801452637,4.172219276428223,-0.16144584119319916
-0.33500227332115173,4.14353609085083,-0.16057313978672028
-0.29899224638938904,4.048434734344482,-0.15712618827819824
-0.27525895833969116,4.116611957550049,-0.16002224385738373
-0.24434246122837067,4.091182708740234,-0.15916971862316132
-0.2132878601551056,4.0460076332092285,-0.1575438380241394
-0.1745341718196869,3.817335844039917,-0.1487710028886795
-0.14841879904270172,3.8301520347595215,-0.1494089663028717
-0.12278887629508972,3.8622944355010986,-0.15080943703651428
-0.09518467634916306,3.8552608489990234,-0.15059778094291687
-0.07103753834962845,4.008031845092773,-0.1565963625907898
-0.04321875423192978,4.020136833190918,-0.15710794925689697
-0.015101226046681404,3.977402448654175,-0.15548354387283325
0.01260472647845745,3.9930219650268555,-0.1561475396156311
0.04060200974345207,3.969414710998535,-0.1552264243364334
0.06805762648582458,3.9612343311309814,-0.15484288334846497
0.09498864412307739,3.9372568130493164,-0.15384982526302338
0.12332367897033691,3.9677155017852783,-0.15499120950698853
0.14837725460529327,3.9004578590393066,-0.15232327580451965
0.17508403956890106,3.8915395736694336,-0.15192149579524994
0.2059546262025833,3.9564831256866455,-0.15430273115634918
0.23148690164089203,3.9237990379333496,-0.15288527309894562
0.2569406032562256,3.8948404788970947,-0.15162187814712524
0.28232261538505554,3.8696088790893555,-0.15051241219043732
0.3117215633392334,3.898686408996582,-0.1515224725008011
0.3364870846271515,3.865295886993408,-0.14999271929264069
0.36321908235549927,3.8628883361816406,-0.1496671438217163
0.3907536268234253,3.8680593967437744,-0.14964161813259125
0.41932162642478943,3.880784034729004,-0.14991331100463867
0.44894254207611084,3.901057481765747,-0.1504819691181183
0.473524272441864,3.87457275390625,-0.1491621732711792
0.5107377767562866,3.952528476715088,-0.15182951092720032
0.5348218083381653,3.9257240295410156,-0.1504749357700348
0.5538225173950195,3.8639652729034424,-0.14779147505760193
0.5882846713066101,3.910210132598877,-0.14924649894237518
0.617043137550354,3.91369891166687,-0.1490081548690796
0.6465029716491699,3.924787998199463,-0.14901043474674225
0.676144540309906,3.9356563091278076,-0.1490081250667572
0.6938352584838867,3.8770925998687744,-0.14638444781303406
0.7186373472213745,3.860682725906372,-0.14536571502685547
0.7609030604362488,3.936124801635742,-0.14776484668254852
0.7883680462837219,3.9307432174682617,-0.1470388025045395
0.8105477690696716,3.9023373126983643,-0.14547069370746613
0.8441328406333923,3.9271857738494873,-0.145888552069664
0.8756645917892456,3.9402992725372314,-0.145869180560112
0.9151619076728821,3.9874348640441895,-0.1470751166343689
0.9285049438476562,3.9202206134796143,-0.14396847784519196
0.9627061486244202,3.9441475868225098,-0.14423172175884247
0.9957175254821777,3.9601314067840576,-0.14419525861740112
1.0252209901809692,3.960693359375,-0.1435963660478592
1.0636831521987915,3.995025396347046,-0.14419227838516235
1.1192281246185303,4.089244842529297,-0.14683330059051514
1.1671842336654663,4.1529541015625,-0.1483668088912964
1.1840221881866455,4.103546142578125,-0.14584948122501373
1.2181040048599243,4.113957405090332,-0.14546580612659454
1.2408164739608765,4.086805820465088,-0.14372721314430237
1.273693561553955,4.093078136444092,-0.14309264719486237
1.3145380020141602,4.125279426574707,-0.14337413012981415
1.3577101230621338,4.160622596740723,-0.14373545348644257
1.421262264251709,4.2548017501831055,-0.1461043655872345
1.4630444049835205,4.2819390296936035,-0.14608751237392426
1.4946075677871704,4.279341697692871,-0.14500047266483307
1.508444905281067,4.224814414978027,-0.14214803278446198
1.5484672784805298,4.2436203956604,-0.14176979660987854
1.6065524816513062,4.309632301330566,-0.14295019209384918
1.6731977462768555,4.397227764129639,-0.14471706748008728
1.7112843990325928,4.407735347747803,-0.14390507340431213
1.754942774772644,4.428408145904541,-0.14337670803070068
1.8091832399368286,4.474038124084473,-0.14364007115364075
1.0971603393554688,2.6602954864501953,-0.08467307686805725
1.092346429824829,2.598889112472534,-0.0819636657834053
1.1175190210342407,2.6094472408294678,-0.08153724670410156
1.1453382968902588,2.622974157333374,-0.08115726709365845
1.1508615016937256,2.5864334106445312,-0.07924789190292358
1.1682560443878174,2.57865571975708,-0.07818716764450073
1.1838631629943848,2.5672607421875,-0.07701627910137177
1.1881632804870605,2.5308377742767334,-0.07508879154920578
1.1992483139038086,2.5083348751068115,-0.07356811314821243
1.2059177160263062,2.4791388511657715,-0.0718497484922409
1.2223447561264038,2.4711129665374756,-0.07073736935853958
1.2268446683883667,2.438352584838867,-0.06890684366226196
1.2437976598739624,2.429781198501587,-0.06775103509426117
1.242253065109253,2.386664390563965,-0.0656285434961319
1.2510274648666382,2.3644514083862305,-0.0640680268406868
1.2633670568466187,2.349048614501953,-0.06269676983356476
1.2703065872192383,2.3231050968170166,-0.06103465333580971
1.2859113216400146,2.31453537940979,-0.05982345715165138
1.2934372425079346,2.292450189590454,-0.05826254189014435
1.3093565702438354,2.2834272384643555,-0.05698520317673683
1.317333459854126,2.2608044147491455,-0.05537837743759155
1.3202544450759888,2.2319483757019043,-0.05361117050051689
1.334893822669983,2.2232542037963867,-0.05233262479305267
1.3502891063690186,2.2139692306518555,-0.050982583314180374
1.357265830039978,2.191375732421875,-0.04930413141846657
1.3714348077774048,2.1825664043426514,-0.047950055450201035
1.3904452323913574,2.1798064708709717,-0.04666983708739281
1.4054502248764038,2.1701929569244385,-0.04521340876817703
1.4065192937850952,2.1415483951568604,-0.04336441680788994
1.4167335033416748,2.1254537105560303,-0.04171392694115639
1.4161070585250854,2.0929713249206543,-0.039732854813337326
1.433838129043579,2.090372323989868,-0.03832266107201576
1.4343942403793335,2.0615336894989014,-0.036375582218170166
1.4438456296920776,2.0453991889953613,-0.03461826220154762
1.443243384361267,2.017104148864746,-0.03263895586133003
1.4662073850631714,2.0198404788970947,-0.031057724729180336
1.4746090173721313,2.0040512084960938,-0.029154306277632713
3.1662042140960693,4.462698936462402,0.0971313863992691
2.6300113201141357,3.765415668487549,0.08500166982412338
2.610135555267334,3.798112630844116,0.08870314806699753
3.1676690578460693,4.679975509643555,0.1126692146062851
3.1149771213531494,4.67762565612793,0.1158694252371788
3.121201753616333,4.762353420257568,0.12112362682819366
3.0879714488983154,4.783876895904541,0.12465273588895798
1.6222821474075317,2.555067300796509,0.06813079863786697
1.6279845237731934,2.6068060398101807,0.07106253504753113
1.6015872955322266,2.60473895072937,0.07244516909122467
2.9808390140533447,4.928739547729492,0.1397305279970169
2.7682414054870605,4.65544319152832,0.13444018363952637
2.7969601154327393,4.77896785736084,0.1403379738330841
2.7215209007263184,4.727853298187256,0.14115330576896667
2.4978883266448975,4.414784908294678,0.1338760405778885
2.4507944583892822,4.405310153961182,0.1355849653482437
2.395651340484619,4.377684116363525,0.13664394617080688
2.426931142807007,4.511679649353027,0.14273791015148163
2.4494473934173584,4.636767387390137,0.1486511379480362
2.4721720218658447,4.76142692565918,0.15453964471817017
2.4247426986694336,4.750632286071777,0.15603168308734894
2.3711907863616943,4.729512691497803,0.15710864961147308
2.3019330501556396,4.676647663116455,0.15706418454647064
1.2265734672546387,2.5381600856781006,0.0861591249704361
1.202168345451355,2.5324933528900146,0.08684275299310684
1.1906883716583252,2.555111885070801,0.08847187459468842
1.180106282234192,2.5814576148986816,0.09021293371915817
1.1582844257354736,2.5827279090881348,0.09107431024312973
1.1465702056884766,2.604983329772949,0.09265480935573578
2.065734386444092,4.7851715087890625,0.1716761440038681
2.04610538482666,4.835949420928955,0.17486746609210968
2.025885581970215,4.886674880981445,0.17808490991592407
2.001838445663452,4.926018238067627,0.18086698651313782
1.984804391860962,4.983299255371094,0.18432588875293732
2.035254716873169,5.219311237335205,0.19443191587924957
2.0058350563049316,5.2556986808776855,0.1970817595720291
1.988421082496643,5.324795246124268,0.2009827047586441
1.9593812227249146,5.360426902770996,0.20360445976257324
1.939144253730774,5.421639919281006,0.20722435414791107
1.8779019117355347,5.372838497161865,0.20656970143318176
1.878327488899231,5.50065803527832,0.21267040073871613
1.8501834869384766,5.5471696853637695,0.21566006541252136
1.9421764612197876,5.9606781005859375,0.23299039900302887
1.8982656002044678,5.9665446281433105,0.23448233306407928
1.8642165660858154,6.009908199310303,0.23734286427497864
1.3353513479232788,4.416396141052246,0.17522189021110535
1.3061034679412842,4.433226585388184,0.17670296132564545
1.2687506675720215,4.419652938842773,0.17696061730384827
1.2421596050262451,4.443367958068848,0.17871852219104767
1.2168586254119873,4.474595069885254,0.18070606887340546
1.688796877861023,6.392805099487305,0.25918465852737427
1.6451267004013062,6.412181854248047,0.26097655296325684
0.8115496039390564,3.257158041000366,0.13307063281536102
1.543715476989746,6.38503885269165,0.2618580460548401
0.788146436214447,3.3631432056427,0.13841238617897034
1.4274671077728271,6.295910358428955,0.25993654131889343
1.3725581169128418,6.2601165771484375,0.25927597284317017
1.3231035470962524,6.2427802085876465,0.25936800241470337
1.271787405014038,6.213552474975586,0.2589668333530426
1.214150309562683,6.149451732635498,0.2570963501930237
1.169795274734497,6.158001899719238,0.2580887973308563
0.8021908402442932,4.392284393310547,0.18453870713710785
0.7699264287948608,4.390100955963135,0.1849047988653183
0.7367337942123413,4.379934310913086,0.18493685126304626
0.704961359500885,4.377225399017334,0.1852903515100479
0.677200973033905,4.405273914337158,0.18688082695007324
0.8802835941314697,6.008617877960205,0.2553742527961731
0.8324382305145264,5.975999355316162,0.2544732689857483
0.7907349467277527,5.981628894805908,0.2552042603492737
0.74286949634552,5.93660306930542,0.2537801265716553
0.6119009852409363,5.1819353103637695,0.22195744514465332
0.5650137066841125,5.0969343185424805,0.2186000943183899
0.5417140126228333,5.221092224121094,0.22422130405902863
0.4014589190483093,4.152599811553955,0.17857833206653595
0.3659702241420746,4.081419944763184,0.17576299607753754
0.3411361873149872,4.126632213592529,0.17796671390533447
0.3168378472328186,4.195092678070068,0.1811327189207077
0.2856138348579407,4.1699419021606445,0.1801774799823761
0.256433367729187,4.171828746795654,0.18039843440055847
0.2305072546005249,4.231958866119385,0.18314841389656067
0.37054380774497986,7.800304412841797,0.33786842226982117
0.3136897087097168,7.763721942901611,0.33659589290618896
0.2587149739265442,7.738405704498291,0.33562856912612915
0.20388302206993103,7.708806037902832,0.33442196249961853
0.1494767814874649,7.6788201332092285,0.3332141637802124
0.09579794108867645,7.66015625,0.3325129449367523
0.04148448258638382,7.629415988922119,0.3313048481941223
-0.011480667628347874,7.598293781280518,0.3300870954990387
-0.06397823989391327,7.562912940979004,0.3284611999988556
-0.11652584373950958,7.562290191650391,0.3283611238002777
-0.1680210381746292,7.514483451843262,0.32622846961021423
-0.21977229416370392,7.497535228729248,0.32545170187950134
-0.2714814245700836,7.46069860458374,0.32382723689079285
-0.32284557819366455,7.45084810256958,0.3233118951320648
-0.3744222819805145,7.448449611663818,0.32295355200767517
-0.3100680112838745,5.4196553230285645,0.23481421172618866
-0.3481362462043762,5.425175666809082,0.23489025235176086
-0.3837216794490814,5.38366174697876,0.23293913900852203
-0.41779622435569763,5.338076591491699,0.23082801699638367
-0.4520936608314514,5.303963661193848,0.2291206419467926
-0.43459704518318176,4.713923454284668,0.20337043702602386
-0.4582711160182953,4.621504306793213,0.1991359144449234
-0.4900677502155304,4.610408306121826,0.1984148472547531
-0.5203074216842651,4.591400146484375,0.19736817479133606
-0.5494189858436584,4.564438819885254,0.19599075615406036
-0.29631444811820984,2.326744794845581,0.0997314602136612
-0.3102381229400635,2.309190511703491,0.09880220144987106
-0.32857656478881836,2.3224315643310547,0.09919235855340958
-0.34355998039245605,2.312382698059082,0.09859322756528854
-0.3511933386325836,2.2559657096862793,0.09602650254964828
-0.3667995035648346,2.253492832183838,0.09574279189109802
-0.3802691102027893,2.239398241043091,0.09491616487503052
-0.38878369331359863,2.1983261108398438,0.09295588731765747
-0.4126739203929901,2.241619825363159,0.09456117451190948
-0.842583954334259,4.40458345413208,0.185372993350029
-0.731815755367279,3.686598777770996,0.15480166673660278
-0.753183901309967,3.66239857673645,0.15335531532764435
-0.7790006399154663,3.661012887954712,0.1528402417898178
-0.9444894194602966,4.292118072509766,0.1786499172449112
-0.9776984453201294,4.300720691680908,0.17847689986228943
-1.011112928390503,4.309059143066406,0.1782970428466797
-1.0444939136505127,4.3171892166137695,0.1780821979045868
-1.0596712827682495,4.253215789794922,0.1748092621564865
-1.085198998451233,4.230696201324463,0.17324796319007874
-1.1231769323349,4.2571516036987305,0.17370279133319855
-1.1526886224746704,4.249294757843018,0.17275404930114746
-1.1800493001937866,4.233712673187256,0.17150069773197174
-1.2055258750915527,4.214393615722656,0.16998519003391266
-1.2322932481765747,4.198553562164307,0.16859085857868195
-1.2585601806640625,4.182645797729492,0.16721327602863312
-1.2876453399658203,4.173827648162842,0.16611073911190033
-1.3166310787200928,4.16481876373291,0.16500964760780334
-1.337850570678711,4.133487224578857,0.1629592627286911
-1.3686867952346802,4.131652355194092,0.16202381253242493
-1.389070749282837,4.100170135498047,0.15995050966739655
-1.4174729585647583,4.0904860496521,0.15871791541576385
-1.4379854202270508,4.05852746963501,0.15663327276706696
-1.468298077583313,4.056013584136963,0.15563532710075378
-1.4954681396484375,4.046125411987305,0.15430903434753418
-1.5258064270019531,4.043179512023926,0.15323615074157715
-1.5538796186447144,4.032525539398193,0.15185879170894623
-1.5733047723770142,3.9998788833618164,0.14966581761837006
-1.5975606441497803,3.9818947315216064,0.1479717344045639
-1.62716543674469,3.9783802032470703,0.14677606523036957
-1.6438543796539307,3.9419755935668945,0.14435535669326782
-1.6742838621139526,3.9376890659332275,0.1431058943271637
-1.6985225677490234,3.9188408851623535,0.1413341760635376
-1.7216747999191284,3.900247573852539,0.1395108699798584
-1.7540283203125,3.9029884338378906,0.13844135403633118
-1.777751088142395,3.8837125301361084,0.13654999434947968
-1.7915440797805786,3.8429925441741943,0.1339154988527298
-1.8145850896835327,3.823582649230957,0.13201582431793213
-1.8398816585540771,3.8115336894989014,0.13030549883842468
-1.8788909912109375,3.8273420333862305,0.1295422613620758
-1.888489842414856,3.7790772914886475,0.12653174996376038
-1.911212682723999,3.7589380741119385,0.12450762838125229
-1.9433002471923828,3.7601006031036377,0.12312808632850647
-1.6757628917694092,3.1906988620758057,0.10326847434043884
-1.9789860248565674,3.706188678741455,0.11848331242799759
-2.0233583450317383,3.726706027984619,0.11763373762369156
-1.7052477598190308,3.0907270908355713,0.09624070674180984
-1.7254682779312134,3.079535961151123,0.0945773646235466
-0.7978808283805847,1.4015216827392578,0.04241694509983063
-0.7841587066650391,1.3553935289382935,0.040400248020887375
-0.8049576878547668,1.3704123497009277,0.04019831493496895
-0.8300144672393799,1.3919085264205933,0.04014899954199791
-0.8740028738975525,1.4429497718811035,0.04088205471634865
-0.8921249508857727,1.4502140283584595,0.04033279791474342
-0.9014812707901001,1.4444425106048584,0.0393952801823616
-0.8859419226646423,1.3988832235336304,0.037378109991550446
-2.3695309162139893,3.5271105766296387,0.08551818132400513
-1.2030802965164185,1.7653425931930542,0.041602350771427155
-1.2521870136260986,1.8122005462646484,0.04143288731575012
-1.282662034034729,1.8290915489196777,0.04042639955878258
-1.5848082304000854,2.2659919261932373,-0.04843766614794731
-1.3682273626327515,1.9883882999420166,-0.044306449592113495
-1.3076167106628418,1.9304178953170776,-0.044669728726148605
-1.311073660850525,1.965698003768921,-0.04707161709666252
-1.3154128789901733,2.0049266815185547,-0.04960791394114494
-1.2568329572677612,1.9451615810394287,-0.049548812210559845
-1.242730975151062,1.9541590213775635,-0.05118139460682869
-0.8619853258132935,1.4228402376174927,-0.040139295160770416
-0.8294034600257874,1.3922722339630127,-0.04016133397817612
-0.8234752416610718,1.4048177003860474,-0.04136810079216957
-0.8472387790679932,1.49472177028656,-0.04576804116368294
-0.9751868844032288,1.7497642040252686,-0.0545530840754509
-1.6275032758712769,2.968540906906128,-0.09413785487413406
-1.6358052492141724,3.035074472427368,-0.09783650934696198
-1.5875515937805176,2.998811721801758,-0.09824010729789734
-1.6438778638839722,3.1588032245635986,-0.10504080355167389
-1.607636570930481,3.1422905921936035,-0.10601645708084106
-1.584809422492981,3.1538021564483643,-0.1078767478466034
-1.561783790588379,3.1652040481567383,-0.10972940921783447
-1.5460413694381714,3.1902236938476562,-0.11203116923570633
-1.5271592140197754,3.207892894744873,-0.11405878514051437
-1.5038414001464844,3.218827962875366,-0.11580125242471695
-1.7569695711135864,3.832942485809326,-0.13950064778327942
-1.7430342435836792,3.873502016067505,-0.14252983033657074
-1.7255771160125732,3.906857490539551,-0.1453142613172531
-1.710961937904358,3.9515233039855957,-0.148501917719841
-1.6885241270065308,3.9780592918395996,-0.1509951949119568
-1.6605188846588135,3.989757537841797,-0.15290069580078125
-1.6385436058044434,4.015629768371582,-0.15535111725330353
-1.6128103733062744,4.034371852874756,-0.15748342871665955
-1.5803552865982056,4.038740158081055,-0.1590481847524643
-1.560012698173523,4.071662425994873,-0.16170734167099
-1.5288578271865845,4.075055122375488,-0.1631811559200287
-1.4975864887237549,4.078265190124512,-0.16462348401546478
-1.4735668897628784,4.103532314300537,-0.1668715924024582
-1.451347827911377,4.136202812194824,-0.16946133971214294
-1.4199720621109009,4.138760089874268,-0.17077338695526123
-1.3911131620407104,4.148482322692871,-0.17238721251487732
-1.365328311920166,4.1692986488342285,-0.1743987798690796
-1.3379156589508057,4.18630838394165,-0.17622686922550201
-1.3042443990707397,4.1845927238464355,-0.1772850900888443
-1.2682976722717285,4.1710944175720215,-0.1778051257133484
-1.2303828001022339,4.149816036224365,-0.1779884248971939
-1.192184567451477,4.128404140472412,-0.17802231013774872
-1.1554092168807983,4.110418796539307,-0.1781998872756958
-1.1224197149276733,4.103311061859131,-0.1788359135389328
-1.0783107280731201,4.054518699645996,-0.1776554137468338
-1.0323772430419922,3.9938862323760986,-0.1758912056684494
-1.0277758836746216,4.0956902503967285,-0.18118725717067719
-0.9756648540496826,4.008019924163818,-0.17810918390750885
-0.9305986166000366,3.9425253868103027,-0.17598140239715576
-0.9079034328460693,3.971787691116333,-0.17809195816516876
-0.8818018436431885,3.985612154006958,-0.17946676909923553
-0.8266856670379639,3.86576771736145,-0.17472076416015625
-0.8025387525558472,3.886751413345337,-0.1763290911912918
-0.7677702307701111,3.853945016860962,-0.17549452185630798
-0.7213660478591919,3.7595958709716797,-0.17185147106647491
-0.6717033982276917,3.6378707885742188,-0.16686607897281647
-0.644661009311676,3.6348016262054443,-0.16722244024276733
-0.6353954672813416,3.7353947162628174,-0.1723678559064865
-0.6105825304985046,3.7474050521850586,-0.17344330251216888
-0.5726608037948608,3.6783370971679688,-0.17077259719371796
-0.5435312986373901,3.659055471420288,-0.17035715281963348
-0.5199708342552185,3.678215503692627,-0.17164494097232819
-0.4909776449203491,3.658550500869751,-0.1711285412311554
-0.46445053815841675,3.6541194915771484,-0.1713266372680664
-0.2767031490802765,2.3051443099975586,-0.10833857208490372
-0.40913403034210205,3.625335693359375,-0.17077887058258057
-0.3820590078830719,3.612575054168701,-0.17045475542545319
-0.3536505103111267,3.5840816497802734,-0.16939303278923035
-0.32863739132881165,3.586442708969116,-0.16979394853115082
-0.30035120248794556,3.5497467517852783,-0.16835039854049683
-0.27699506282806396,3.575108528137207,-0.169854074716568
-0.2508748769760132,3.561378240585327,-0.16937074065208435
-0.22418755292892456,3.535778284072876,-0.16832932829856873
-0.19818663597106934,3.513871192932129,-0.16746866703033447
-0.17571192979812622,3.5541207790374756,-0.1695784479379654
-0.14896081387996674,3.516277551651001,-0.16797363758087158
-0.12338767945766449,3.4860281944274902,-0.1666059046983719
-0.10023064911365509,3.525799512863159,-0.1685735583305359
-0.07501886039972305,3.4951999187469482,-0.16718488931655884
-0.05091679468750954,3.511237859725952,-0.16803483664989471
-0.026004193350672722,3.50370192527771,-0.1677665412425995
-0.0015413658693432808,3.42966365814209,-0.16422708332538605
0.022676408290863037,3.4803149700164795,-0.16661794483661652
0.046442534774541855,3.4449617862701416,-0.16489923000335693
0.0706913024187088,3.4601616859436035,-0.16560855507850647
0.09384072571992874,3.42838716506958,-0.16407762467861176
0.1183037981390953,3.4354429244995117,-0.164354145526886
0.1411411315202713,3.4111580848693848,-0.16306433081626892
0.1659073829650879,3.4334895610809326,-0.16401082277297974
0.18849894404411316,3.4088854789733887,-0.16272267699241638
0.21272745728492737,3.4152863025665283,-0.16292284429073334
0.23797468841075897,3.429274797439575,-0.16345937550067902
0.25937652587890625,3.396432399749756,-0.16166751086711884
0.2835751473903656,3.402343273162842,-0.161729633808136
0.30649471282958984,3.3925342559814453,-0.16105203330516815
0.33307236433029175,3.4214069843292236,-0.16221711039543152
0.35725271701812744,3.4189820289611816,-0.16189593076705933
0.3782220780849457,3.3931918144226074,-0.16034027934074402
0.4016371965408325,3.3905210494995117,-0.15988658368587494
0.42606595158576965,3.3954246044158936,-0.15979614853858948
0.4548366367816925,3.4310779571533203,-0.1611541360616684
0.47804704308509827,3.4200632572174072,-0.1603199541568756
0.501630425453186,3.41671085357666,-0.15974795818328857
0.5340918898582458,3.4710471630096436,-0.16185621917247772
0.5568169355392456,3.4595978260040283,-0.16089774668216705
0.5834435224533081,3.4710636138916016,-0.16100913286209106
0.6075620651245117,3.4669511318206787,-0.1604037880897522
0.6318569779396057,3.4626388549804688,-0.1596911996603012
0.6570691466331482,3.465920925140381,-0.15930962562561035
0.6778674125671387,3.446039915084839,-0.15787138044834137
0.711201548576355,3.487154483795166,-0.15922370553016663
0.7322072386741638,3.466886520385742,-0.15777696669101715
0.7606722712516785,3.4807660579681396,-0.15779533982276917
0.7784823179244995,3.448866605758667,-0.1557176113128662
0.8083756566047668,3.470076560974121,-0.15604279935359955
0.8379570841789246,3.4871785640716553,-0.15617457032203674
0.864062488079071,3.4888837337493896,-0.1556187868118286
0.8980704545974731,3.5206196308135986,-0.15629848837852478
0.9290258288383484,3.540874719619751,-0.15643209218978882
0.9634388089179993,3.572150468826294,-0.15704315900802612
0.9882964491844177,3.5654001235961914,-0.155969500541687
1.0334118604660034,3.6297965049743652,-0.15800024569034576
1.0630656480789185,3.637542247772217,-0.15744870901107788
1.081124186515808,3.6078286170959473,-0.15527275204658508
1.1081737279891968,3.607830762863159,-0.1543801724910736
1.1356041431427002,3.6075282096862793,-0.1534663736820221
1.1750617027282715,3.644165515899658,-0.15411849319934845
1.2161623239517212,3.6841862201690674,-0.1547723412513733
1.2436548471450806,3.6832945346832275,-0.153712198138237
1.2740975618362427,3.6894545555114746,-0.15293268859386444
1.3465460538864136,3.8130526542663574,-0.15697577595710754
1.360920786857605,3.7706797122955322,-0.15413928031921387
1.4269099235534668,3.871321439743042,-0.1570478081703186
1.4411605596542358,3.82858943939209,-0.1541024148464203
1.480308175086975,3.851350784301758,-0.15379083156585693
1.5598242282867432,3.9754769802093506,-0.15747810900211334
1.6028262376785278,4.004693984985352,-0.1572839319705963
1.6106078624725342,3.9468839168548584,-0.15364515781402588
1.6574550867080688,3.9825382232666016,-0.1536112129688263
1.7125288248062134,4.035686016082764,-0.15421800315380096
1.1266480684280396,2.604929208755493,-0.09859680384397507
1.1503758430480957,2.611658811569214,-0.09785313904285431
1.156689167022705,2.5789947509765625,-0.09564083069562912
1.1765373945236206,2.57434344291687,-0.094425730407238
1.1894843578338623,2.5555222034454346,-0.09271571040153503
1.1932271718978882,2.51930832862854,-0.090349480509758
1.196480631828308,2.483187198638916,-0.08801015466451645
1.2067005634307861,2.4609029293060303,-0.08615007251501083
1.2153750658035278,2.434879779815674,-0.08414861559867859
1.2211027145385742,2.405817747116089,-0.08204108476638794
1.2549766302108765,2.4323904514312744,-0.08181636780500412
1.2571361064910889,2.396104335784912,-0.07944130897521973
1.2590644359588623,2.359792470932007,-0.07708125561475754
1.2747838497161865,2.3513853549957275,-0.07561992108821869
1.286786675453186,2.3359739780426025,-0.0739114060997963
1.2990576028823853,2.3202741146087646,-0.07217185199260712
1.2977445125579834,2.280707359313965,-0.06970485299825668
1.3087748289108276,2.2654268741607666,-0.0679670199751854
1.3197968006134033,2.2500195503234863,-0.06622418016195297
1.331689715385437,2.233961343765259,-0.06438488513231277
1.350813865661621,2.231630563735962,-0.06295853108167648
1.3530853986740112,2.202847719192505,-0.06078203395009041
1.368070363998413,2.1936187744140625,-0.05909924954175949
1.3748948574066162,2.1709253787994385,-0.05703415349125862
1.393394112586975,2.168433904647827,-0.05545679107308388
1.395038366317749,2.1395015716552734,-0.053195469081401825
1.4141868352890015,2.1363115310668945,-0.051522716879844666
1.4279606342315674,2.1271729469299316,-0.049693815410137177
1.4265960454940796,2.0951380729675293,-0.047298260033130646
1.452489972114563,2.1010990142822266,-0.045649394392967224
1.450120449066162,2.0694806575775146,-0.04321058839559555
1.454837679862976,2.047072410583496,-0.04090588912367821
1.454874873161316,2.018267869949341,-0.03842952847480774
1.458227276802063,1.9965715408325195,-0.03611080348491669
1.4859994649887085,2.0052742958068848,-0.03412114083766937
3.182356357574463,4.450745582580566,0.1159130334854126
3.154283285140991,4.484878063201904,0.12138897180557251
2.624509572982788,3.787750720977783,0.10597603023052216
2.587571620941162,3.7940762042999268,0.10953401774168015
3.135624647140503,4.672595500946045,0.13890793919563293
3.1244945526123047,4.726795196533203,0.14425520598888397
3.099104404449463,4.766648292541504,0.1492336392402649
3.116255521774292,4.87161111831665,0.15616726875305176
1.642037034034729,2.6067872047424316,0.08538684993982315
1.6186505556106567,2.6121182441711426,0.08734368532896042
1.5786993503570557,2.5907669067382812,0.08836323767900467
2.762190580368042,4.762039661407471,0.1711203157901764
1.4007642269134521,2.4552228450775146,0.08961443603038788
2.46720814704895,4.395213603973389,0.16282816231250763
2.4457995891571045,4.433821201324463,0.16663989424705505
2.4128785133361816,4.451710224151611,0.16962267458438873
2.416360378265381,4.533939838409424,0.17498335242271423
2.4607675075531006,4.695812702178955,0.18350906670093536
2.458422899246216,4.776097774505615,0.18886208534240723
2.3854970932006836,4.7211480140686035,0.188899427652359
2.3245859146118164,4.681692600250244,0.18935905396938324
1.2478324174880981,2.557563304901123,0.10454775393009186
1.232634425163269,2.573523998260498,0.10624879598617554
1.195509433746338,2.5435545444488525,0.10602973401546478
1.1807328462600708,2.558992385864258,0.10766389966011047
1.167407512664795,2.57790207862854,0.10945644974708557
1.1617265939712524,2.614619016647339,0.11197666078805923
1.1520131826400757,2.644422769546509,0.11418937146663666
2.061950206756592,4.827807426452637,0.21016305685043335
2.034269094467163,4.8563690185546875,0.21305398643016815
2.011625051498413,4.899460792541504,0.21663646399974823
1.989195466041565,4.946395397186279,0.2202426940202713
1.9804047346115112,5.029606342315674,0.22549767792224884
2.0149428844451904,5.225481986999512,0.2358536720275879
1.9978067874908447,5.290403366088867,0.2403542399406433
1.9748859405517578,5.344691276550293,0.2444055825471878
1.9495407342910767,5.395406246185303,0.24818360805511475
1.905369758605957,5.394514083862305,0.24960649013519287
1.8699923753738403,5.415042400360107,0.2519921362400055
1.8659558296203613,5.527663230895996,0.2586914300918579
1.8544363975524902,5.626025676727295,0.2647523581981659
1.9143667221069336,5.951152801513672,0.2814249098300934
1.8808746337890625,5.994453430175781,0.2848651111125946
1.8445738554000854,6.026035785675049,0.2877372205257416
1.3237780332565308,4.4345574378967285,0.21275430917739868
1.2927682399749756,4.443628311157227,0.21417149901390076
1.2604399919509888,4.452842712402344,0.2154909372329712
1.2285832166671753,4.461674213409424,0.21678850054740906
1.203258991241455,4.492749214172363,0.21916741132736206
1.679274320602417,6.449355125427246,0.31586214900016785
0.8190814256668091,3.2379655838012695,0.15921317040920258
1.5661245584487915,6.385228633880615,0.3150230646133423
0.7950419187545776,3.3442161083221436,0.1655379980802536
1.4612873792648315,6.3458333015441895,0.3151608109474182
1.4094257354736328,6.321504592895508,0.3149872422218323
1.350571632385254,6.262438774108887,0.31308111548423767
1.3040447235107422,6.264252185821533,0.31408801674842834
1.2418873310089111,6.185306549072266,0.31093907356262207
1.1897478103637695,6.151777744293213,0.3100728988647461
0.8083509206771851,4.341819763183594,0.2194206565618515
0.789788544178009,4.412585258483887,0.22359126806259155
0.7584662437438965,4.418033599853516,0.22445540130138397
0.7228202223777771,4.396295547485352,0.2237824648618698
0.6959561705589294,4.428239345550537,0.22585387527942657
0.9124379754066467,6.084266662597656,0.3109389543533325
0.8552138805389404,5.986141204833984,0.3065435290336609
0.8091362118721008,5.964937210083008,0.306100070476532
0.7673656940460205,5.970413684844971,0.30689719319343567
0.7224695086479187,5.952398300170898,0.3064034581184387
0.5760806202888489,5.04257869720459,0.25994786620140076
0.5504075884819031,5.135663986206055,0.26514095067977905
0.5189528465270996,5.182034969329834,0.26794376969337463
0.3847016990184784,4.136786937713623,0.21424037218093872
0.3517032861709595,4.092722415924072,0.21215592324733734
0.3306722640991211,4.192295074462891,0.2175169140100479
0.3006744384765625,4.186714172363281,0.2174372524023056
0.2698436379432678,4.161433696746826,0.21634085476398468
0.24288874864578247,4.20605993270874,0.21889442205429077
0.3946051001548767,7.772433280944824,0.40487775206565857
0.3409925401210785,7.790574073791504,0.4059741497039795
0.2849953770637512,7.749869346618652,0.40402325987815857
0.22985468804836273,7.712658882141113,0.40227174758911133
0.17475220561027527,7.690677642822266,0.4013359248638153
0.12091252952814102,7.664388179779053,0.40018948912620544
0.06732651591300964,7.626028537750244,0.3982886075973511
0.01419736910611391,7.595106601715088,0.3966223895549774
-0.038501348346471786,7.579420566558838,0.39577123522758484
-0.0918278619647026,7.551655292510986,0.39430856704711914
-0.14378070831298828,7.519633769989014,0.3926430940628052
-0.19529235363006592,7.487255573272705,0.3909779489040375
-0.24640445411205292,7.458438873291016,0.3893161118030548
-0.29856446385383606,7.464358329772949,0.38939368724823
-0.3503778278827667,7.462122440338135,0.3890646994113922
-0.29235920310020447,5.410557270050049,0.28195610642433167
-0.33128517866134644,5.4317755699157715,0.2829347550868988
-0.3673999309539795,5.406004905700684,0.28147920966148376
-0.40354594588279724,5.387802600860596,0.2802237570285797
-0.4400232136249542,5.377141952514648,0.27935805916786194
-0.47534114122390747,5.346745014190674,0.27747678756713867
-0.44437816739082336,4.632699012756348,0.24017225205898285
-0.4753669798374176,4.617877960205078,0.2391681671142578
-0.5065435171127319,4.6067352294921875,0.23833602666854858
-0.5364348292350769,4.587669372558594,0.2369648516178131
-0.5647533535957336,4.552852153778076,0.23478832840919495
-0.2996082901954651,2.286041259765625,0.11770840734243393
-0.3229716718196869,2.338020086288452,0.12020323425531387
-0.3347139060497284,2.3048503398895264,0.11832452565431595
-0.34825655817985535,2.287076473236084,0.1172003522515297
-0.35744813084602356,2.242232084274292,0.11464828252792358
-0.3747425079345703,2.251291275024414,0.11486562341451645
-0.3902865946292877,2.2486679553985596,0.1144893541932106
-0.41147270798683167,2.2766308784484863,0.11567090451717377
-4.563896656036377,24.286420822143555,1.2314163446426392
-0.4443517029285431,2.2784359455108643,0.11521346867084503
-0.7448028326034546,3.6825690269470215,0.18568868935108185
-0.7667716145515442,3.662153720855713,0.18415065109729767
-0.9300524592399597,4.293587684631348,0.21530699729919434
-0.9683290123939514,4.3251543045043945,0.21629813313484192
-0.9981155395507812,4.31842565536499,0.2153330147266388
-1.0279252529144287,4.311481952667236,0.21425049006938934
-1.0553404092788696,4.296870708465576,0.21281027793884277
-1.0743162631988525,4.247961521148682,0.2096816450357437
-1.0979000329971313,4.217793941497803,0.20749111473560333
-1.1362533569335938,4.244040489196777,0.20808404684066772
-1.1634832620620728,4.228623867034912,0.20649076998233795
-1.1963518857955933,4.235722541809082,0.20599621534347534
-1.2196727991104126,4.208817005157471,0.20385585725307465
-1.2467478513717651,4.19279670715332,0.2022363394498825
-1.2691059112548828,4.161672592163086,0.19990411400794983
-1.3027665615081787,4.1676788330078125,0.19926784932613373
-1.328534483909607,4.15140962600708,0.19752226769924164
-1.354178547859192,4.134970188140869,0.19577978551387787
-1.3828006982803345,4.125554084777832,0.19435809552669525
-1.4088623523712158,4.108543872833252,0.19258850812911987
-1.4344236850738525,4.091487884521484,0.19078105688095093
-1.464998722076416,4.089004993438721,0.18955768644809723
-1.4843864440917969,4.057153224945068,0.18700487911701202
-1.5150697231292725,4.054201602935791,0.1857677400112152
-1.5376429557800293,4.029061794281006,0.18351662158966064
-1.5623937845230103,4.011226177215576,0.18156976997852325
-1.583878993988037,3.9860754013061523,0.17919813096523285
-1.6134597063064575,3.9826927185058594,0.1778351366519928
-1.6409763097763062,3.9715123176574707,0.17608948051929474
-1.6580359935760498,3.9348671436309814,0.17322078347206116
-1.6632980108261108,3.8733253479003906,0.16923578083515167
-1.6926957368850708,3.869171380996704,0.16770242154598236
-1.7281594276428223,3.8791937828063965,0.16679711639881134
-1.7550822496414185,3.867168664932251,0.16489656269550323
-1.7885029315948486,3.869114875793457,0.1635930836200714
-1.814314842224121,3.8571624755859375,0.16161085665225983
-1.8369464874267578,3.83786678314209,0.15928570926189423
-1.8630213737487793,3.825361967086792,0.15724053978919983
-1.8930561542510986,3.8193893432617188,0.15543441474437714
-1.9014801979064941,3.771620988845825,0.15190821886062622
-1.9191827774047852,3.745192527770996,0.14921103417873383
-1.9404938220977783,3.7254796028137207,0.14677925407886505
-1.9705121517181396,3.718618392944336,0.1447555273771286
-1.992415428161621,3.6981499195098877,0.14222656190395355
-1.7017849683761597,3.1097121238708496,0.11806686222553253
-1.7108690738677979,3.0780248641967773,0.11533822119235992
-1.7246081829071045,3.052500009536743,0.11277501285076141
-0.8360532522201538,1.4558695554733276,0.052999481558799744
-0.8376671075820923,1.4369287490844727,0.051512815058231354
-0.8431638479232788,1.4246795177459717,0.05026944726705551
-0.885280430316925,1.472335696220398,0.05106811225414276
-0.8789812922477722,1.4396672248840332,0.049056485295295715
-0.8884662985801697,1.4338706731796265,0.04794689640402794
-0.8981149792671204,1.427884578704834,0.046813465654850006
-0.8638530373573303,1.3525538444519043,0.043429240584373474
-0.8319538831710815,1.2662780284881592,0.03887777030467987
-1.3145725727081299,1.9159713983535767,0.05426634103059769
-1.2252113819122314,1.7594149112701416,0.04828153923153877
-1.3418095111846924,1.9352918863296509,-0.0492502897977829
-1.2728220224380493,1.8641905784606934,-0.04935167357325554
-1.1417077779769897,1.6982420682907104,-0.04662887379527092
-1.3442400693893433,2.0325076580047607,-0.05777941271662712
-1.4107471704483032,2.1662936210632324,-0.0635393038392067
-1.148348093032837,1.7918171882629395,-0.0541255883872509
-0.7959654331207275,1.325630784034729,-0.044321946799755096
-0.770831286907196,1.3042062520980835,-0.044542957097291946
-0.8859878182411194,1.5756832361221313,-0.057088568806648254
-1.2734297513961792,2.3027939796447754,-0.0849609375
-1.6536660194396973,3.0426125526428223,-0.11419384926557541
-2.02488374710083,3.791520833969116,-0.14468920230865479
-2.0020809173583984,3.8123247623443604,-0.14775128662586212
-1.941224217414856,3.7602779865264893,-0.14794625341892242
-1.9132462739944458,3.774482011795044,-0.15069039165973663
-1.8895305395126343,3.7950267791748047,-0.15363088250160217
-1.8801822662353516,3.843066930770874,-0.15765008330345154
-1.8495835065841675,3.849120616912842,-0.1599399447441101
-1.8182384967803955,3.855289936065674,-0.16218392550945282
-1.8053545951843262,3.899980306625366,-0.16603989899158478
-1.7664004564285278,3.8876798152923584,-0.16745980083942413
-1.5275402069091797,3.4258086681365967,-0.14921851456165314
-1.5543620586395264,3.554673910140991,-0.1564827263355255
-1.561161994934082,3.640951633453369,-0.16195598244667053
-1.6583393812179565,3.9430480003356934,-0.17715494334697723
-1.426446795463562,3.4603192806243896,-0.15702491998672485
-1.3634871244430542,3.3763301372528076,-0.1546197235584259
-1.3334152698516846,3.3714523315429688,-0.15579886734485626
-1.3423335552215576,3.4642701148986816,-0.1614830046892166
-1.541133165359497,4.060858249664307,-0.19092607498168945
-1.4831417798995972,3.9949951171875,-0.1893719732761383
-1.4291647672653198,3.9357361793518066,-0.18803223967552185
-1.401360034942627,3.945629596710205,-0.18995705246925354
-1.3905404806137085,4.003104209899902,-0.1941780298948288
-1.3360850811004639,3.9350743293762207,-0.19227153062820435
-1.2509912252426147,3.7742116451263428,-0.18568065762519836
-1.1687496900558472,3.6121952533721924,-0.17890745401382446
-1.1776249408721924,3.7280750274658203,-0.18585681915283203
-1.1423848867416382,3.706292152404785,-0.1859789341688156
-1.1116269826889038,3.69926381111145,-0.18674403429031372
-1.07865309715271,3.684551954269409,-0.18707899749279022
-1.0382163524627686,3.6433637142181396,-0.1860683113336563
-1.0044845342636108,3.620354413986206,-0.18593710660934448
-0.9812927842140198,3.6347200870513916,-0.18772798776626587
-0.9446238875389099,3.600006580352783,-0.18683621287345886
-0.9074901342391968,3.5611894130706787,-0.18571627140045166
-0.8736148476600647,3.53342866897583,-0.1851676106452942
-0.8362879753112793,3.4862451553344727,-0.18356476724147797
-0.8066383004188538,3.4691367149353027,-0.1835155487060547
-0.7761017680168152,3.448056221008301,-0.1831354796886444
-0.740095853805542,3.4000368118286133,-0.18131664395332336
-0.7174749970436096,3.4128005504608154,-0.18274393677711487
-0.6906161904335022,3.4023635387420654,-0.18291902542114258
-0.6615846753120422,3.3802566528320312,-0.18243016302585602
-0.6276347041130066,3.3311240673065186,-0.18035943806171417
-0.6041144728660583,3.3354251384735107,-0.1811821460723877
-0.575714111328125,3.3126890659332275,-0.18054483830928802
-0.5501094460487366,3.3011767864227295,-0.18050724267959595
-0.5282815098762512,3.3125979900360107,-0.1816956251859665
-0.4990788996219635,3.2776377201080322,-0.18024210631847382
-0.48159489035606384,3.319633722305298,-0.18302956223487854
-0.4484524428844452,3.2533788681030273,-0.17985664308071136
-0.42585813999176025,3.256377696990967,-0.1805005967617035
-0.4017679691314697,3.2476141452789307,-0.18046538531780243
-0.3727060854434967,3.196082592010498,-0.17792826890945435
-0.35202905535697937,3.214094638824463,-0.17926745116710663
-0.329585462808609,3.216446876525879,-0.1797427386045456
-0.30308085680007935,3.17984938621521,-0.17805130779743195
-0.2805473208427429,3.177975654602051,-0.17828576266765594
-0.2563557028770447,3.1565229892730713,-0.1773023009300232
-0.23478634655475616,3.166003942489624,-0.1780640333890915
-0.21271654963493347,3.1675453186035156,-0.17838700115680695
-0.1865547001361847,3.106663465499878,-0.17520210146903992
-0.1666375696659088,3.1390228271484375,-0.17727705836296082
-0.14366590976715088,3.1167240142822266,-0.1761191338300705
-0.12253659218549728,3.1332287788391113,-0.17716024816036224
-0.09995976090431213,3.110609292984009,-0.17599725723266602
-0.0781235471367836,3.119027853012085,-0.17660054564476013
-0.05625741928815842,3.1116886138916016,-0.17631816864013672
-0.03446151316165924,3.1003036499023438,-0.17569248378276825
