X,Y,Z
-0.2010938972234726,2.579076051712036,-0.18832847476005554
-0.18526338040828705,2.6114869117736816,-0.19088812172412872
-0.16697825491428375,2.612698554992676,-0.19117914140224457
-0.1492665559053421,2.621553421020508,-0.19203777611255646
-0.13063906133174896,2.614725351333618,-0.19175708293914795
-0.11145646125078201,2.6000003814697266,-0.19082574546337128
-0.09359858185052872,2.608492136001587,-0.1915171891450882
-0.07520049810409546,2.6012837886810303,-0.19106511771678925
-0.05641748383641243,2.5705766677856445,-0.18889494240283966
-0.03853245824575424,2.5708982944488525,-0.18901297450065613
-0.020442863926291466,2.5866854190826416,-0.19020859897136688
-0.002407236024737358,2.563394546508789,-0.18844196200370789
0.015467995777726173,2.571143865585327,-0.1889667958021164
0.0334509052336216,2.578768491744995,-0.18949131667613983
0.0513625293970108,2.578477382659912,-0.18944327533245087
0.06842551380395889,2.5469114780426025,-0.18705269694328308
0.08745965361595154,2.577528953552246,-0.18912287056446075
0.10503802448511124,2.5690901279449463,-0.1883377730846405
0.1232709139585495,2.576096296310425,-0.1886938214302063
0.14162912964820862,2.5829713344573975,-0.18904832005500793
0.15908870100975037,2.574166774749756,-0.1882229447364807
0.17565378546714783,2.549687385559082,-0.18613553047180176
0.1939273327589035,2.556204319000244,-0.18632709980010986
0.21489593386650085,2.5936501026153564,-0.18877670168876648
0.2308153212070465,2.5688400268554688,-0.18670237064361572
0.24863451719284058,2.5672061443328857,-0.18629375100135803
0.26586848497390747,2.5576841831207275,-0.1851881742477417
0.2861049473285675,2.5790600776672363,-0.186333566904068
0.30400168895721436,2.5770509243011475,-0.1857926845550537
0.324829638004303,2.598109483718872,-0.18691937625408173
0.34081774950027466,2.580381155014038,-0.1852404773235321
0.3600099980831146,2.585692882537842,-0.18508407473564148
0.37785038352012634,2.583195924758911,-0.18438535928726196
0.394559383392334,2.5728628635406494,-0.18313567340373993
0.41370224952697754,2.5777974128723145,-0.18297909200191498
0.43159496784210205,2.574913501739502,-0.18225188553333282
0.45065537095069885,2.5796191692352295,-0.18193455040454865
0.4749947786331177,2.610966444015503,-0.18348301947116852
0.501785397529602,2.6536200046539307,-0.18582122027873993
0.5187270641326904,2.6424806118011475,-0.18439030647277832
0.544818639755249,2.677072048187256,-0.18612311780452728
0.5672004222869873,2.6924099922180176,-0.18639013171195984
0.5876501798629761,2.6960737705230713,-0.18583612143993378
0.6080639958381653,2.6996078491210938,-0.1852826029062271
0.6268810033798218,2.6953752040863037,-0.18419881165027618
0.6473998427391052,2.6986143589019775,-0.18359047174453735
0.675247848033905,2.7320330142974854,-0.18493124842643738
0.6971994042396545,2.7386672496795654,-0.18443399667739868
0.7359551787376404,2.8092613220214844,-0.1882290244102478
0.7554904222488403,2.8041574954986572,-0.1869330257177353
0.7779413461685181,2.81023907661438,-0.1863231509923935
0.8013888597488403,2.8199522495269775,-0.18588091433048248
0.8297438025474548,2.844339370727539,-0.1863764226436615
0.8584532737731934,2.8684749603271484,-0.18684245645999908
0.8864179253578186,2.8886141777038574,-0.18703417479991913
0.910883903503418,2.8974485397338867,-0.18638691306114197
0.9330059885978699,2.898699998855591,-0.18521356582641602
0.9629999995231628,2.921844244003296,-0.18540059030056
0.983344316482544,2.915168285369873,-0.18369430303573608
1.0061243772506714,2.915743827819824,-0.1824425756931305
1.0181267261505127,2.886889934539795,-0.1792515516281128
1.0430256128311157,2.894685745239258,-0.1783464401960373
1.077872633934021,2.927762031555176,-0.17895495891571045
1.1521660089492798,3.0625193119049072,-0.18566259741783142
1.1941289901733398,3.109276533126831,-0.18691036105155945
1.2208728790283203,3.115762233734131,-0.18565358221530914
1.2638260126113892,3.1618106365203857,-0.18671506643295288
1.2917263507843018,3.1675026416778564,-0.18532969057559967
1.345546841621399,3.2340571880340576,-0.18742147088050842
1.3703891038894653,3.23222279548645,-0.18543945252895355
1.1276607513427734,2.6106598377227783,-0.14826233685016632
1.148898720741272,2.6100234985351562,-0.14666464924812317
1.1574673652648926,2.580714464187622,-0.14346641302108765
1.170346975326538,2.562152624130249,-0.14080223441123962
1.190834879875183,2.5614142417907715,-0.1391390562057495
1.2201118469238281,2.5779614448547363,-0.13836288452148438
1.2380378246307373,2.5695154666900635,-0.1362150013446808
1.772375464439392,3.615778684616089,-0.18922707438468933
1.8038849830627441,3.6177759170532227,-0.18679459393024445
1.9027738571166992,3.7516591548919678,-0.19104644656181335
1.939614176750183,3.759284019470215,-0.1887136846780777
1.3776664733886719,2.626525402069092,-0.12990416586399078
1.38408625125885,2.59676194190979,-0.12648393213748932
1.3628345727920532,2.5152587890625,-0.12055770307779312
1.3259702920913696,2.406541347503662,-0.11340935528278351
1.3095653057098389,2.3398654460906982,-0.10836780071258545
1.3076364994049072,2.3007285594940186,-0.10467154532670975
1.31968355178833,2.2849369049072266,-0.10197572410106659
1.3353979587554932,2.2758946418762207,-0.09958083182573318
1.334598422050476,2.24019455909729,-0.0959877222776413
1.3456063270568848,2.224583148956299,-0.0932759940624237
1.3570055961608887,2.2085938453674316,-0.09049063175916672
1.3551164865493774,2.1731338500976562,-0.08692453056573868
1.3776980638504028,2.1774895191192627,-0.0849500522017479
1.3930610418319702,2.167797088623047,-0.08225119858980179
1.4032766819000244,2.1519808769226074,-0.07936446368694305
1.4020582437515259,2.1201791763305664,-0.07591761648654938
1.4123866558074951,2.1040122509002686,-0.07289361953735352
1.4374568462371826,2.1107242107391357,-0.07063337415456772
1.4556699991226196,2.107797622680664,-0.06797085702419281
1.4546259641647339,2.0753209590911865,-0.06421267986297607
1.459060549736023,2.053163528442383,-0.060822878032922745
1.4587726593017578,2.0246469974517822,-0.05719327554106712
1.4541690349578857,1.9894747734069824,-0.053268298506736755
1.4758117198944092,1.993028998374939,-0.05040537565946579
3.17512845993042,4.445052623748779,0.15679728984832764
2.47882080078125,3.5217647552490234,0.12884093821048737
2.507723569869995,3.6204378604888916,0.1370920091867447
2.5203564167022705,3.6968295574188232,0.1444544792175293
2.4313669204711914,3.6201517581939697,0.14553652703762054
3.1415836811065674,4.755787372589111,0.19640032947063446
3.1062722206115723,4.778676986694336,0.20236104726791382
3.072812795639038,4.800021171569824,0.20797580480575562
1.6408615112304688,2.6063709259033203,0.1154116690158844
1.6217052936553955,2.6182026863098145,0.11833082884550095
1.5830528736114502,2.5960168838500977,0.11957679688930511
2.0712857246398926,3.4546327590942383,0.16206622123718262
2.031367778778076,3.4464104175567627,0.1645110696554184
2.0151376724243164,3.473827600479126,0.16844873130321503
1.9905530214309692,3.4878125190734863,0.17173708975315094
1.9702434539794922,3.512594699859619,0.17548677325248718
1.9553982019424438,3.5474770069122314,0.17976577579975128
2.626192808151245,4.843900680541992,0.24870231747627258
2.5603225231170654,4.803784370422363,0.2497812807559967
2.5174124240875244,4.808589935302734,0.2530578374862671
2.4486100673675537,4.76056432723999,0.253449946641922
2.384845495223999,4.71842098236084,0.254033625125885
2.3373847007751465,4.707091331481934,0.2561367154121399
1.2633230686187744,2.5916919708251953,0.14245465397834778
1.2376925945281982,2.586634874343872,0.14358416199684143
1.2030431032180786,2.559788465499878,0.14342577755451202
1.1802595853805542,2.5573883056640625,0.14461883902549744
1.1660213470458984,2.5766642093658447,0.14696091413497925
1.1534794569015503,2.599285125732422,0.14949195086956024
1.1289329528808594,2.592935800552368,0.15031801164150238
1.5904309749603271,3.723398447036743,0.21754655241966248
2.038503885269165,4.867780685424805,0.28651586174964905
2.0157368183135986,4.915042400360107,0.2913525402545929
1.988940715789795,4.951005458831787,0.29550573229789734
1.981524109840393,5.033536434173584,0.30242064595222473
2.0109407901763916,5.214444160461426,0.31535428762435913
1.9996337890625,5.2978997230529785,0.3223271369934082
1.9713687896728516,5.341579437255859,0.32690927386283875
1.94635009765625,5.3920578956604,0.3318929374217987
1.9061307907104492,5.397971153259277,0.3341114819049835
1.892652153968811,5.480989933013916,0.3411404490470886
1.867087960243225,5.534881591796875,0.3461955785751343
1.838652491569519,5.585299968719482,0.35106512904167175
1.9132845401763916,5.954492092132568,0.376061350107193
1.8787479400634766,5.989838600158691,0.3800642788410187
1.8517429828643799,6.0511040687561035,0.3857536315917969
1.8320338726043701,6.142436504364014,0.3931950330734253
1.7922310829162598,6.170257568359375,0.39653709530830383
1.7674477100372314,6.25425910949707,0.4035530090332031
1.7300455570220947,6.288821220397949,0.40735456347465515
1.7113970518112183,6.394717216491699,0.4158257842063904
1.6741480827331543,6.4366536140441895,0.42005297541618347
1.6300678253173828,6.455861568450928,0.42267027497291565
0.44860029220581055,1.8326832056045532,0.120386503636837
0.4411727786064148,1.8584942817687988,0.1224762350320816
0.42910823225975037,1.8652780055999756,0.12332143634557724
0.41526082158088684,1.8643770217895508,0.1236591562628746
0.40198931097984314,1.867250680923462,0.12415812164545059
0.3853074014186859,1.8548084497451782,0.12364763021469116
0.3660869896411896,1.8268722295761108,0.12209498137235641
0.3518737256526947,1.8216919898986816,0.12205883115530014
0.34346890449523926,1.847056269645691,0.12407736480236053
0.3366740942001343,1.8839235305786133,0.1268358826637268
0.32311928272247314,1.8862682580947876,0.1272396296262741
0.31732484698295593,1.9346367120742798,0.1307566612958908
0.9488182067871094,6.049070358276367,0.4096432030200958
0.9014294743537903,6.0207624435424805,0.4085417091846466
0.8572328686714172,6.011383056640625,0.4087376594543457
0.8041760325431824,5.943925857543945,0.404727578163147
0.7572900652885437,5.910728931427002,0.40301039814949036
0.6303617358207703,5.211688995361328,0.3558443486690521
0.5720681548118591,5.022279262542725,0.3433986008167267
0.5491565465927124,5.138461589813232,0.35185685753822327
0.5200160145759583,5.208026885986328,0.3571178615093231
0.38002124428749084,4.101733207702637,0.28148457407951355
0.3505832552909851,4.096503257751465,0.2813611626625061
0.3289065957069397,4.188188552856445,0.28791260719299316
0.2997837960720062,4.190345287322998,0.2883271276950836
0.2683872878551483,4.157298564910889,0.2863309681415558
0.2408837229013443,4.194091320037842,0.2890828847885132
0.39152097702026367,7.7646942138671875,0.5353503227233887
0.3372318148612976,7.767216205596924,0.5357096195220947
0.28201285004615784,7.742095947265625,0.534187376499176
0.2263641655445099,7.681519031524658,0.530241072177887
0.17142309248447418,7.6556315422058105,0.5287169218063354
0.11781793087720871,7.633249759674072,0.5272392630577087
0.06463251262903214,7.626094818115234,0.5266482830047607
0.011516929604113102,7.595188140869141,0.5244428515434265
-0.04114418104290962,7.560015678405762,0.5219689011573792
-0.09467710554599762,7.559537887573242,0.5219156742095947
-0.14651933312416077,7.519737243652344,0.5191733837127686
-0.19815871119499207,7.495185852050781,0.5172523260116577
-0.2493022382259369,7.466393947601318,0.5149414539337158
-0.3006027340888977,7.4489336013793945,0.51343834400177
-0.35336220264434814,7.470055103302002,0.5146199464797974
-0.2956721782684326,5.436143398284912,0.37431663274765015
-0.3324130177497864,5.418424129486084,0.37293365597724915
-0.3687921464443207,5.400483131408691,0.37131965160369873
-0.40484315156936646,5.3823089599609375,0.3696575462818146
-0.44135376811027527,5.3716583251953125,0.36853092908859253
-0.47410082817077637,5.310220718383789,0.3639336824417114
-0.44307994842529297,4.600804805755615,0.31500279903411865
-0.47746971249580383,4.620906352996826,0.3160816729068756
-0.5075972080230713,4.602062225341797,0.3142737150192261
-0.5365741848945618,4.575281620025635,0.31193846464157104
-0.5676789283752441,4.563723564147949,0.3106508255004883
-0.5962962508201599,4.536539554595947,0.30832287669181824
-0.626702606678009,4.524620532989502,0.30705055594444275
-0.6568928956985474,4.512513160705566,0.3057381510734558
-0.6877802014350891,4.507974147796631,0.3047660291194916
-0.71486896276474,4.476198196411133,0.3019595146179199
-0.7469223141670227,4.47892951965332,0.3015066087245941
-0.776775062084198,4.466002941131592,0.30000585317611694
-0.8050504922866821,4.445214748382568,0.2979956865310669
-0.8342717885971069,4.431962966918945,0.2964071035385132
-0.8533508777618408,4.368849754333496,0.2913920283317566
-0.7452009916305542,3.6790378093719482,0.24471308290958405
-0.7689571976661682,3.6662468910217285,0.24320991337299347
-0.944025993347168,4.3503947257995605,0.2878267168998718
-0.9758844971656799,4.351428031921387,0.2871396541595459
-1.000257134437561,4.321975231170654,0.2842876613140106
-1.0301285982131958,4.3150458335876465,0.28288179636001587
-1.0556936264038086,4.292895793914795,0.28051161766052246
-1.0797429084777832,4.262876510620117,0.2776280641555786
-1.1112531423568726,4.262920379638672,0.27672040462493896
-1.1406327486038208,4.255247592926025,0.2752660810947418
-1.1657750606536865,4.232359409332275,0.27268412709236145
-1.1965502500534058,4.231966972351074,0.27158409357070923
-1.220162034034729,4.205028057098389,0.26878124475479126
-1.249372959136963,4.196545124053955,0.2671626806259155
-1.271693468093872,4.1654839515686035,0.2641253173351288
-1.298061728477478,4.149285793304443,0.2618619501590729
-1.3236770629882812,4.1331095695495605,0.2596140503883362
-1.351747989654541,4.124126434326172,0.2578238844871521
-1.380427360534668,4.114730358123779,0.25599080324172974
-1.4064724445343018,4.097769260406494,0.25370338559150696
-1.4292289018630981,4.073479652404785,0.2508769631385803
-1.451859712600708,4.049023628234863,0.24797283113002777
-1.4790934324264526,4.039275169372559,0.24601085484027863
-1.5016766786575317,4.014405250549316,0.24310030043125153
-1.5323361158370972,4.011275768280029,0.24152055382728577
-1.5553990602493286,3.989959955215454,0.23876968026161194
-1.586861252784729,3.9902782440185547,0.23721471428871155
-1.616463303565979,3.9869260787963867,0.2354724407196045
-1.6381869316101074,3.9613037109375,0.23236873745918274
-1.6581496000289917,3.9319632053375244,0.22906921803951263
-1.6909593343734741,3.9350883960723877,0.22758108377456665
-1.7082301378250122,3.9022247791290283,0.2239348441362381
-1.7439426183700562,3.912172555923462,0.22277234494686127
-1.7678780555725098,3.8929882049560547,0.21989478170871735
-1.7949057817459106,3.88073992729187,0.21742290258407593
-1.8174198865890503,3.8617682456970215,0.21447183191776276
-1.8400509357452393,3.842531442642212,0.21147342026233673
-1.8593512773513794,3.816021203994751,0.20807527005672455
-1.8789581060409546,3.7891385555267334,0.2046373337507248
-1.9012970924377441,3.7693862915039062,0.20156213641166687
-1.9225678443908691,3.749960422515869,0.19844885170459747
-1.94748854637146,3.7372243404388428,0.19568383693695068
-1.977608561515808,3.730363368988037,0.193093940615654
-1.9960319995880127,3.7029647827148438,0.18948370218276978
-2.050283670425415,3.744699716567993,0.18928523361682892
-1.7144781351089478,3.0832772254943848,0.1539231836795807
-1.7397669553756714,3.078179121017456,0.1516162008047104
-0.8477189540863037,1.4754226207733154,0.07166316360235214
-0.8573390245437622,1.4699161052703857,0.07036604732275009
-0.8629835247993469,1.4576067924499512,0.06874698400497437
-0.8690879344940186,1.4449379444122314,0.0670602098107338
-0.8708248138427734,1.42569100856781,0.06507917493581772
-0.9048587083816528,1.4598100185394287,0.06547126173973083
-0.9020882248878479,1.4339922666549683,0.06314744055271149
-0.8910359740257263,1.394844651222229,0.06023050472140312
-0.9129419326782227,1.408664584159851,0.05959312990307808
-0.9219560623168945,1.4028440713882446,0.05810076370835304
-0.9578567147254944,1.4353259801864624,0.05803065001964569
-2.4405338764190674,3.604675531387329,0.1421850323677063
-1.3455098867416382,1.9320013523101807,0.07215499877929688
-1.3448883295059204,1.903914213180542,0.06895976513624191
-1.3945024013519287,1.9793858528137207,-0.05360217019915581
-1.3525055646896362,1.9514819383621216,-0.055433232337236404
-1.3548457622528076,2.015918016433716,-0.06204327195882797
-1.2773146629333496,1.9314258098602295,-0.061638060957193375
-1.2592788934707642,1.9338438510894775,-0.06379612535238266
-1.3017736673355103,2.031822443008423,-0.06914397329092026
-1.2118415832519531,1.9223480224609375,-0.06735357642173767
-0.8368726968765259,1.4641748666763306,-0.05909862741827965
-2.1065421104431152,3.746389389038086,-0.1541614830493927
-1.7114177942276,3.0950231552124023,-0.12979057431221008
-2.0632777214050293,3.796773910522461,-0.1620517522096634
-2.028409004211426,3.797677755355835,-0.16486787796020508
-2.0054666996002197,3.818519115447998,-0.16845761239528656
-1.971036672592163,3.8186986446380615,-0.17110088467597961
-1.930208444595337,3.8087451457977295,-0.1732746809720993
-1.8996094465255737,3.8152379989624023,-0.17606672644615173
-1.8833123445510864,3.8492543697357178,-0.1800936907529831
-1.8777462244033813,3.9081952571868896,-0.18526680767536163
-1.8426965475082397,3.907447576522827,-0.18759693205356598
-1.5674351453781128,3.385503053665161,-0.1645323932170868
-1.5546523332595825,3.421295404434204,-0.16829034686088562
-1.566733717918396,3.5141594409942627,-0.17482389509677887
-1.4302780628204346,3.271432399749756,-0.1645393967628479
-1.4101277589797974,3.2885477542877197,-0.1671609878540039
-1.4053494930267334,3.3413331508636475,-0.17159923911094666
-1.3663935661315918,3.3151729106903076,-0.17197617888450623
-1.3658835887908936,3.382690906524658,-0.17714400589466095
-1.366144061088562,3.453900098800659,-0.18255677819252014
-1.3505171537399292,3.4850430488586426,-0.18586330115795135
-1.3260809183120728,3.4942996501922607,-0.18800295889377594
-1.312779426574707,3.5366830825805664,-0.1918574422597885
-1.248762607574463,3.439558982849121,-0.18809647858142853
-1.2208681106567383,3.4370357990264893,-0.1894223541021347
-1.1841086149215698,3.4084970951080322,-0.18930326402187347
-1.141133427619934,3.3612892627716064,-0.18801845610141754
-1.1142386198043823,3.361983060836792,-0.18938151001930237
-1.080894112586975,3.3399713039398193,-0.1894226223230362
-1.0376341342926025,3.2840933799743652,-0.18750083446502686
-1.0100984573364258,3.2762506008148193,-0.18827982246875763
-0.9845229983329773,3.2757949829101562,-0.18936403095722198
-0.9447569251060486,3.226482391357422,-0.1876118779182434
-0.9175056219100952,3.218031644821167,-0.1882210671901703
-0.890899658203125,3.2092268466949463,-0.1887856125831604
-0.8622581362724304,3.192728042602539,-0.18882305920124054
-0.8356196880340576,3.1836020946502686,-0.18921436369419098
-0.8063176870346069,3.162909984588623,-0.18891334533691406
-0.7782343029975891,3.1457626819610596,-0.18882130086421967
-0.7562907338142395,3.151035785675049,-0.19006098806858063
-0.7287631630897522,3.1334304809570312,-0.18981966376304626
-0.7005555629730225,3.111818552017212,-0.18928612768650055
-0.6719670295715332,3.0861337184906006,-0.18849627673625946
-0.6405127048492432,3.0449507236480713,-0.18675188720226288
-0.6286609768867493,3.095116376876831,-0.190606027841568
-0.5941620469093323,3.034351348876953,-0.18750403821468353
-0.5698895454406738,3.0230801105499268,-0.18742652237415314
-0.5500560998916626,3.034623384475708,-0.18876884877681732
-0.525894284248352,3.0230207443237305,-0.18868456780910492
-0.5022899508476257,3.011169195175171,-0.1885765790939331
-0.4799000024795532,3.006877899169922,-0.1888040006160736
-0.4575701355934143,3.0024261474609375,-0.1890108585357666
-0.4314829111099243,2.9707911014556885,-0.18750697374343872
-0.40829476714134216,2.9582817554473877,-0.18721680343151093
-0.38667941093444824,2.9532787799835205,-0.1873982697725296
-0.363054484128952,2.932673931121826,-0.1864546686410904
-0.34245672821998596,2.9351181983947754,-0.18696631491184235
-0.3185229003429413,2.906407356262207,-0.18549738824367523
-0.2963024973869324,2.8891310691833496,-0.18475916981697083
-0.2721565365791321,2.8523151874542236,-0.18277902901172638
-0.25153717398643494,2.846358060836792,-0.18263430893421173
-0.22907549142837524,2.8169443607330322,-0.18096698820590973
-0.2105536162853241,2.8340048789978027,-0.18229231238365173
-0.1913571059703827,2.843158721923828,-0.18311898410320282
-0.17077653110027313,2.836637258529663,-0.18294905126094818
-0.15181198716163635,2.8533172607421875,-0.18415634334087372
-0.13191188871860504,2.8542957305908203,-0.1843225508928299
-0.11200550943613052,2.855135202407837,-0.18448875844478607
-0.09214485436677933,2.855834722518921,-0.18465451896190643
-0.07194834202528,2.8564038276672363,-0.18482305109500885
-0.051916323602199554,2.849036931991577,-0.18437783420085907
-0.03215477615594864,2.8571250438690186,-0.18488655984401703
-0.012208198197185993,2.841686964035034,-0.18388189375400543
0.007558765821158886,2.849498987197876,-0.1843906193971634
0.027488112449645996,2.825986385345459,-0.18288148939609528
0.047376152127981186,2.841322898864746,-0.18380987644195557
0.06673505902290344,2.825347423553467,-0.1826479434967041
0.0870654508471489,2.848203659057617,-0.18400487303733826
0.10628018528223038,2.8319578170776367,-0.18284398317337036
0.1256197988986969,2.8233718872070312,-0.18218740820884705
0.14600107073783875,2.830212354660034,-0.18246713280677795
0.16606944799423218,2.8369357585906982,-0.18265357613563538
0.18623799085617065,2.8435168266296387,-0.18283826112747192
0.20402035117149353,2.814957857131958,-0.18077319860458374
0.22174856066703796,2.7901742458343506,-0.1789630949497223
0.24279530346393585,2.8040964603424072,-0.17959780991077423
0.26217374205589294,2.8023808002471924,-0.17913757264614105
0.27920037508010864,2.7772574424743652,-0.17719246447086334
0.3018014132976532,2.806291103363037,-0.1787089854478836
0.32353752851486206,2.823518753051758,-0.17947545647621155
0.3453538119792938,2.8366754055023193,-0.17995212972164154
0.36888787150382996,2.865199327468872,-0.1812886893749237
0.38866087794303894,2.862623929977417,-0.1806604266166687
0.40959396958351135,2.8676202297210693,-0.18051567673683167
0.43187215924263,2.880160093307495,-0.18084849417209625
0.45283183455467224,2.8809280395507812,-0.18041962385177612
0.47898632287979126,2.91626238822937,-0.18203400075435638
0.5016984343528748,2.9283149242401123,-0.18219272792339325
0.5192470550537109,2.909463405609131,-0.18043361604213715
0.5423277616500854,2.92116379737854,-0.18057575821876526
0.5655678510665894,2.932689905166626,-0.1806936115026474
0.5898779630661011,2.9478423595428467,-0.18088902533054352
0.6148619651794434,2.966688394546509,-0.18132206797599792
0.6370154619216919,2.9700469970703125,-0.1808042675256729
0.6577094793319702,2.9655933380126953,-0.17981238663196564
0.6817821264266968,2.976217269897461,-0.17972028255462646
0.7007384896278381,2.9638664722442627,-0.17812049388885498
0.7339775562286377,3.0121009349823,-0.18017196655273438
0.7595726847648621,3.0259251594543457,-0.18014511466026306
0.7844957113265991,3.035743236541748,-0.1798757165670395
0.8114938139915466,3.0529277324676514,-0.18000517785549164
0.8347292542457581,3.054821491241455,-0.17911706864833832
0.8576739430427551,3.056638240814209,-0.17824475467205048
0.8950744867324829,3.106903076171875,-0.18016882240772247
0.9233399629592896,3.123110294342041,-0.18009747564792633
0.9493985176086426,3.131676435470581,-0.17952077090740204
0.9745688438415527,3.1362783908843994,-0.17862483859062195
1.0006988048553467,3.1445021629333496,-0.17795181274414062
0.99478679895401,3.0522406101226807,-0.17160363495349884
0.981441855430603,2.9417190551757812,-0.16430814564228058
1.0015488862991333,2.9350199699401855,-0.1627660095691681
1.0355981588363647,2.9687516689300537,-0.16342854499816895
1.1926050186157227,3.343669891357422,-0.1826709806919098
1.2158763408660889,3.335378408432007,-0.18083001673221588
1.2484978437423706,3.352562427520752,-0.18035361170768738
1.2683825492858887,3.336848258972168,-0.17801469564437866
1.3078893423080444,3.3719322681427,-0.17837592959403992
1.3503386974334717,3.4098803997039795,-0.17879192531108856
1.4076862335205078,3.4837000370025635,-0.18105803430080414
1.4240106344223022,3.456080198287964,-0.17795772850513458
1.4669395685195923,3.4932737350463867,-0.17815493047237396
1.0870225429534912,2.5398058891296387,-0.12826047837734222
1.147109031677246,2.6286988258361816,-0.13139110803604126
1.14138662815094,2.5673458576202393,-0.12699618935585022
1.1698535680770874,2.5846009254455566,-0.12646186351776123
1.1872833967208862,2.5767276287078857,-0.12468137592077255
1.2084941864013672,2.5755605697631836,-0.12318554520606995
1.23334801197052,2.5811538696289062,-0.1219748705625534
1.243752121925354,2.55889892578125,-0.11942297220230103
1.9612939357757568,3.9676225185394287,-0.18283475935459137
1.2084059715270996,2.402392625808716,-0.1092306524515152
1.2143855094909668,2.373182535171509,-0.1064392626285553
1.2625620365142822,2.4274685382843018,-0.1073244959115982
1.2753499746322632,2.4120330810546875,-0.1050657257437706
1.2810202836990356,2.382554292678833,-0.10217702388763428
1.2787131071090698,2.339487314224243,-0.09873998165130615
1.2979456186294556,2.3378891944885254,-0.09703925251960754
1.3135676383972168,2.329230785369873,-0.09502473473548889
1.316443681716919,2.296245574951172,-0.09194362908601761
1.3280354738235474,2.2806127071380615,-0.08959898352622986
1.3310704231262207,2.2517545223236084,-0.08674123138189316
1.34238862991333,2.2360048294067383,-0.08434603363275528
1.3497904539108276,2.2133536338806152,-0.0816749632358551
1.3562581539154053,2.1911303997039795,-0.0789915919303894
1.370776653289795,2.1821556091308594,-0.07679828256368637
1.3733601570129395,2.1528728008270264,-0.07381748408079147
1.3918519020080566,2.1503498554229736,-0.0717606171965599
1.401538610458374,2.1347882747650146,-0.06925588846206665
1.4144402742385864,2.121649980545044,-0.06667003035545349
1.4306305646896362,2.115557909011841,-0.06433859467506409
1.437648892402649,2.0966782569885254,-0.06160301715135574
1.4566632509231567,2.093111991882324,-0.05915692448616028
1.4476810693740845,2.0517921447753906,-0.0556723028421402
1.4386541843414307,2.0103695392608643,-0.0521274097263813
1.4569448232650757,2.006884813308716,-0.049504730850458145
1.460176706314087,1.9852408170700073,-0.04644344002008438
3.1569125652313232,4.449072360992432,0.1372867077589035
3.11871075630188,4.4662251472473145,0.14303596317768097
2.6010563373565674,3.784353494644165,0.12534664571285248
3.178091049194336,4.695123672485352,0.16037479043006897
3.155013084411621,4.73864221572876,0.16657431423664093
3.1057286262512207,4.738257884979248,0.17096827924251556
3.0911808013916016,4.789454460144043,0.1770835518836975
1.6382237672805786,2.5810232162475586,0.09766536206007004
1.6233354806900024,2.5995235443115234,0.10052759945392609
1.6010925769805908,2.6040244102478027,0.10274091362953186
2.070380687713623,3.424300193786621,0.13768963515758514
2.0450549125671387,3.4393579959869385,0.14082598686218262
2.0289201736450195,3.4668827056884766,0.14434932172298431
2.0054025650024414,3.4849185943603516,0.14748938381671906
1.983192801475525,3.506453514099121,0.15069371461868286
1.965685486793518,3.5340538024902344,0.1540825068950653
2.4449729919433594,4.468689441680908,0.19753988087177277
2.447429656982422,4.551573276519775,0.20386242866516113
2.451315402984619,4.642220973968506,0.2106381505727768
2.467031240463257,4.752790927886963,0.21824969351291656
2.419635772705078,4.741913795471191,0.22029945254325867
2.3623619079589844,4.713871479034424,0.22140775620937347
2.303469657897949,4.681961536407471,0.22226263582706451
1.22905695438385,2.5441737174987793,0.12202613800764084
1.2163342237472534,2.5631680488586426,0.1241508349776268
1.1897259950637817,2.5540404319763184,0.12486983090639114
1.1758679151535034,2.573251485824585,0.12694118916988373
1.1573528051376343,2.5815563201904297,0.12846499681472778
1.1424980163574219,2.5966196060180664,0.13030003011226654
1.587813377380371,3.6794116497039795,0.1861826628446579
2.047402858734131,4.840756416320801,0.2467803955078125
2.0240938663482666,4.884222984313965,0.2508469521999359
2.000018358230591,4.923494338989258,0.25466760993003845
1.9771806001663208,4.96619176864624,0.2586849629878998
2.0248897075653076,5.19467830657959,0.2724233567714691
2.0094878673553467,5.267393112182617,0.2779654860496521
1.9836337566375732,5.314547061920166,0.2822011411190033
1.9626059532165527,5.372089862823486,0.2869648039340973
1.9276930093765259,5.392872333526611,0.28979718685150146
1.8911480903625488,5.413934230804443,0.2925577163696289
1.883491039276123,5.519631862640381,0.2998282313346863
1.8499886989593506,5.551390171051025,0.303119421005249
1.8837368488311768,5.786578178405762,0.3175530731678009
1.8978052139282227,5.970420837402344,0.3292906582355499
1.8651200532913208,6.017351150512695,0.33342257142066956
1.8422666788101196,6.097652435302734,0.3393135368824005
1.8084449768066406,6.144250869750977,0.34337034821510315
1.784865140914917,6.224096298217773,0.34928834438323975
1.7529720067977905,6.277591228485107,0.3537681996822357
1.7209858894348145,6.334833145141602,0.358390748500824
1.683770775794983,6.381026268005371,0.3622896671295166
1.651662826538086,6.445685386657715,0.36724984645843506
0.8060517311096191,3.2398505210876465,0.18523593246936798
0.4319964647293091,1.7894837856292725,0.10266878455877304
0.44528520107269287,1.9025496244430542,0.10953164100646973
0.41686350107192993,1.8410298824310303,0.1062852293252945
0.40374305844306946,1.843924880027771,0.10674794763326645
0.3858833312988281,1.8238072395324707,0.10587726533412933
0.3669573664665222,1.7958506345748901,0.10454363375902176
0.35747161507606506,1.8136394023895264,0.10587607324123383
0.3364991545677185,1.7739793062210083,0.10381107777357101
0.3505341708660126,1.922080159187317,0.11271689832210541
0.33557048439979553,1.9168087244033813,0.11265161633491516
0.32090529799461365,1.9113880395889282,0.1125774085521698
0.9797035455703735,6.094881057739258,0.3597715497016907
0.9329399466514587,6.07847261428833,0.35960742831230164
0.8854910135269165,6.053985118865967,0.3586941659450531
0.8325858116149902,5.98663854598999,0.35524916648864746
0.7873627543449402,5.969101905822754,0.35476794838905334
0.748697817325592,5.997600555419922,0.3570338487625122
0.6047737002372742,5.135139465332031,0.3061957359313965
0.5639774799346924,5.100509166717529,0.3045613467693329
0.5345301032066345,5.166375160217285,0.30879542231559753
0.3960913121700287,4.110361576080322,0.2459286004304886
0.36527180671691895,4.089701175689697,0.2449527382850647
0.3447984755039215,4.189273357391357,0.25119394063949585
0.31517359614372253,4.191580295562744,0.25162628293037415
0.28454282879829407,4.1742119789123535,0.2507529854774475
0.25577402114868164,4.183872699737549,0.25145137310028076
0.2288225144147873,4.228374004364014,0.2542574107646942
0.36624792218208313,7.7703070640563965,0.46750131249427795
0.31063947081565857,7.75709342956543,0.46699610352516174
0.25553083419799805,7.723966598510742,0.46530798077583313
0.20095057785511017,7.694368839263916,0.4635337293148041
0.14685148000717163,7.6721882820129395,0.46219149231910706
0.09302402287721634,7.645729064941406,0.46061399579048157
0.03878072276711464,7.6149983406066895,0.4588020443916321
-0.014177764765918255,7.583887100219727,0.45698848366737366
-0.06665448099374771,7.556309700012207,0.4553779065608978
-0.11888747662305832,7.5400872230529785,0.45415717363357544
-0.1706201732158661,7.507908821105957,0.45199844241142273
-0.22206668555736542,7.483174800872803,0.4503115713596344
-0.2739408016204834,7.454159736633301,0.44838714599609375
-0.3263867199420929,7.467676162719727,0.4490463435649872
-0.27288809418678284,5.38572883605957,0.323689341545105
-0.31370747089385986,5.446025371551514,0.32698023319244385
-0.35035061836242676,5.428188323974609,0.3255927264690399
-0.38579967617988586,5.386719703674316,0.3228008449077606
-0.42258766293525696,5.376163005828857,0.32188403606414795
-0.458915114402771,5.3614702224731445,0.3207360804080963
-0.43674004077911377,4.7175421714782715,0.2818897068500519
-0.45957785844802856,4.6174516677856445,0.27549588680267334
-0.4911077618598938,4.606398105621338,0.27442988753318787
-0.5212112665176392,4.587426662445068,0.2729126811027527
-0.5512129068374634,4.568243026733398,0.2713968753814697
-0.5819611549377441,4.556601047515869,0.2703441083431244
-0.6122990846633911,4.544797897338867,0.26914742588996887
-0.6418355107307434,4.525014877319336,0.2674255669116974
-0.6711657643318176,4.508976936340332,0.2659503221511841
-0.7012620568275452,4.496548175811768,0.2646968960762024
-0.7287074327468872,4.4685235023498535,0.26254165172576904
-0.7597612142562866,4.463395595550537,0.26174354553222656
-0.7889584898948669,4.450463771820068,0.260314404964447
-0.8142876029014587,4.414235591888428,0.25752952694892883
-0.8460193872451782,4.416262149810791,0.25700241327285767
-0.7283794283866882,3.6644482612609863,0.2127181738615036
-0.7561122179031372,3.670820713043213,0.2125639170408249
-0.7789372801780701,3.6541335582733154,0.21102221310138702
-0.9485912919044495,4.303805828094482,0.2477417290210724
-0.9847805500030518,4.327740669250488,0.24833926558494568
-1.014580488204956,4.320918560028076,0.24716825783252716
-1.0464571714401245,4.321403503417969,0.24641817808151245
-1.0632808208465576,4.261104583740234,0.24222207069396973
-1.0841116905212402,4.219694137573242,0.23896680772304535
-1.1197527647018433,4.238697528839111,0.23913663625717163
-1.1486278772354126,4.231039524078369,0.23780521750450134
-1.1780019998550415,4.223031044006348,0.23644831776618958
-1.2072809934616089,4.21483039855957,0.23509319126605988
-1.2366931438446045,4.2063751220703125,0.23363839089870453
-1.2594445943832397,4.179337024688721,0.23108837008476257
-1.2853771448135376,4.16335391998291,0.22916527092456818
-1.3140687942504883,4.154471397399902,0.227624773979187
-1.3429243564605713,4.145318508148193,0.22607208788394928
-1.3696281909942627,4.1284403800964355,0.22406569123268127
-1.3949092626571655,4.111820220947266,0.22198441624641418
-1.420028567314148,4.095046043395996,0.21990913152694702
-1.4376310110092163,4.0558929443359375,0.21663305163383484
-1.4710992574691772,4.060567855834961,0.21569590270519257
-1.4992172718048096,4.0503621101379395,0.21397139132022858
-1.5213124752044678,4.025534629821777,0.21132564544677734
-1.5454704761505127,4.008056163787842,0.20910577476024628
-1.5727934837341309,3.9975109100341797,0.20723649859428406
-1.5932832956314087,3.9684720039367676,0.20439985394477844
-1.6281527280807495,3.9754819869995117,0.2034195363521576
-1.6551194190979004,3.9644360542297363,0.20136569440364838
-1.6678136587142944,3.921079397201538,0.19771680235862732
-1.6791149377822876,3.873863458633423,0.19387076795101166
-1.6997454166412354,3.8479011058807373,0.19109228253364563
-1.7485580444335938,3.8860578536987305,0.1914578527212143
-1.781309723854065,3.888439416885376,0.18993650376796722
-1.7906641960144043,3.8412327766418457,0.186036616563797
-1.8172974586486816,3.828813314437866,0.18377579748630524
-1.8540908098220825,3.837264060974121,0.18251267075538635
-1.8694509267807007,3.8038408756256104,0.17917516827583313
-1.8880153894424438,3.7773282527923584,0.17612546682357788
-1.9065295457839966,3.750624656677246,0.17307239770889282
-1.929015874862671,3.7304370403289795,0.17029091715812683
-1.9616631269454956,3.7311341762542725,0.16843073070049286
-1.9861810207366943,3.718254327774048,0.16589994728565216
-2.0183990001678467,3.71875262260437,0.16393907368183136
-1.7126991748809814,3.103022813796997,0.13503313064575195
-1.7262706756591797,3.0777008533477783,0.13218694925308228
-1.7424603700637817,3.059680461883545,0.12961938977241516
-0.8442273139953613,1.459869384765625,0.06097213551402092
-0.8543885350227356,1.4539943933486938,0.05980783700942993
-0.8564253449440002,1.4346877336502075,0.058075569570064545
-0.877875030040741,1.4491686820983887,0.05770856887102127
-0.8916904926300049,1.4499318599700928,0.05674763396382332
-0.8976202607154846,1.4371196031570435,0.055223751813173294
-0.9070494771003723,1.4312355518341064,0.05394810810685158
-0.8847198486328125,1.3760579824447632,0.050827473402023315
-0.8323957324028015,1.2750910520553589,0.04606349393725395
-2.3926925659179688,3.5105037689208984,0.11784001439809799
-1.2750563621520996,1.8433716297149658,0.060140322893857956
-1.3852542638778687,1.9760689735412598,0.06261135637760162
-1.344462275505066,1.9239845275878906,-0.046840425580739975
-1.202272891998291,1.746884822845459,-0.044413160532712936
-1.3353240489959717,1.9728078842163086,-0.05229008570313454
-1.343153476715088,2.014536142349243,-0.05533963069319725
-1.2533822059631348,1.9099804162979126,-0.054282013326883316
-1.292055368423462,2.001234769821167,-0.058727849274873734
-1.2718195915222168,2.000227928161621,-0.06041177734732628
-1.3915513753890991,2.2247328758239746,-0.06909584999084473
-0.8192976117134094,1.3526358604431152,-0.04416689649224281
-0.880107581615448,1.5521419048309326,-0.055214352905750275
-1.1499537229537964,2.063276529312134,-0.07479063421487808
-2.0524632930755615,3.7457377910614014,-0.13823963701725006
-2.0263397693634033,3.75982666015625,-0.14113403856754303
-2.018949270248413,3.8123538494110107,-0.1454857587814331
-1.9801713228225708,3.8061444759368896,-0.1475369930267334
-1.9568349123001099,3.826859474182129,-0.150547057390213
-1.9178370237350464,3.815885066986084,-0.1522827446460724
-1.8988354206085205,3.847048282623291,-0.1556394100189209
-1.8685715198516846,3.857391834259033,-0.1581936478614807
-1.8348606824874878,3.856152057647705,-0.16015014052391052
-1.8228508234024048,3.900550603866577,-0.1640109270811081
-1.7540346384048462,3.824772596359253,-0.16270440816879272
-1.5613809823989868,3.470616340637207,-0.14933088421821594
-1.5117824077606201,3.4242584705352783,-0.14895212650299072
-1.532436728477478,3.5386717319488525,-0.15561537444591522
-1.5711100101470947,3.700357437133789,-0.16437122225761414
-1.4124096632003784,3.3944091796875,-0.15226735174655914
-1.3663525581359863,3.3499832153320312,-0.15170516073703766
-1.3589617013931274,3.3991823196411133,-0.155365452170372
-1.3316456079483032,3.401510715484619,-0.1568765491247177
-1.3351353406906128,3.483778953552246,-0.16203227639198303
-1.5063539743423462,4.01559591293335,-0.18832236528396606
-1.4164448976516724,3.8573966026306152,-0.18237009644508362
-1.3828909397125244,3.8487350940704346,-0.18341322243213654
-1.38457453250885,3.9432945251464844,-0.18930545449256897
-1.3221209049224854,3.853360176086426,-0.18632270395755768
-1.264083743095398,3.7699503898620605,-0.18357038497924805
-1.1746323108673096,3.58575701713562,-0.17581556737422943
-1.1267207860946655,3.5232656002044678,-0.17387846112251282
-1.1429318189620972,3.665376901626587,-0.18202556669712067
-1.1169028282165527,3.6733169555664062,-0.18353454768657684
-1.0813227891921997,3.64726185798645,-0.18332324922084808
-1.0429408550262451,3.6096384525299072,-0.1825145184993744
-1.0131001472473145,3.6018502712249756,-0.1830843836069107
-0.9864434003829956,3.605130672454834,-0.18420295417308807
-0.9606113433837891,3.612031936645508,-0.18552173674106598
-0.9159330129623413,3.5430166721343994,-0.18290340900421143
-0.8893221616744995,3.5416810512542725,-0.1837516725063324
-0.8577306866645813,3.521305561065674,-0.183481827378273
-0.823813796043396,3.4892642498016357,-0.18259789049625397
-0.7858990430831909,3.437940835952759,-0.18069730699062347
-0.7518379092216492,3.3975648880004883,-0.17933975160121918
-0.7297511100769043,3.4103031158447266,-0.18075063824653625
-0.7088220715522766,3.4306018352508545,-0.18246164917945862
-0.6800190210342407,3.4125165939331055,-0.18213877081871033
-0.6462129354476929,3.3674087524414062,-0.18037289381027222
-0.6199502944946289,3.3564298152923584,-0.1804182082414627
-0.5938209295272827,3.3452610969543457,-0.18041284382343292
-0.5663339495658875,3.326246976852417,-0.17987801134586334
-0.5397717356681824,3.3108627796173096,-0.17954207956790924
-0.5162525177001953,3.314572811126709,-0.1802520900964737
-0.4909107983112335,3.302609920501709,-0.18010549247264862
-0.4656706154346466,3.290470600128174,-0.17991486191749573
-0.44356870651245117,3.3013644218444824,-0.18088047206401825
-0.4193677604198456,3.296632766723633,-0.18099883198738098
-0.39263972640037537,3.268467426300049,-0.17983213067054749
-0.3712617754936218,3.2866358757019043,-0.18122726678848267
-0.3459201753139496,3.2658400535583496,-0.18044476211071014
-0.32267826795578003,3.2642784118652344,-0.18060044944286346
-0.29840564727783203,3.25089955329895,-0.18010969460010529
-0.2737352252006531,3.2295644283294678,-0.179183229804039
-0.25084352493286133,3.23140287399292,-0.17955347895622253
-0.22613881528377533,3.2019267082214355,-0.17817434668540955
-0.2042008638381958,3.21120548248291,-0.178816020488739
-0.1817323863506317,3.2125437259674072,-0.17902445793151855
-0.15760375559329987,3.178661823272705,-0.17727680504322052
-0.13596324622631073,3.1991679668426514,-0.1785726100206375
-0.11347664892673492,3.192227602005005,-0.17834289371967316
-0.09126999974250793,3.1929359436035156,-0.1784089058637619
-0.06812762469053268,3.1505987644195557,-0.17606620490550995
-0.046779707074165344,3.189990997314453,-0.1782994419336319
-0.024034598842263222,3.1668388843536377,-0.17704631388187408
-0.0020128071773797274,3.1825270652770996,-0.17797252535820007
0.020082585513591766,3.1746668815612793,-0.17747829854488373
0.04144826531410217,3.1198582649230957,-0.1743323802947998
0.06331530958414078,3.12729811668396,-0.17467448115348816
0.08610795438289642,3.1657750606536865,-0.17675770819187164
0.10797247290611267,3.149500608444214,-0.1757909655570984
0.12918394804000854,3.1330981254577637,-0.17473699152469635
0.15087294578552246,3.1321425437927246,-0.17448794841766357
0.17344169318675995,3.1466124057769775,-0.17510542273521423
0.195820152759552,3.1531288623809814,-0.17528662085533142
0.21869592368602753,3.1594579219818115,-0.17546199262142181
0.24241699278354645,3.1812140941619873,-0.1764453798532486
0.2625404894351959,3.156156301498413,-0.17475643754005432
0.2858024835586548,3.1698219776153564,-0.17522114515304565
0.3055512309074402,3.1444895267486572,-0.17353849112987518
0.3293999433517456,3.157789468765259,-0.1739920824766159
0.35347241163253784,3.174833059310913,-0.17462213337421417
0.3781096041202545,3.1955904960632324,-0.17534853518009186
0.39725786447525024,3.169712543487549,-0.17352373898029327
0.42129772901535034,3.182375907897949,-0.17381612956523895
0.44709447026252747,3.20251727104187,-0.17451199889183044
0.4716035723686218,3.2148020267486572,-0.1747698187828064
0.4973320960998535,3.2346415519714355,-0.17531578242778778
0.5184018015861511,3.2234692573547363,-0.17418667674064636
0.5407180190086365,3.219839334487915,-0.17347274720668793
0.5678316354751587,3.242931604385376,-0.17419998347759247
0.5921460390090942,3.246551036834717,-0.17386548221111298
0.6144528388977051,3.2424490451812744,-0.17300516366958618
0.6427239179611206,3.2688205242156982,-0.17377378046512604
0.6637671589851379,3.256696939468384,-0.17249490320682526
0.6912313103675842,3.2749505043029785,-0.17282716929912567
0.7160610556602478,3.277646064758301,-0.17232128977775574
0.7496606111526489,3.322188377380371,-0.17389434576034546
0.774170994758606,3.3246278762817383,-0.17325854301452637
0.8007716536521912,3.3344266414642334,-0.17300255596637726
0.8220350742340088,3.32126522064209,-0.17155808210372925
0.8638098239898682,3.3872554302215576,-0.17416732013225555
0.8829609751701355,3.366243600845337,-0.17220064997673035
0.9058998823165894,3.360203742980957,-0.17101293802261353
0.9374407529830933,3.3840019702911377,-0.17133204638957977
0.9673900604248047,3.399970054626465,-0.17124255001544952
1.0012035369873047,3.426830768585205,-0.1716478317975998
1.0290296077728271,3.4349420070648193,-0.17102527618408203
1.0684646368026733,3.480132818222046,-0.17223680019378662
1.098401665687561,3.491328239440918,-0.1717364490032196
1.1226760149002075,3.483668804168701,-0.1703062504529953
1.1800694465637207,3.5758419036865234,-0.17366044223308563
1.214281678199768,3.597409248352051,-0.1735093742609024
1.2361962795257568,3.581759214401245,-0.17155957221984863
1.2689182758331299,3.595214605331421,-0.17097873985767365
1.3138066530227661,3.6414246559143066,-0.17193764448165894
1.3466717004776,3.6544456481933594,-0.17121946811676025
1.4007023572921753,3.721860408782959,-0.172970250248909
1.4318128824234009,3.7268166542053223,-0.17179828882217407
1.4762316942214966,3.7640838623046875,-0.17208132147789001
1.526808500289917,3.815498113632202,-0.1729525923728943
1.5510218143463135,3.8015964031219482,-0.17076264321804047
1.5785458087921143,3.794569969177246,-0.16886305809020996
1.6033995151519775,3.7799885272979736,-0.16661080718040466
1.1355060338974,2.62599778175354,-0.11463150382041931
1.15324068069458,2.61832332611084,-0.11313313990831375
1.1644052267074585,2.5963399410247803,-0.11101923882961273
1.174438714981079,2.5704407691955566,-0.10870834439992905
1.1824266910552979,2.541032075881958,-0.10627884417772293
1.2030378580093384,2.5400450229644775,-0.10501515865325928
1.189501404762268,2.468705654144287,-0.1008491963148117
1.2131556272506714,2.4746341705322266,-0.09984678775072098
1.2149295806884766,2.4346258640289307,-0.09695752710103989
1.2279372215270996,2.4194018840789795,-0.0950811505317688
1.2439740896224976,2.4112589359283447,-0.09346722811460495
1.2566522359848022,2.395925760269165,-0.09155640751123428
1.2586185932159424,2.359617233276367,-0.088829904794693
1.2746164798736572,2.351077079772949,-0.08714750409126282
1.294199824333191,2.349336624145508,-0.08567292988300323
1.2930186986923218,2.3098623752593994,-0.08282478153705597
1.3051793575286865,2.294095516204834,-0.08082588762044907
1.3047873973846436,2.258376121520996,-0.07812955975532532
1.3235312700271606,2.2565605640411377,-0.07661659270524979
1.3314255475997925,2.233811855316162,-0.07429193705320358
1.3467319011688232,2.2246780395507812,-0.07245083898305893
1.3530548810958862,2.2025868892669678,-0.07018649578094482
1.3595653772354126,2.1802477836608887,-0.06789075583219528
1.3746801614761353,2.170808792114258,-0.06595613807439804
1.3848392963409424,2.155123233795166,-0.06379260122776031
1.4074987173080444,2.1591217517852783,-0.06220603734254837
1.413822889328003,2.136337995529175,-0.05975545570254326
1.4277632236480713,2.127103567123413,-0.057689107954502106
1.4305949211120605,2.1016767024993896,-0.05516358092427254
1.4410243034362793,2.085110664367676,-0.05272885039448738
1.4454572200775146,2.0630486011505127,-0.05021025985479355
1.445514440536499,2.03438401222229,-0.04747627675533295
1.4548678398132324,2.0181386470794678,-0.044947199523448944
1.4675137996673584,2.0090129375457764,-0.042587898671627045
1.4859267473220825,2.0052168369293213,-0.04013345390558243
3.1734914779663086,4.437952041625977,0.11279619485139847
3.1400277614593506,4.4615559577941895,0.1180424690246582
2.6064693927764893,3.762298345565796,0.10322663933038712
2.5931899547576904,3.799755573272705,0.10771042108535767
3.1451079845428467,4.6851115226745605,0.13697116076946259
