X,Y,Z
2.011159658432007,4.796731472015381,0.13824330270290375
2.0145180225372314,4.905214786529541,0.14246250689029694
1.987687349319458,4.9413676261901855,0.144584059715271
1.9826899766921997,5.031574726104736,0.1482923924922943
2.012301206588745,5.212778568267822,0.1547224521636963
1.9783508777618408,5.234063148498535,0.15642574429512024
1.9507112503051758,5.277698993682861,0.15875370800495148
1.9258270263671875,5.328324317932129,0.16129633784294128
1.905456781387329,5.38947057723999,0.16414888203144073
1.8576710224151611,5.373044967651367,0.16464649140834808
1.8559015989303589,5.4932708740234375,0.1693008989095688
1.940400242805481,5.8848876953125,0.1823626458644867
1.9184317588806152,5.961810111999512,0.18573826551437378
1.8792880773544312,5.982407093048096,0.1873483657836914
1.8571141958236694,6.058743000030518,0.19072456657886505
1.8300491571426392,6.124003887176514,0.19371400773525238
1.800459384918213,6.185610294342041,0.19654227793216705
1.7671626806259155,6.23981237411499,0.19917412102222443
1.7318824529647827,6.28206205368042,0.20140841603279114
1.7052582502365112,6.35804557800293,0.20474620163440704
1.6743063926696777,6.422730445861816,0.20768265426158905
0.825715184211731,3.262657642364502,0.10588213056325912
1.567759394645691,6.3892059326171875,0.20811636745929718
0.7926962375640869,3.331028699874878,0.10889274626970291
1.457513689994812,6.319056034088135,0.20731553435325623
1.3989923000335693,6.264244556427002,0.20624524354934692
1.3496208190917969,6.251073360443115,0.20642611384391785
1.2973510026931763,6.226210594177246,0.20623643696308136
1.2635527849197388,6.284904956817627,0.20881065726280212
1.2042145729064941,6.213020324707031,0.2070467323064804
1.1580547094345093,6.205873489379883,0.20744143426418304
1.095036268234253,6.106247901916504,0.2046211212873459
1.0470588207244873,6.090865135192871,0.20459435880184174
1.0039819478988647,6.098089694976807,0.20532627403736115
0.9603440761566162,6.097185134887695,0.20578594505786896
0.9092193841934204,6.045780658721924,0.204545795917511
0.8548212647438049,5.966935634613037,0.20232948660850525
0.8193908333778381,6.0270490646362305,0.2047313004732132
0.769450306892395,5.974569797515869,0.20331202447414398
0.7228779196739197,5.941038131713867,0.2025396227836609
0.5784028768539429,5.046066761016846,0.17234733700752258
0.5511829853057861,5.123706817626953,0.17533117532730103
0.5211049914360046,5.185698509216309,0.1776919662952423
0.38687822222709656,4.147534370422363,0.14229337871074677
0.3543790876865387,4.111245155334473,0.1412256956100464
0.33162686228752136,4.187545299530029,0.1440323144197464
0.3016042709350586,4.178063869476318,0.1438983827829361
0.2719976603984833,4.172262191772461,0.143877774477005
0.24570240080356598,4.232547283172607,0.1460481733083725
0.21405550837516785,4.195170879364014,0.14485487341880798
0.22016185522079468,4.99998664855957,0.17276708781719208
0.2875385284423828,7.755663871765137,0.26818788051605225
0.1653071641921997,5.486414909362793,0.18987014889717102
0.12622973322868347,5.475733280181885,0.18958726525306702
0.08798445016145706,5.4686713218688965,0.18936942517757416
0.050040293484926224,5.476955890655518,0.1896921843290329
0.016574542969465256,7.585275650024414,0.2627753019332886
-0.0361519530415535,7.585204601287842,0.2628479301929474
-0.0895279198884964,7.557430267333984,0.26197463274002075
-0.1417946070432663,7.548825740814209,0.261588990688324
-0.1932109296321869,7.508637428283691,0.2600933313369751
-0.24420346319675446,7.472002983093262,0.25873425602912903
-0.29546964168548584,7.454529285430908,0.25805172324180603
-0.34759509563446045,7.46010160446167,0.25817954540252686
-0.2914932668209076,5.430344581604004,0.1878654956817627
-0.3294985592365265,5.436001777648926,0.1878821700811386
-0.36443838477134705,5.394652366638184,0.1862841248512268
-0.38117948174476624,5.11559534072876,0.17649580538272858
-0.4053182303905487,4.972752094268799,0.1714271456003189
-0.43775859475135803,4.938656330108643,0.17011810839176178
-0.442953497171402,4.632391452789307,0.15938842296600342
-0.47414541244506836,4.621465682983398,0.15878476202487946
-0.5034617185592651,4.594811916351318,0.15765012800693512
-0.5325667262077332,4.567959308624268,0.15651744604110718
-0.5610294938087463,4.5330939292907715,0.1551160216331482
-0.5965579152107239,4.560067176818848,0.15584193170070648
-0.6246916651725769,4.532668590545654,0.15460219979286194
-0.6546867489814758,4.520559787750244,0.15388336777687073
-0.682786762714386,4.496673107147217,0.15277265012264252
-0.7133358120918274,4.484038352966309,0.15204475820064545
-0.7445030808448792,4.478984355926514,0.15158672630786896
-0.7714285254478455,4.4506707191467285,0.15030863881111145
-0.8019029498100281,4.445300579071045,0.14973610639572144
-0.8243849277496338,4.397519111633301,0.14774619042873383
-0.8487362861633301,4.361088275909424,0.14614775776863098
-0.7427111268043518,3.6776461601257324,0.12292644381523132
-0.7666406631469727,3.664771556854248,0.122189462184906
-0.7875267863273621,3.6403884887695312,0.12100730836391449
-0.9690197110176086,4.336030006408691,0.14368155598640442
-0.9933511018753052,4.3065056800842285,0.14226189255714417
-1.0273661613464355,4.314595699310303,0.14207743108272552
-1.055436134338379,4.299797534942627,0.14115315675735474
-1.0725311040878296,4.243256568908691,0.13881756365299225
-1.0973843336105347,4.220788478851318,0.13754431903362274
-1.1371029615402222,4.254757404327393,0.13811326026916504
-1.1670089960098267,4.246678352355957,0.13729916512966156
-1.192266583442688,4.223456859588623,0.13601054251194
-1.2204428911209106,4.211362361907959,0.13507315516471863
-1.244502067565918,4.18805456161499,0.13370026648044586
-1.2683019638061523,4.164613723754883,0.13233375549316406
-1.2950150966644287,4.148233413696289,0.13118261098861694
-1.3308926820755005,4.16149377822876,0.13097694516181946
-1.3548649549484253,4.137348175048828,0.1295991688966751
-1.3826947212219238,4.128161907196045,0.12860776484012604
-1.4129756689071655,4.1261820793151855,0.1278436779975891
-1.4281668663024902,4.0796332359313965,0.12570062279701233
-1.4490982294082642,4.0474019050598145,0.12398848682641983
-1.4825420379638672,4.051937580108643,0.12342327833175659
-1.4947313070297241,4.001672267913818,0.12110647559165955
-1.5313347578048706,4.017106533050537,0.12078053504228592
-1.5558414459228516,3.9993338584899902,0.11944729089736938
-1.582614779472351,3.9846479892730713,0.118184894323349
-1.6116106510162354,3.9772562980651855,0.11715321987867355
-1.6336618661880493,3.955613374710083,0.11564034968614578
-1.6570109128952026,3.937452554702759,0.11423841863870621
-1.6778349876403809,3.9116697311401367,0.1126013696193695
-1.7117425203323364,3.914041042327881,0.11175209283828735
-1.7384940385818481,3.902268648147583,0.11048873513936996
-1.7515583038330078,3.862182140350342,0.10839146375656128
-1.777316927909851,3.8504321575164795,0.10709917545318604
-1.8007365465164185,3.830944538116455,0.10555856674909592
-1.8278120756149292,3.8181378841400146,0.10419145226478577
-1.849800705909729,3.79888653755188,0.10260850936174393
-1.8680343627929688,3.772568464279175,0.10083570331335068
-1.9008227586746216,3.7736916542053223,0.09976797550916672
-1.919907569885254,3.7465126514434814,0.09793796390295029
-1.9523632526397705,3.747363805770874,0.09680880606174469
-1.9701484441757202,3.72041654586792,0.0949174240231514
-1.99526846408844,3.7070443630218506,0.09337122738361359
-1.7060515880584717,3.1175613403320312,0.07747714966535568
-1.7156933546066284,3.0855154991149902,0.07561666518449783
-1.739721417427063,3.081037998199463,0.07441340386867523
-0.7715738415718079,1.3448323011398315,0.03197851404547691
-0.7789472341537476,1.3360711336135864,0.03126190975308418
-0.7878361344337463,1.3308638334274292,0.030621221289038658
-0.8769232034683228,1.4596407413482666,0.033005546778440475
-0.8909411430358887,1.4603015184402466,0.03240886703133583
-0.8847688436508179,1.4274346828460693,0.031056754291057587
-0.8897873163223267,1.4151095151901245,0.030159758403897285
-0.8591557741165161,1.3466877937316895,0.028087208047509193
-1.2687175273895264,1.8484108448028564,0.0337352454662323
-1.3562318086624146,1.9493776559829712,0.0344599150121212
-1.3538269996643066,1.9510325193405151,-0.035346850752830505
-1.2639714479446411,1.8516385555267334,-0.034872036427259445
-1.3748915195465088,2.045369863510132,-0.03987643122673035
-1.3084280490875244,1.976996898651123,-0.03980814293026924
-1.2441515922546387,1.9117034673690796,-0.03972558677196503
-0.8752993941307068,1.4332178831100464,-0.03297880291938782
-0.8648498058319092,1.439526915550232,-0.03387613967061043
-0.7885416746139526,1.3349510431289673,-0.032092344015836716
-0.782981276512146,1.3472429513931274,-0.033033549785614014
-0.7890987992286682,1.3797600269317627,-0.03447609394788742
-0.849718451499939,1.5114750862121582,-0.03845485299825668
-1.6713680028915405,3.025137424468994,-0.07833915948867798
-1.6465057134628296,3.029813528060913,-0.07975108921527863
-1.6101387739181519,3.0138792991638184,-0.08059164881706238
-1.5879727602005005,3.0255749225616455,-0.08214198797941208
-1.6183140277862549,3.13740611076355,-0.08641744405031204
-1.5960499048233032,3.1487481594085693,-0.08796308934688568
-1.5629675388336182,3.139105796813965,-0.08886349201202393
-1.5537793636322021,3.178431510925293,-0.09114117920398712
-1.5313301086425781,3.1892664432525635,-0.09257954359054565
-1.5057679414749146,3.1927404403686523,-0.09379161149263382
-1.4861304759979248,3.2104952335357666,-0.09539227932691574
-1.4591612815856934,3.2142255306243896,-0.09658411890268326
-1.4396427869796753,3.2315261363983154,-0.09814005345106125
-1.4171838760375977,3.2413980960845947,-0.09946120530366898
-1.397236943244934,3.258504867553711,-0.10097656399011612
-1.3797577619552612,3.282853603363037,-0.10269876569509506
-1.356001615524292,3.292696952819824,-0.10397882014513016
-1.3374203443527222,3.3128843307495117,-0.10555881261825562
-1.3098161220550537,3.311262607574463,-0.10643332451581955
-1.542572259902954,3.9832241535186768,-0.12908820807933807
-1.5194271802902222,4.00877046585083,-0.13097867369651794
-1.4855461120605469,4.0047502517700195,-0.13189460337162018
-1.469626545906067,4.047978401184082,-0.13435906171798706
-1.448596477508545,4.080374717712402,-0.1364048421382904
-1.4295591115951538,4.120115280151367,-0.13869358599185944
-1.4004369974136353,4.130061149597168,-0.1399790644645691
-1.3735991716384888,4.147247314453125,-0.14152191579341888
-1.3505958318710327,4.175273895263672,-0.1434134542942047
-1.325440764427185,4.199665069580078,-0.1451236605644226
-1.2897049188613892,4.190315246582031,-0.145673468708992
-1.2682324647903442,4.2253642082214355,-0.1477580964565277
-1.243186116218567,4.249032974243164,-0.1494562327861786
-1.217067837715149,4.272787094116211,-0.1511354148387909
-1.1866422891616821,4.2812981605529785,-0.15221157670021057
-1.1561572551727295,4.289592742919922,-0.15328770875930786
-1.126275658607483,4.297497749328613,-0.15434055030345917
-1.1001935005187988,4.320326328277588,-0.15593960881233215
-1.0729376077651978,4.343225955963135,-0.15749116241931915
-1.0430198907852173,4.354487895965576,-0.15856873989105225
-1.0121899843215942,4.361722946166992,-0.15950652956962585
-0.9818044900894165,4.3686299324035645,-0.16042934358119965
-0.9530690908432007,4.382944583892822,-0.16163232922554016
-0.920070469379425,4.381980895996094,-0.16221167147159576
-0.8937100172042847,4.411303520202637,-0.16387075185775757
-0.8595783710479736,4.4021430015563965,-0.16410794854164124
-0.8239224553108215,4.381124973297119,-0.16389688849449158
-0.7892565131187439,4.363672733306885,-0.16382136940956116
-0.7501177787780762,4.323009014129639,-0.16279929876327515
-0.7177147269248962,4.316611289978027,-0.16301265358924866
-0.6824122071266174,4.290690898895264,-0.16249175369739532
-0.6513721346855164,4.287591934204102,-0.16283369064331055
-0.615932822227478,4.253363609313965,-0.1619962751865387
-0.5830137133598328,4.238278865814209,-0.16182295978069305
-0.5577636361122131,4.277088165283203,-0.16364379227161407
-0.525788426399231,4.26538610458374,-0.16354162991046906
-0.48845556378364563,4.203006744384766,-0.16149412095546722
-0.46345406770706177,4.245086193084717,-0.16346600651741028
-0.4298785924911499,4.2093658447265625,-0.1624029129743576
-0.3983977735042572,4.196764945983887,-0.1621539294719696
-0.3717144727706909,4.230546951293945,-0.1637020707130432
-0.3362782895565033,4.159096717834473,-0.16118201613426208
-0.30390509963035583,4.1146087646484375,-0.159707173705101
-0.2729669511318207,4.081556797027588,-0.158659890294075
-0.2455945760011673,4.110659599304199,-0.15992198884487152
-0.21506395936012268,4.077184200286865,-0.15875473618507385
-0.17519979178905487,3.8290276527404785,-0.14922620356082916
-0.1523381769657135,3.9276556968688965,-0.15321440994739532
-0.12289862334728241,3.862290859222412,-0.15081384778022766
-0.09403052181005478,3.8045318126678467,-0.1486019641160965
-0.07106664776802063,4.008031368255615,-0.1565898209810257
-0.043158043175935745,4.008427143096924,-0.1566520482301712
-0.015254429541528225,4.000821113586426,-0.15640902519226074
0.012455747462809086,3.9774086475372314,-0.15555508434772491
0.04066164419054985,3.9850282669067383,-0.15583600103855133
0.0687641128897667,4.008068084716797,-0.15667979419231415
0.09583514928817749,3.9762797355651855,-0.15538793802261353
0.12371612340211868,3.983323335647583,-0.15562130510807037
0.14891807734966278,3.916060447692871,-0.1529596596956253
0.17540454864501953,3.899339199066162,-0.1522343009710312
0.2041051834821701,3.9214015007019043,-0.15294918417930603
0.22989743947982788,3.896521806716919,-0.15184295177459717
0.25876614451408386,3.9221012592315674,-0.1527099907398224
0.2851969301700592,3.9085347652435303,-0.15205946564674377
0.31174546480178833,3.898683547973633,-0.1515466868877411
0.33849725127220154,3.8886289596557617,-0.1509142369031906
0.3624716103076935,3.855116367340088,-0.14938510954380035
0.39077630639076233,3.868056058883667,-0.149663507938385
0.4185098707675934,3.873018503189087,-0.14963854849338531
0.44808122515678406,3.8932974338531494,-0.1502111852169037
0.4777756929397583,3.90944504737854,-0.15050747990608215
0.5087314248085022,3.937044382095337,-0.15123747289180756
0.5359106659889221,3.933454751968384,-0.1507735401391983
0.5505385398864746,3.840775728225708,-0.14690671861171722
0.5795480608940125,3.85231351852417,-0.14703966677188873
0.6132856607437134,3.8905818462371826,-0.14811399579048157
0.646370530128479,3.9248101711273193,-0.1490064263343811
0.6608260869979858,3.847191333770752,-0.1456625610589981
0.6923559308052063,3.8694257736206055,-0.1461075395345688
0.7156555652618408,3.8453545570373535,-0.1448102742433548
0.7451645135879517,3.8556740283966064,-0.14474491775035858
0.7881705164909363,3.9307830333709717,-0.14703616499900818
0.8150991201400757,3.925313949584961,-0.14631879329681396
0.8497865200042725,3.953920841217041,-0.14686621725559235
0.8806772828102112,3.96317982673645,-0.14669561386108398
0.9132777452468872,3.979858636856079,-0.14675047993659973
0.9445813298225403,3.988626003265381,-0.14644110202789307
0.9626423120498657,3.944164514541626,-0.14419806003570557
0.9900298118591309,3.937410593032837,-0.1433379203081131
1.0272210836410522,3.9682414531707764,-0.1438455730676651
1.073685884475708,4.0327630043029785,-0.14551286399364471
1.0934444665908813,3.9951157569885254,-0.14341768622398376
1.142858862876892,4.06652307510376,-0.14524900913238525
1.1689307689666748,4.051015853881836,-0.1439562886953354
1.214828372001648,4.102712631225586,-0.14504830539226532
1.2316601276397705,4.056947231292725,-0.14264313876628876
1.2910057306289673,4.149023056030273,-0.1450158953666687
1.302627682685852,4.088100433349609,-0.14205101132392883
1.3504167795181274,4.138363361358643,-0.14293628931045532
1.3791762590408325,4.128908634185791,-0.1417534500360489
1.4338717460632324,4.197014331817627,-0.14314426481723785
1.4893113374710083,4.264650821685791,-0.1444607973098755
1.53600013256073,4.302037239074707,-0.14470410346984863
1.5404525995254517,4.221609115600586,-0.1409967690706253
1.6119955778121948,4.324272155761719,-0.1433994472026825
1.6675199270248413,4.382679462432861,-0.14419402182102203
1.7083264589309692,4.400507926940918,-0.14363570511341095
1.7449074983596802,4.402986526489258,-0.14252497255802155
1.794538974761963,4.437843322753906,-0.14246205985546112
1.8397619724273682,4.461604118347168,-0.141982302069664
1.0967329740524292,2.6097521781921387,-0.08229077607393265
1.112849473953247,2.5987050533294678,-0.08118019998073578
1.1421512365341187,2.615844964981079,-0.08091327548027039
1.1507679224014282,2.5864760875701904,-0.07922223210334778
1.168052077293396,2.578749179840088,-0.07815808802843094
1.1803793907165527,2.5602681636810303,-0.07677491754293442
1.198064923286438,2.552072763442993,-0.07567933201789856
1.1958895921707153,2.5012853145599365,-0.07331909984350204
1.2092911005020142,2.4861841201782227,-0.07200489193201065
1.2189215421676636,2.464094400405884,-0.07048922777175903
1.226999282836914,2.4382760524749756,-0.0688575878739357
1.2492365837097168,2.4401588439941406,-0.06800217181444168
1.2421784400939941,2.386704206466675,-0.06559553742408752
1.2545734643936157,2.3714122772216797,-0.06423147767782211
1.2670542001724243,2.3559346199035645,-0.06285686790943146
1.2796626091003418,2.3402442932128906,-0.06146841123700142
1.2952617406845093,2.3316783905029297,-0.060253601521253586
1.2971628904342651,2.299316167831421,-0.05843053758144379
1.301580786705017,2.269878625869751,-0.05664154514670372
1.313350796699524,2.254084587097168,-0.05521531403064728
1.3320423364639282,2.2522003650665283,-0.05409996584057808
1.338889718055725,2.2299656867980957,-0.05248776078224182
1.350263237953186,2.213984966278076,-0.050983674824237823
1.3653265237808228,2.204758882522583,-0.049612030386924744
1.3754388093948364,2.189275026321411,-0.04811614751815796
1.3820154666900635,2.1666531562805176,-0.04641032591462135
1.388302206993103,2.1440722942352295,-0.04470215365290642
1.4020875692367554,2.1351125240325928,-0.04327012225985527
1.4102239608764648,2.115710735321045,-0.04155167192220688
1.4247020483016968,2.106018304824829,-0.04001501575112343
1.433681607246399,2.0904791355133057,-0.038361310958862305
1.4388518333435059,2.06794810295105,-0.036512307822704315
1.4392778873443604,2.0390613079071045,-0.034526970237493515
1.4523441791534424,2.0298032760620117,-0.03285308554768562
1.4617382287979126,2.0134317874908447,-0.03095589205622673
1.4838136434555054,2.016676187515259,-0.02935073897242546
3.161635160446167,4.456361293792725,0.09707722067832947
2.6521787643432617,3.79757022857666,0.08579911291599274
2.6059823036193848,3.7914886474609375,0.08858908712863922
3.172402858734131,4.686202049255371,0.11288714408874512
3.1431546211242676,4.719858169555664,0.11698081344366074
3.108746290206909,4.742499828338623,0.12065768986940384
3.100847005844116,4.8034539222717285,0.12521547079086304
1.643103003501892,2.5881059169769287,0.06904895603656769
1.632171869277954,2.613398551940918,0.07127326726913452
1.6098277568817139,2.618008613586426,0.0728507786989212
2.9280078411102295,4.842031955718994,0.1373450607061386
2.7923033237457275,4.695652484893799,0.1356593370437622
2.7516491413116455,4.701418399810791,0.13813669979572296
2.713397979736328,4.714503288269043,0.14083421230316162
2.4455959796905518,4.3232316970825195,0.13118389248847961
2.4982099533081055,4.490640163421631,0.13828390836715698
2.4743499755859375,4.521566867828369,0.14121417701244354
2.3803558349609375,4.4258856773376465,0.14009764790534973
2.388943910598755,4.52299690246582,0.14509136974811554
2.468595027923584,4.754482269287109,0.15439948439598083
2.4247469902038574,4.750627040863037,0.1561303436756134
2.3638417720794678,4.715722560882568,0.15673291683197021
2.3049604892730713,4.6838579177856445,0.15738745033740997
1.2231532335281372,2.5311391353607178,0.08595214039087296
1.2021795511245728,2.532487154006958,0.08687004446983337
1.1872754096984863,2.548086643218994,0.0882493406534195
1.1800248622894287,2.581493616104126,0.09024377167224884
1.1567809581756592,2.5791220664978027,0.09097883850336075
1.1466375589370728,2.604952096939087,0.09269655495882034
1.117066502571106,2.5879907608032227,0.09288942068815231
2.042792558670044,4.828869819641113,0.1746913492679596
2.025588274002075,4.8867950439453125,0.17817385494709015
2.00179386138916,4.926033020019531,0.1809455007314682
1.9818840026855469,4.97605562210083,0.18413878977298737
2.0435006618499756,5.24123477935791,0.1953142285346985
1.9999641180038452,5.241222381591797,0.19661901891231537
1.9857479333877563,5.317456245422363,0.2007875293493271
1.9593976736068726,5.360417366027832,0.20370082557201385
1.9352198839187622,5.410601615905762,0.2069127857685089
1.8801888227462769,5.380307197570801,0.20694121718406677
1.8830286264419556,5.515549182891846,0.21333426237106323
1.8464232683181763,5.536076068878174,0.21530862152576447
1.9396450519561768,5.9532880783081055,0.23278920352458954
1.9005179405212402,5.97401762008667,0.23486416041851044
1.8638277053833008,6.010026931762695,0.237399160861969
1.8398916721343994,6.086690425872803,0.24154751002788544
1.8133571147918701,6.155646800994873,0.24540860950946808
1.776976466178894,6.190552711486816,0.24791981279850006
1.7517571449279785,6.266599178314209,0.25210636854171753
1.7286467552185059,6.357938289642334,0.2567875385284424
1.6884163618087769,6.392904281616211,0.2592206299304962
1.6469602584838867,6.419769287109375,0.26131966710090637
0.8095971941947937,3.249598741531372,0.13278353214263916
1.543683648109436,6.385045051574707,0.26190683245658875
0.7880064845085144,3.363175868988037,0.13841784000396729
1.4366869926452637,6.33784294128418,0.261676162481308
1.375679850578308,6.275414943695068,0.25991731882095337
1.3287129402160645,6.269518852233887,0.2604839503765106
1.2835193872451782,6.270909786224365,0.26136183738708496
1.2297691106796265,6.22991418838501,0.2604239583015442
1.1607786417007446,6.112042427062988,0.25614506006240845
0.3280980885028839,1.7968566417694092,0.07549349218606949
0.3303263485431671,1.8836731910705566,0.0793420821428299
0.30943763256073,1.839728832244873,0.07768940180540085
0.29664143919944763,1.8418232202529907,0.07797939330339432
0.2745516896247864,1.7860267162322998,0.07577184587717056
0.2608213722705841,1.7801852226257324,0.07566940784454346
0.24826423823833466,1.7819701433181763,0.07589426636695862
0.2435617297887802,1.8416776657104492,0.07859235256910324
0.757214367389679,6.0488667488098145,0.2586531341075897
0.6069918274879456,5.139284610748291,0.22016392648220062
0.5530062317848206,4.988318920135498,0.21397456526756287
0.5372756719589233,5.178390979766846,0.22242169082164764
0.39778584241867065,4.11374568939209,0.1769336760044098
0.36671626567840576,4.089188575744629,0.1761237531900406
0.3417954444885254,4.134408473968506,0.1783287078142166
0.3167722523212433,4.19509744644165,0.18112996220588684
0.2868462800979614,4.189416408538818,0.1810237020254135
0.2558189034461975,4.164045810699463,0.18007433414459229
0.22999335825443268,4.224169731140137,0.182831272482872
0.2357712686061859,4.966316223144531,0.2151474803686142
0.31354838609695435,7.763724327087402,0.3366606831550598
0.25810763239860535,7.730615139007568,0.33532094955444336
0.14450784027576447,5.473413467407227,0.2374887317419052
0.10605326294898987,5.458674907684326,0.23693591356277466
0.06811444461345673,5.459274768829346,0.2370598167181015
0.02960357815027237,5.475224494934082,0.23786400258541107
-0.011724206618964672,7.598288536071777,0.33019229769706726
-0.06436463445425034,7.578516006469727,0.32924237847328186
-0.11667054891586304,7.554477691650391,0.3281235098838806
-0.16794639825820923,7.498866081237793,0.32564979791641235
-0.2197144329547882,7.485819339752197,0.3250407576560974
-0.2724199593067169,7.47628116607666,0.3245994746685028
-0.3246014714241028,7.482019901275635,0.3247026205062866
-0.3782333433628082,7.514683723449707,0.3258766829967499
-0.31175297498703003,5.4430108070373535,0.2358730286359787
-0.34853610396385193,5.425147533416748,0.23494532704353333
-0.3846735656261444,5.391416072845459,0.23334047198295593
-0.41874533891677856,5.345829010009766,0.23123830556869507
-0.4530434310436249,5.3117146492004395,0.22949473559856415
-0.4799872636795044,5.203556060791016,0.22454160451889038
-0.45850515365600586,4.621479034423828,0.19918417930603027
-0.49027103185653687,4.610384464263916,0.19847099483013153
-0.5196003913879395,4.583621978759766,0.19709843397140503
-0.5494640469551086,4.564431190490723,0.19603827595710754
-0.5797898173332214,4.55283260345459,0.1951783150434494
-0.6099824905395508,4.5410332679748535,0.19432012736797333
-0.6357834339141846,4.494162082672119,0.19196699559688568
-0.6681967973709106,4.497371196746826,0.19176748394966125
-0.6994410753250122,4.492640972137451,0.19123858213424683
-0.729175865650177,4.480027675628662,0.19031332433223724
-0.7586064338684082,4.467248916625977,0.18932485580444336
-0.7864935994148254,4.446598529815674,0.18801458179950714
-0.8163565993309021,4.433305263519287,0.18701517581939697
-0.8390450477600098,4.385391712188721,0.18457524478435516
-0.7265836000442505,3.659782886505127,0.15369239449501038
-0.7538992166519165,3.666236400604248,0.15350750088691711
-0.7788786292076111,3.661039113998413,0.15283463895320892
-0.9418923258781433,4.28070068359375,0.17816676199436188
-0.9846010804176331,4.331173419952393,0.17973259091377258
-1.0128986835479736,4.3166584968566895,0.1786041557788849
-1.0389090776443481,4.294447898864746,0.17710720002651215
-1.0596176385879517,4.253230094909668,0.1747739464044571
-1.083229660987854,4.223143577575684,0.1729036122560501
-1.1212972402572632,4.249575614929199,0.17335647344589233
-1.152784824371338,4.249269962310791,0.1727173626422882
-1.1821531057357788,4.241232395172119,0.17175854742527008
-1.2054452896118164,4.214418411254883,0.1699371486902237
-1.2322182655334473,4.198576927185059,0.16855797171592712
-1.260928750038147,4.190086364746094,0.16748706996440887
-1.285468339920044,4.166329860687256,0.16580405831336975
-1.3144079446792603,4.157333850860596,0.1647200584411621
-1.342574954032898,4.148369789123535,0.16354385018348694
-1.3587899208068848,4.1020331382751465,0.16087645292282104
-1.394189715385437,4.1149210929870605,0.16055098176002502
-1.4151384830474854,4.083030700683594,0.1584668606519699
-1.446107268333435,4.080496311187744,0.15753385424613953
-1.4764026403427124,4.0779876708984375,0.1565137356519699
-1.4956668615341187,4.046050071716309,0.1543438881635666
-1.5207645893096924,4.028391361236572,0.1527089923620224
-1.551509976387024,4.025070667266846,0.15161782503128052
-1.576565146446228,4.006985664367676,0.14997783303260803
-1.5962624549865723,3.97820782661438,0.147872656583786
-1.6243128776550293,3.97110915184021,0.1465645730495453
-1.6516783237457275,3.95986008644104,0.1450759768486023
-1.67148756980896,3.9303905963897705,0.14292535185813904
-1.7018074989318848,3.9259235858917236,0.14169110357761383
-1.7247332334518433,3.9074292182922363,0.13985709846019745
-1.7538889646530151,3.903047561645508,0.13853441178798676
-1.7713433504104614,3.8694677352905273,0.1361287236213684
-1.7916836738586426,3.8429245948791504,0.13398976624011993
-1.8178555965423584,3.830671787261963,0.1323220431804657
-1.843253254890442,3.8185746669769287,0.13061657547950745
-1.8687970638275146,3.8061976432800293,0.12889575958251953
-1.8852273225784302,3.771975517272949,0.12637510895729065
-1.9148577451705933,3.7658421993255615,0.12482558190822601
-1.9289114475250244,3.732372283935547,0.12230232357978821
-1.6793336868286133,3.1976418495178223,0.10356663167476654
-1.982862114906311,3.712970018386841,0.11877214163541794
-2.0198357105255127,3.7197301387786865,0.11748762428760529
-1.7052297592163086,3.0907351970672607,0.09629067778587341
-1.7254389524459839,3.0795507431030273,0.09462865442037582
-0.8230931758880615,1.4455815553665161,0.04376725107431412
-0.7959716320037842,1.375627040863037,0.041020456701517105
-0.7930592894554138,1.350228190422058,0.03961942717432976
-0.8260154128074646,1.3851994276046753,0.039966169744729996
-0.882169246673584,1.4562655687332153,0.041264746338129044
-0.8961719870567322,1.4568941593170166,0.040521588176488876
-0.8972972631454468,1.4378467798233032,0.03922164812684059
-0.8901756405830383,1.4054468870162964,0.03755401447415352
-2.387136697769165,3.552922487258911,0.0861443430185318
-1.3988263607025146,2.024193048477173,0.04627295210957527
-1.2738428115844727,1.8161953687667847,0.04013679549098015
-1.313995361328125,1.878699541091919,-0.040127892047166824
-1.3216450214385986,1.9208837747573853,-0.04277921840548515
-1.2025253772735596,1.7751792669296265,-0.04104764014482498
-1.222145438194275,1.8325384855270386,-0.04385649040341377
-1.356097936630249,2.0669822692871094,-0.05110916122794151
-1.2781015634536743,1.977916955947876,-0.050343289971351624
-0.8700729012489319,1.4362046718597412,-0.04048968851566315
-0.825373649597168,1.385582447052002,-0.03995011746883392
-0.8235558867454529,1.404771089553833,-0.04134345427155495
-0.8434677720069885,1.48788321018219,-0.045529644936323166
-0.9639534950256348,1.729204535484314,-0.053871944546699524
-1.62397301197052,2.9615724086761475,-0.09385310858488083
-1.6172454357147217,3.000723123550415,-0.0966636911034584
-1.59836745262146,3.0195956230163574,-0.09885822236537933
-1.6366914510726929,3.1449391841888428,-0.10449766367673874
-1.6112043857574463,3.149240016937256,-0.10616299510002136
-1.5846710205078125,3.153874397277832,-0.10779731720685959
-1.5651758909225464,3.172240734100342,-0.10989963263273239
-1.546097755432129,3.1901986598968506,-0.11196170747280121
-1.527134895324707,3.20790696144104,-0.11399418115615845
-1.5071239471435547,3.2259151935577393,-0.11599650979042053
-1.77662193775177,3.875473737716675,-0.14097963273525238
-1.7431788444519043,3.873439073562622,-0.14246919751167297
-1.7256022691726685,3.9068479537963867,-0.14527034759521484
-1.704565167427063,3.9372775554656982,-0.14792320132255554
-1.6882576942443848,3.97817325592041,-0.15096838772296906
-1.6634491682052612,3.9969959259033203,-0.15314505994319916
-1.6444499492645264,4.030086040496826,-0.1558816134929657
-1.6127017736434937,4.034417152404785,-0.1574382781982422
-1.5859812498092651,4.053308963775635,-0.15957030653953552
-1.5601513385772705,4.0716118812561035,-0.16164173185825348
-1.5318142175674438,4.082286834716797,-0.16340120136737823
-1.5003585815429688,4.085567951202393,-0.16483137011528015
-1.4763246774673462,4.11083984375,-0.16709357500076294
-1.451606035232544,4.136115074157715,-0.1693902462720871
-1.4177333116531372,4.131277561187744,-0.17040897905826569
-1.393894910812378,4.155785083770752,-0.17264783382415771
-1.367957592010498,4.17665433883667,-0.17464366555213928
-1.3404496908187866,4.19369649887085,-0.17647475004196167
-1.3056936264038086,4.188232421875,-0.177369624376297
-1.2685753107070923,4.171013355255127,-0.1777310073375702
-1.2349718809127808,4.164742946624756,-0.17853519320487976
-1.1966453790664673,4.143369197845459,-0.1785901039838791
-1.157629370689392,4.117905616760254,-0.17846277356147766
-1.122610092163086,4.1032609939575195,-0.1787838339805603
-1.0814539194107056,4.065799713134766,-0.1781163364648819
-1.036265254020691,4.009006977081299,-0.17651160061359406
-1.0334436893463135,4.118412017822266,-0.18215277791023254
-0.9718614816665649,3.992880344390869,-0.17740680277347565
-0.9413368105888367,3.988109588623047,-0.1779903918504715
-0.904393196105957,3.956578493118286,-0.1773911863565445
-0.887566864490509,4.0123162269592285,-0.18062961101531982
-0.8346614241600037,3.903970241546631,-0.17641502618789673
-0.8086134791374207,3.9173760414123535,-0.17769216001033783
-0.7753095030784607,3.8922343254089355,-0.17721307277679443
-0.7250084280967712,3.7787654399871826,-0.17270693182945251
-0.6673950552940369,3.614858388900757,-0.1657712608575821
-0.6290008425712585,3.5464282035827637,-0.16312837600708008
-0.619056761264801,3.639218330383301,-0.16791240870952606
-0.6131876707077026,3.7627956867218018,-0.17414811253547668
-0.5780982375144958,3.7130329608917236,-0.1723892092704773
-0.546962320804596,3.682215929031372,-0.17142395675182343
-0.5199440717697144,3.6782195568084717,-0.17164172232151031
-0.4940471351146698,3.681760311126709,-0.17221885919570923
-0.46445396542549133,3.654118537902832,-0.17133809626102448
-0.4310847520828247,3.5913772583007812,-0.16880881786346436
-0.4055602550506592,3.594325065612793,-0.1693151742219925
-0.3794964551925659,3.589303731918335,-0.16935995221138
-0.3512250483036041,3.5607950687408447,-0.1683017760515213
-0.3264116942882538,3.563136577606201,-0.16870518028736115
-0.3016470968723297,3.5652992725372314,-0.1691075563430786
-0.27487504482269287,3.5478780269622803,-0.16855809092521667
-0.24788746237754822,3.518561363220215,-0.16734260320663452
-0.2242872565984726,3.535771131515503,-0.1683472990989685
-0.20008331537246704,3.5450265407562256,-0.16898226737976074
-0.17466899752616882,3.530730724334717,-0.16850177943706512
-0.1487133949995041,3.5084755420684814,-0.1676405668258667
-0.12453580647706985,3.5172200202941895,-0.16812248528003693
-0.10002176463603973,3.5179972648620605,-0.16823187470436096
-0.07533552497625351,3.5108020305633545,-0.1679679900407791
-0.05070501193404198,3.4956302642822266,-0.1673298180103302
-0.02538001723587513,3.421764612197876,-0.16388969123363495
-0.0016099442727863789,3.4803855419158936,-0.16668038070201874
0.022146183997392654,3.406181573867798,-0.16309857368469238
0.04636100307106972,3.4449610710144043,-0.16493509709835052
0.07028856128454208,3.4445574283599854,-0.1649034023284912
0.0936037078499794,3.4205849170684814,-0.16375136375427246
0.11826717108488083,3.43544340133667,-0.1643742024898529
0.14174899458885193,3.426752805709839,-0.16382646560668945
0.16473954916000366,3.410107374191284,-0.1629071980714798
0.18806037306785583,3.4010934829711914,-0.1623605489730835
0.21220287680625916,3.4075000286102295,-0.16255804896354675
0.23575416207313538,3.3981401920318604,-0.16195295751094818
0.25988343358039856,3.404221296310425,-0.1620177924633026
0.2828124463558197,3.3945770263671875,-0.16134196519851685
0.3084891736507416,3.4158613681793213,-0.16214245557785034
0.3306958079338074,3.3981170654296875,-0.16109760105609894
0.35468101501464844,3.3957133293151855,-0.1607527732849121
0.3772246837615967,3.3854517936706543,-0.1599402278661728
0.4023967981338501,3.3982911109924316,-0.16022589802742004
0.4259435534477234,3.3954410552978516,-0.15977643430233002
0.45164254307746887,3.4078850746154785,-0.16005130112171173
0.47683992981910706,3.412353038787842,-0.15994375944137573
0.5014838576316833,3.416733503341675,-0.15972301363945007
0.5191217660903931,3.374650478363037,-0.15734106302261353
0.5592005848884583,3.4750239849090576,-0.16159965097904205
0.5807709693908691,3.455685615539551,-0.1602860987186432
0.6034157276153564,3.4439079761505127,-0.15933425724506378
0.6303079128265381,3.4549896717071533,-0.15930435061454773
0.6496394872665405,3.4276132583618164,-0.1575099676847458
0.6906152963638306,3.5111451148986816,-0.16080622375011444
0.7064528465270996,3.4642293453216553,-0.15812458097934723
0.735409677028656,3.4821665287017822,-0.15841317176818848
0.753063440322876,3.446481466293335,-0.15616445243358612
0.7818500399589539,3.4641122817993164,-0.15633536875247955
0.8074625134468079,3.466285467147827,-0.15580818057060242
0.8361173868179321,3.479595899581909,-0.15577803552150726
0.8603055477142334,3.4737343788146973,-0.1548936814069748
0.8864192962646484,3.4752631187438965,-0.15422110259532928
0.9259903430938721,3.529569149017334,-0.15587951242923737
0.9634475111961365,3.5721497535705566,-0.15699946880340576
0.9840878248214722,3.550368309020996,-0.15528246760368347
1.0269123315811157,3.6072998046875,-0.15700529515743256
1.058487892150879,3.6226162910461426,-0.15677829086780548
1.085365653038025,3.6228554248809814,-0.15590937435626984
1.1056921482086182,3.6004273891448975,-0.15406443178653717
1.1400898694992065,3.6224827766418457,-0.154117152094841
1.172402024269104,3.6368203163146973,-0.15381823480129242
1.2036046981811523,3.6472277641296387,-0.15322472155094147
1.2433592081069946,3.683393955230713,-0.1537187099456787
1.2687962055206299,3.6747677326202393,-0.15232108533382416
1.3411668539047241,3.798393964767456,-0.15636660158634186
1.3579974174499512,3.7634356021881104,-0.1538206785917282
1.3983232975006104,3.7944958209991455,-0.15391820669174194
1.4478652477264404,3.8469200134277344,-0.15483571588993073
1.4746357202529907,3.8368029594421387,-0.1532127857208252
1.5155932903289795,3.86283802986145,-0.1530294567346573
1.5896257162094116,3.972134590148926,-0.1560070961713791
1.610499382019043,3.946927785873413,-0.1536555141210556
1.6485358476638794,3.9608795642852783,-0.15278376638889313
1.7004488706588745,4.006885528564453,-0.1531325876712799
1.123522162437439,2.597774028778076,-0.09832984209060669
1.15035879611969,2.611665964126587,-0.09786093235015869
1.1583937406539917,2.5825085639953613,-0.09577573835849762
1.176616907119751,2.5743067264556885,-0.09443490207195282
1.1894783973693848,2.5555245876312256,-0.09272757172584534
1.1998422145843506,2.5334551334381104,-0.09086316078901291
1.2031679153442383,2.497299909591675,-0.08851651102304459
1.210166096687317,2.4679007530212402,-0.08639208227396011
1.215416431427002,2.434859037399292,-0.08414248377084732
1.228112816810608,2.4197745323181152,-0.0825042650103569
1.2513399124145508,2.4254801273345947,-0.08157341182231903
1.2535698413848877,2.389157295227051,-0.07919494062662125
1.2627896070480347,2.36665678024292,-0.07729292660951614
1.2784397602081299,2.3582868576049805,-0.07582900673151016
1.2829606533050537,2.3291659355163574,-0.07368896156549454
1.3105735778808594,2.3406779766082764,-0.07279591262340546
1.3092976808547974,2.3010904788970947,-0.07031631469726562
1.3165639638900757,2.2789664268493652,-0.06836584210395813
1.3199052810668945,2.2499566078186035,-0.06620844453573227
1.3477933406829834,2.260732412338257,-0.06514779478311539
1.3386536836624146,2.2116029262542725,-0.062388528138399124
1.3489670753479004,2.196211099624634,-0.06060193106532097
1.3598839044570923,2.180314540863037,-0.05874128267168999
1.3831768035888672,2.1841704845428467,-0.0573897622525692
1.3890886306762695,2.1619160175323486,-0.05530555918812752
1.4035841226577759,2.152578115463257,-0.05353301763534546
1.4227814674377441,2.149355888366699,-0.05186014994978905
1.432155966758728,2.133763551712036,-0.049880895763635635
1.4265426397323608,2.0951738357543945,-0.04732976853847504
1.456775426864624,2.1076316833496094,-0.04583154246211052
1.4499560594558716,2.0695948600769043,-0.043257564306259155
1.4503098726272583,2.0407063961029053,-0.04080820083618164
1.4593502283096313,2.0246713161468506,-0.038580745458602905
1.458277940750122,1.9965344667434692,-0.036123719066381454
1.4721318483352661,1.9863818883895874,-0.03381476551294327
3.1774837970733643,4.444625377655029,0.11584499478340149
3.1473801136016846,4.475406646728516,0.12122652679681778
2.6201064586639404,3.781297445297241,0.10586927831172943
2.582888126373291,3.787813663482666,0.10944006592035294
3.1444125175476074,4.685506820678711,0.13937222957611084
3.1353604793548584,4.743015289306641,0.14485150575637817
3.103038787841797,4.773402214050293,0.14955362677574158
1.635013461112976,2.555814266204834,0.0819680243730545
1.6379830837249756,2.6001100540161133,0.08520875871181488
1.614443063735962,2.605537176132202,0.08715688437223434
1.5707144737243652,2.5773427486419678,0.08791560679674149
2.8015737533569336,4.6710638999938965,0.16226701438426971
2.734074115753174,4.63386344909668,0.16377322375774384
2.7620797157287598,4.76210355758667,0.171126589179039
1.3931005001068115,2.441615581512451,0.08910961449146271
2.4595909118652344,4.381580829620361,0.1623174250125885
2.4340803623199463,4.413532733917236,0.16587352752685547
2.4123928546905518,4.451972007751465,0.16964657604694366
2.388714075088501,4.482316493988037,0.17298975586891174
2.486025810241699,4.744280815124512,0.18539978563785553
2.4475111961364746,4.75537109375,0.18801985681056976
2.3855550289154053,4.7211198806762695,0.18886271119117737
2.3386716842651367,4.709567546844482,0.19044457376003265
1.2581727504730225,2.578579902648926,0.10538744181394577
1.2257660627365112,2.5595016479492188,0.10564840584993362
1.2019823789596558,2.557765245437622,0.10661337524652481
1.1807351112365723,2.5589914321899414,0.10765551775693893
1.167402744293213,2.577904462814331,0.10945834219455719
1.161570429801941,2.6146886348724365,0.11197173595428467
1.1300222873687744,2.594398260116577,0.11202257126569748
2.0619308948516846,4.827816963195801,0.21013803780078888
2.040257215499878,4.870788097381592,0.21366319060325623
2.0158045291900635,4.910403728485107,0.21707826852798462
1.991727590560913,4.95379114151001,0.22053521871566772
1.988612174987793,5.051542282104492,0.22645710408687592
2.014880895614624,5.225506782531738,0.23583024740219116
1.995000958442688,5.2831196784973145,0.24001194536685944
1.9745208024978638,5.344827175140381,0.24438078701496124
1.9465210437774658,5.388199806213379,0.2478257566690445
1.9023572206497192,5.387301445007324,0.24925312399864197
1.8724548816680908,5.422450542449951,0.2523093819618225
1.865868330001831,5.527693748474121,0.2586696743965149
1.8467992544174194,5.6038923263549805,0.2636522948741913
1.9164791107177734,5.958673477172852,0.28173160552978516
1.8783087730407715,5.9870805740356445,0.2844787836074829
1.8582603931427002,6.070818901062012,0.28984665870666504
1.8271454572677612,6.120893955230713,0.29364433884620667
1.7938281297683716,6.167230606079102,0.29719579219818115
1.7574527263641357,6.210054397583008,0.30049481987953186
1.7347064018249512,6.301388740539551,0.30615949630737305
1.7118644714355469,6.3924102783203125,0.3118245303630829
1.6712424755096436,6.419190883636475,0.3143860399723053
0.8227432370185852,3.253138780593872,0.15994182229042053
1.5685315132141113,6.396692752838135,0.3155438005924225
0.7966657876968384,3.3518524169921875,0.16588985919952393
1.4682245254516602,6.3762688636779785,0.3166120946407318
1.4093341827392578,6.32152795791626,0.3149251639842987
1.3636748790740967,6.323476314544678,0.3160645067691803
1.2934273481369019,6.21466064453125,0.31148120760917664
0.3608959913253784,1.7978482246398926,0.09034484624862671
0.34296709299087524,1.7735276222229004,0.08935899287462234
0.3356002867221832,1.802704930305481,0.09106916189193726
0.31686344742774963,1.77041494846344,0.08967709541320801
0.3029215931892395,1.7649202346801758,0.08962248265743256
0.28662821650505066,1.7439066171646118,0.08873994648456573
0.27428045868873596,1.745876431465149,0.08902893960475922
0.2666841447353363,1.7786037921905518,0.09089203923940659
0.25540420413017273,1.78812575340271,0.09157682210206985
0.2569003403186798,1.8942502737045288,0.09722974896430969
0.7705267667770386,5.997537612915039,0.3083263337612152
0.7202911972999573,5.936940670013428,0.3056509494781494
0.5749082565307617,5.034857273101807,0.25959426164627075
0.5444652438163757,5.081369400024414,0.2623883783817291
0.5184042453765869,5.178165912628174,0.2678031325340271
0.3853120803833008,4.144564151763916,0.21466991305351257
0.35224422812461853,4.10050630569458,0.2125740498304367
0.3299318253993988,4.184526443481445,0.2171301543712616
0.30063381791114807,4.186716079711914,0.2174544483423233
0.27077367901802063,4.177009105682373,0.21716924011707306
0.24281126260757446,4.206063270568848,0.21891476213932037
0.25443682074546814,5.014103412628174,0.2611726224422455
0.3397858738899231,7.767199516296387,0.40474116802215576
0.2852575182914734,7.761570453643799,0.40463370084762573
0.22993507981300354,7.720461368560791,0.40269437432289124
0.12400034070014954,5.463815212249756,0.28515002131462097
0.08601182699203491,5.464534282684326,0.28535929322242737
0.04799971729516983,5.4649977684021,0.28541043400764465
0.013850711286067963,7.587305545806885,0.39620962738990784
-0.03893698379397392,7.58721923828125,0.39618560671806335
-0.09220947325229645,7.55164909362793,0.3943280875682831
-0.14407283067703247,7.519625663757324,0.39267486333847046
-0.1953938901424408,7.483348369598389,0.39081820845603943
-0.2467706948518753,7.46623420715332,0.389699250459671
-0.29822468757629395,7.456564426422119,0.3889678120613098
-0.3510197699069977,7.477714538574219,0.3898622691631317
-0.2926703095436096,5.418354034423828,0.2823542654514313
-0.3312391936779022,5.431778430938721,0.2829292416572571
-0.36727187037467957,5.406015396118164,0.2814427614212036
-0.4027707576751709,5.380038738250732,0.27978354692459106
-0.4398908317089081,5.3771538734436035,0.279339462518692
-0.4738876521587372,5.3312087059021,0.27666881680488586
-0.44394898414611816,4.628820419311523,0.23998506367206573
-0.4729651212692261,4.594593524932861,0.23799093067646027
-0.5065207481384277,4.6067376136779785,0.23833522200584412
-0.5374243259429932,4.595408916473389,0.23737145960330963
-0.5658121109008789,4.560582637786865,0.23520274460315704
-0.5953637957572937,4.541110515594482,0.23384565114974976
-0.626853346824646,4.536899089813232,0.23328641057014465
-0.655509352684021,4.513166904449463,0.2317359745502472
-0.6853708624839783,4.500871658325195,0.23064734041690826
-0.7154622077941895,4.488324165344238,0.22949863970279694
-0.7449319958686829,4.475655555725098,0.22836413979530334
-0.7746533751487732,4.46272611618042,0.22722269594669342
-0.8028867244720459,4.441913604736328,0.22569261491298676
-0.8265390992164612,4.397921562194824,0.2229853719472885
-0.8543838262557983,4.380717754364014,0.2215050756931305
-0.7417616844177246,3.667262315750122,0.18492011725902557
-0.7669181227684021,3.6621220111846924,0.18416599929332733
-0.9451652765274048,4.3621697425842285,0.2187836617231369
-0.968559205532074,4.325099945068359,0.21635164320468903
-0.9982286691665649,4.318398475646973,0.21536186337471008
-1.029872179031372,4.319037914276123,0.21465931832790375
-1.0573619604110718,4.304408550262451,0.21321983635425568
-1.0727038383483887,4.240318775177002,0.20934030413627625
-1.0942507982254028,4.2026143074035645,0.20678403973579407
-1.1404943466186523,4.259060859680176,0.20885047316551208
-1.1636103391647339,4.228588104248047,0.20649975538253784
-1.1911640167236328,4.21691370010376,0.2050967812538147
-1.2156620025634766,4.193728923797607,0.20313817262649536
-1.2470316886901855,4.192710876464844,0.20225119590759277
-1.27157723903656,4.169076919555664,0.20028555393218994
-1.2980839014053345,4.15278959274292,0.19855743646621704
-1.3261369466781616,4.14398193359375,0.1971801370382309
-1.3517749309539795,4.127543926239014,0.19544796645641327
-1.3853883743286133,4.1329169273376465,0.19473236799240112
-1.4115087985992432,4.1158857345581055,0.19297003746032715
-1.4317673444747925,4.084147930145264,0.19045759737491608
-1.4570353031158447,4.066984176635742,0.18856632709503174
-1.4816462993621826,4.049842834472656,0.18670788407325745
-1.5098341703414917,4.039491176605225,0.18513360619544983
-1.5323128700256348,4.014384746551514,0.18289871513843536
-1.565317153930664,4.018463611602783,0.18192648887634277
-1.5869210958480835,3.9932644367218018,0.1795557588338852
-1.6107898950576782,3.975350856781006,0.1775454729795456
-1.6369339227676392,3.9605119228363037,0.1756410002708435
-1.652337670326233,3.9203250408172607,0.17263102531433105
-1.6557083129882812,3.855344772338867,0.16848124563694
-1.6834124326705933,3.8476691246032715,0.16680340468883514
