X,Y,Z
0.2821834981441498,5.297041893005371,-0.20709481835365295
0.2581340968608856,4.285845756530762,-0.16742432117462158
0.2846543490886688,4.237231731414795,-0.1653333306312561
0.31286147236824036,4.219597339630127,-0.16446158289909363
0.3421389162540436,4.217334747314453,-0.16419732570648193
0.3747638165950775,4.245920181274414,-0.16513726115226746
0.48860377073287964,5.12917947769165,-0.19924722611904144
0.5141288638114929,5.028619766235352,-0.19499103724956512
0.4954785704612732,4.536048412322998,-0.1755833476781845
0.5327703356742859,4.5829267501831055,-0.17709432542324066
0.5718461871147156,4.633298873901367,-0.17873625457286835
0.6155968904495239,4.718261241912842,-0.18171200156211853
0.6884657144546509,5.00783109664917,-0.19239789247512817
0.7190144658088684,4.975954532623291,-0.19071823358535767
0.7521260380744934,4.963185787200928,-0.1897825449705124
0.7835849523544312,4.934628486633301,-0.18824303150177002
0.8153799176216125,4.913671970367432,-0.18701355159282684
0.8465311527252197,4.892585277557373,-0.18564973771572113
0.8766722083091736,4.8674750328063965,-0.1841186285018921
0.9101430773735046,4.861358165740967,-0.1833162158727646
0.9394045472145081,4.831960678100586,-0.18164224922657013
0.9704449772834778,4.809925556182861,-0.18024833500385284
0.9970902800559998,4.77260684967041,-0.17821528017520905
1.0280662775039673,4.758077621459961,-0.17700667679309845
1.0588903427124023,4.743347644805908,-0.17580102384090424
1.0909361839294434,4.732109069824219,-0.17472462356090546
1.1207873821258545,4.709113121032715,-0.173212930560112
1.149398922920227,4.6861724853515625,-0.17164146900177002
1.1775691509246826,4.6631083488464355,-0.17002299427986145
1.2054380178451538,4.639888763427734,-0.16841274499893188
1.2336024045944214,4.616357326507568,-0.16679070889949799
1.262132167816162,4.5924859046936035,-0.16515439748764038
1.2904773950576782,4.572474479675293,-0.16360630095005035
1.32161283493042,4.563615322113037,-0.1624206006526947
1.3459802865982056,4.532100200653076,-0.16044142842292786
1.375213861465454,4.515196323394775,-0.15897370874881744
1.4048473834991455,4.497927665710449,-0.15748809278011322
1.430808186531067,4.473388671875,-0.15569071471691132
1.4539048671722412,4.441339015960693,-0.15361468493938446
1.4804247617721558,4.420264720916748,-0.15193024277687073
1.5085703134536743,4.402530670166016,-0.15035337209701538
1.536541223526001,4.384617805480957,-0.1487809419631958
1.283658742904663,3.5837178230285645,-0.12071539461612701
1.3105309009552002,3.58233380317688,-0.11979015171527863
1.6123807430267334,4.315790176391602,-0.14324665069580078
1.6368056535720825,4.289923191070557,-0.14130741357803345
1.6720054149627686,4.293139934539795,-0.14030911028385162
1.6985235214233398,4.274366855621338,-0.138505220413208
1.7243667840957642,4.255631923675537,-0.13673318922519684
1.749300241470337,4.232822418212891,-0.13481077551841736
1.7787458896636963,4.220583438873291,-0.13322657346725464
1.8042174577713013,4.2013115882873535,-0.13137617707252502
1.8266427516937256,4.174619197845459,-0.12926357984542847
1.8549898862838745,4.162151336669922,-0.12760885059833527
1.8806759119033813,4.142085075378418,-0.12570002675056458
1.9057570695877075,4.122054576873779,-0.12377078831195831
1.9232673645019531,4.0880889892578125,-0.12138495594263077
1.9578559398651123,4.089014530181885,-0.12001347541809082
1.9759385585784912,4.054312229156494,-0.11757940798997879
2.00382399559021,4.040655612945557,-0.11575897783041
2.0305919647216797,4.027323246002197,-0.11389004439115524
2.0501182079315186,3.9999265670776367,-0.11163508147001266
2.0778756141662598,3.9856317043304443,-0.1096838042140007
2.1095526218414307,3.977854013442993,-0.10787779092788696
2.1302971839904785,3.9535341262817383,-0.10559919476509094
2.1489624977111816,3.925673723220825,-0.10323896259069443
2.1419901847839355,3.849285840988159,-0.09956289082765579
2.1663966178894043,3.8311703205108643,-0.09741515666246414
2.1841506958007812,3.803126335144043,-0.09496809542179108
2.2173428535461426,3.8020169734954834,-0.09319949895143509
2.239774465560913,3.7798233032226562,-0.0908394381403923
2.261047840118408,3.7580761909484863,-0.08847222477197647
2.293691635131836,3.7566094398498535,-0.08656731992959976
2.303300142288208,3.7140650749206543,-0.08360575139522552
2.3328874111175537,3.704838514328003,-0.08140522241592407
2.365204334259033,3.7028934955596924,-0.07932516932487488
2.3855862617492676,3.6805419921875,-0.07674472779035568
2.40252685546875,3.6508710384368896,-0.07393629848957062
2.443774461746216,3.661069631576538,-0.0718671903014183
2.459059238433838,3.6320199966430664,-0.06900405138731003
2.4842605590820312,3.6148808002471924,-0.06624800711870193
2.536221504211426,3.6407225131988525,-0.06423483788967133
2.5399672985076904,3.5952043533325195,-0.060849498957395554
2.5647058486938477,3.5776493549346924,-0.0577813945710659
2.6031064987182617,3.5837032794952393,-0.05511721223592758
2.6368296146392822,3.578439474105835,-0.05199413374066353
2.5558109283447266,3.607577323913574,0.07870706170797348
2.52480411529541,3.6197519302368164,0.08189466595649719
2.5030999183654785,3.64420223236084,0.08520694077014923
2.4963483810424805,3.695976972579956,0.08921724557876587
2.507092237472534,3.76863169670105,0.0935119166970253
2.51580810546875,3.8423519134521484,0.09786942601203918
2.5118842124938965,3.9006996154785156,0.10188217461109161
2.4845762252807617,3.918077230453491,0.10465021431446075
2.4638824462890625,3.9494717121124268,0.10780911892652512
2.4340150356292725,3.9678726196289062,0.1105557307600975
2.4058423042297363,3.984945058822632,0.11313489824533463
2.3856823444366455,4.015154838562012,0.11605622619390488
2.351663827896118,4.026057720184326,0.11839193850755692
2.3216609954833984,4.04335880279541,0.12090851366519928
2.2895851135253906,4.052569389343262,0.12306046485900879
2.2734453678131104,4.092870235443115,0.12613274157047272
2.2430078983306885,4.109557151794434,0.1284656673669815
2.217280387878418,4.132289886474609,0.13092972338199615
2.1916286945343018,4.154711723327637,0.13337944447994232
2.1613471508026123,4.170475482940674,0.13553397357463837
2.1341352462768555,4.193160057067871,0.13790252804756165
2.114769697189331,4.229101181030273,0.14066819846630096
2.0852603912353516,4.243661403656006,0.14270655810832977
2.0540623664855957,4.258780479431152,0.14473679661750793
2.019465208053589,4.266589641571045,0.14647316932678223
1.9921995401382446,4.287934303283691,0.14864635467529297
1.9655596017837524,4.308729648590088,0.15077392756938934
1.9955856800079346,4.4579010009765625,0.15740486979484558
1.9756386280059814,4.500842094421387,0.1602824181318283
1.9454395771026611,4.522410869598389,0.16243788599967957
1.8926814794540405,4.485414028167725,0.16240563988685608
1.8673655986785889,4.512852668762207,0.16470551490783691
1.8215117454528809,4.493602275848389,0.165203258395195
1.8134069442749023,4.568298816680908,0.16915997862815857
1.8071424961090088,4.650385856628418,0.17343388497829437
1.766373634338379,4.640908241271973,0.1742672473192215
1.7269712686538696,4.634829044342041,0.17519962787628174
1.3139106035232544,3.605445146560669,0.13712307810783386
1.291784644126892,3.6258208751678467,0.1387413591146469
1.2760412693023682,3.664430618286133,0.14106783270835876
1.6052906513214111,4.715262413024902,0.18258576095104218
1.5745524168014526,4.733787536621094,0.18432848155498505
1.5332976579666138,4.722638130187988,0.18483193218708038
1.5087438821792603,4.763253211975098,0.18737353384494781
1.4839000701904297,4.8036909103393555,0.1899237036705017
1.441447138786316,4.783941745758057,0.1900784969329834
1.4243203401565552,4.850071430206299,0.19361786544322968
1.4100092649459839,4.931384563446045,0.19769331812858582
1.3747291564941406,4.941286563873291,0.19892805814743042
1.305210828781128,4.822697639465332,0.19496649503707886
1.269036054611206,4.824222564697266,0.19585192203521729
1.2391988039016724,4.8480424880981445,0.1976238191127777
1.210261344909668,4.879437446594238,0.19958795607089996
1.1855486631393433,4.929627895355225,0.20233921706676483
1.1506261825561523,4.93785285949707,0.20338039100170135
1.1173179149627686,4.953455924987793,0.20473769307136536
1.0861185789108276,4.9763288497924805,0.2063964158296585
1.0541685819625854,4.999113082885742,0.20794270932674408
1.0201958417892456,5.0140862464904785,0.20914362370967865
0.9860633611679077,5.028827667236328,0.2103472352027893
1.493237853050232,7.912080764770508,0.3318878412246704
1.444502353668213,7.9567694664001465,0.33470144867897034
1.383449673652649,7.93586540222168,0.33469095826148987
1.3376201391220093,8.006988525390625,0.3384183943271637
1.2706077098846436,7.95066499710083,0.3367745578289032
1.6479698419570923,10.806853294372559,0.4587918519973755
1.5541868209838867,10.690545082092285,0.4548712968826294
1.4637069702148438,10.585061073303223,0.4514099955558777
1.377630352973938,10.506031036376953,0.44877803325653076
1.2848788499832153,10.36437702178955,0.443400502204895
1.1997275352478027,10.268449783325195,0.43998342752456665
1.1051781177520752,10.078802108764648,0.43255770206451416
1.0294865369796753,10.031847953796387,0.43124595284461975
0.9595953226089478,10.038732528686523,0.43220868706703186
0.380234956741333,4.2956390380859375,0.1851256936788559
0.34534570574760437,4.239840507507324,0.18290823698043823
0.3162934184074402,4.257747650146484,0.18388071656227112
0.2877265512943268,4.275406837463379,0.18484823405742645
0.2648470997810364,4.3902587890625,0.19003291428089142
0.23007702827453613,4.314047813415527,0.1868862509727478
0.19725152850151062,4.257065296173096,0.18450438976287842
0.16728638112545013,4.266152858734131,0.1849958449602127
0.13465718924999237,4.177495956420898,0.18125389516353607
0.10789036750793457,4.268054962158203,0.1852964609861374
0.07746925950050354,4.229676723480225,0.1837516576051712
0.018288742750883102,1.6116572618484497,0.070020891726017
0.006897584069520235,1.619551420211792,0.07035927474498749
-0.0045718420296907425,1.6937087774276733,0.0735798254609108
-0.04070812463760376,4.210675239562988,0.18293052911758423
-0.06734564155340195,4.050307273864746,0.17597779631614685
-0.09566804766654968,4.057544708251953,0.17631009221076965
-0.12634700536727905,4.1387038230896,0.17974036931991577
-0.15489235520362854,4.118213176727295,0.17876172065734863
-0.07315297424793243,1.6413590908050537,0.07121618092060089
-0.18235670030117035,3.5388572216033936,0.15348578989505768
-0.20689523220062256,3.5375120639801025,0.1533748209476471
-0.23243670165538788,3.5515761375427246,0.15390072762966156
-0.253465473651886,3.4953701496124268,0.15129953622817993
-0.607440173625946,7.644564151763916,0.3305603861808777
-0.3309878706932068,3.8298215866088867,0.16544337570667267
-0.34200742840766907,3.6603517532348633,0.15797343850135803
-0.3639490306377411,3.6229469776153564,0.15621896088123322
-0.38693419098854065,3.5970277786254883,0.15489451587200165
-0.4090592563152313,3.571026563644409,0.15353091061115265
-0.765160858631134,6.295572757720947,0.2702508866786957
-0.8052490949630737,6.263054847717285,0.26844972372055054
-0.8434728384017944,6.218667030334473,0.2661556899547577
-0.879150390625,6.154621124267578,0.26303237676620483
-0.9178915023803711,6.1253204345703125,0.2612283229827881
-0.5201512575149536,3.3158605098724365,0.14111141860485077
-0.5416398048400879,3.304527759552002,0.14033468067646027
-0.5632534027099609,3.293013095855713,0.139554962515831
-0.5758636593818665,3.2314014434814453,0.13666418194770813
-0.5929195284843445,3.1965856552124023,0.13488468527793884
-0.6118226051330566,3.1771469116210938,0.1336997002363205
-0.6281948685646057,3.146117687225342,0.13203799724578857
-0.643500030040741,3.1111674308776855,0.13022242486476898
-0.655292272567749,3.0608463287353516,0.1277748942375183
-0.6692942976951599,3.0218687057495117,0.12581050395965576
-0.6882098913192749,3.0096349716186523,0.12489932030439377
-0.7032824158668518,2.9821178913116455,0.1233416423201561
-0.6931535005569458,2.852125883102417,0.1175711378455162
-0.7005541920661926,2.798062562942505,0.11495383083820343
-0.7106020450592041,2.7552614212036133,0.11280809342861176
-0.7295866012573242,2.7503199577331543,0.11220477521419525
-0.7472375631332397,2.7415578365325928,0.1113986000418663
-0.7731937766075134,2.762761116027832,0.11181208491325378
-0.8029091358184814,2.794933795928955,0.11265953630208969
-0.9109938144683838,3.08872652053833,0.12398812174797058
-0.9482657313346863,3.1346559524536133,0.1253223717212677
-0.9775032997131348,3.1543140411376953,0.1255027800798416
-1.0058969259262085,3.1699893474578857,0.12552037835121155
-1.0720431804656982,3.3004775047302246,0.1300562173128128
-1.085538625717163,3.2632062435150146,0.12794087827205658
-1.1321214437484741,3.3258209228515625,0.12975171208381653
-1.1649084091186523,3.347602605819702,0.12987859547138214
-1.1600168943405151,3.262462854385376,0.12585626542568207
-1.4832173585891724,4.083827495574951,0.15664365887641907
-1.5115967988967896,4.073458671569824,0.15532639622688293
-1.5320909023284912,4.040805339813232,0.1531560868024826
-1.5565446615219116,4.023130893707275,0.15148741006851196
-1.5648597478866577,3.9654479026794434,0.14830821752548218
-1.5697191953659058,3.9005260467529297,0.1448846310377121
-1.5938793420791626,3.8823297023773193,0.14318740367889404
-2.3407459259033203,5.588644027709961,0.20462627708911896
-1.615057349205017,3.7846953868865967,0.13748909533023834
-1.6340934038162231,3.759547472000122,0.13549013435840607
-1.6405789852142334,3.705596685409546,0.13246043026447296
-1.6517785787582397,3.6621592044830322,0.1298106461763382
-1.6675208806991577,3.6293082237243652,0.12751878798007965
-1.6716972589492798,3.5757880210876465,0.12448832392692566
-1.6802417039871216,3.5329623222351074,0.12186086922883987
-1.6943546533584595,3.5002617835998535,0.11955835670232773
-1.7117594480514526,3.4744350910186768,0.11749783158302307
-1.7388819456100464,3.469733238220215,0.11608122289180756
-1.7617993354797363,3.458207607269287,0.11444107443094254
-1.7995070219039917,3.4740090370178223,0.11367253959178925
-1.843675971031189,3.4994497299194336,0.11316103488206863
-2.462773561477661,4.598752021789551,0.14688442647457123
-2.496678352355957,4.589402198791504,0.14470747113227844
-1.1826872825622559,2.139246702194214,0.0665421113371849
-2.5175697803497314,4.4798431396484375,0.1373874694108963
-2.5672073364257812,4.496681213378906,0.1358908861875534
-2.5730438232421875,4.4393415451049805,0.13211782276630402
-2.58089542388916,4.385087490081787,0.12843038141727448
-1.2467938661575317,2.0845351219177246,0.0600043460726738
-1.2565410137176514,2.0695793628692627,0.05852442607283592
-2.027726411819458,3.2916736602783203,0.09138859808444977
-2.054232120513916,3.284473180770874,0.08939670026302338
-2.0727078914642334,3.2636566162109375,0.08699288219213486
-2.6544809341430664,4.120093822479248,0.1073891818523407
-2.7348992824554443,4.1843719482421875,0.10656373202800751
-2.2175827026367188,3.3420543670654297,0.08298644423484802
-1.3561375141143799,2.0154149532318115,0.04873443394899368
-2.7666780948638916,4.055370330810547,0.09537042677402496
-2.790855884552002,4.029351234436035,0.09178442507982254
-2.8122243881225586,4.005001544952393,0.08827134221792221
-2.6726133823394775,3.754610300064087,0.07987869530916214
-2.7123756408691406,3.755007266998291,0.07675106823444366
-2.749405860900879,3.757128953933716,0.07358437776565552
-2.8861403465270996,3.889324188232422,0.07256002724170685
-2.9742376804351807,4.191959381103516,-0.08608774840831757
-2.4328811168670654,3.483961582183838,-0.07483943551778793
-2.780923366546631,4.045726299285889,-0.09053341299295425
-2.747185468673706,4.059194087982178,-0.09429829567670822
-2.729119300842285,4.099451065063477,-0.09863737225532532
-2.1539855003356934,3.285747528076172,-0.08157418668270111
-2.625821113586426,4.068924903869629,-0.10403992235660553
-1.285013198852539,2.0244524478912354,-0.0532522052526474
-2.636129856109619,4.219480037689209,-0.1139245480298996
-1.2640215158462524,2.055896759033203,-0.0568835623562336
-1.2486292123794556,2.0652360916137695,-0.05850500613451004
-2.0046067237854004,3.3694422245025635,-0.09755469113588333
-2.6949710845947266,4.60335111618042,-0.13607385754585266
-2.667886972427368,4.63702917098999,-0.13986489176750183
-2.663085699081421,4.707104206085205,-0.14468137919902802
-2.664417028427124,4.786856174468994,-0.14976313710212708
-2.6259512901306152,4.799064636230469,-0.15272025763988495
-2.603522777557373,4.842223167419434,-0.1566632091999054
-1.8207796812057495,3.445250988006592,-0.11323719471693039
-1.7859201431274414,3.4369993209838867,-0.1146724745631218
-1.7536541223526,3.435978889465332,-0.11628611385822296
-1.7232956886291504,3.4381372928619385,-0.11799879372119904
-1.6993180513381958,3.4499831199645996,-0.11997036635875702
-1.6933305263519287,3.5006260871887207,-0.12333112955093384
-1.7381644248962402,3.660905361175537,-0.13056282699108124
-1.7181769609451294,3.6874921321868896,-0.13309866189956665
-1.6924452781677246,3.6993014812469482,-0.13505220413208008
-1.6729034185409546,3.725233554840088,-0.13752421736717224
-1.6521755456924438,3.751472234725952,-0.1399582177400589
-2.2170326709747314,5.136245250701904,-0.19365964829921722
-2.1704795360565186,5.126332759857178,-0.19521073997020721
-1.6032922267913818,3.8613293170928955,-0.14848478138446808
-1.5725651979446411,3.865447759628296,-0.15000197291374207
-1.547555685043335,3.883864164352417,-0.15207308530807495
-1.528159260749817,3.916619062423706,-0.15471772849559784
-1.507807970046997,3.945331335067749,-0.15718427300453186
-1.4880099296569824,3.9777884483337402,-0.1597655713558197
-1.4620956182479858,3.995633602142334,-0.16172677278518677
-1.4361624717712402,4.013253211975098,-0.16368474066257477
-1.4102458953857422,4.030637264251709,-0.1656375378370285
-1.3871852159500122,4.055069923400879,-0.16786998510360718
-1.3631012439727783,4.0796308517456055,-0.170009583234787
-1.33147394657135,4.081787586212158,-0.17122629284858704
-1.306244134902954,4.102159023284912,-0.17319978773593903
-0.9668359756469727,3.112321138381958,-0.1322638988494873
-0.9494885802268982,3.1339271068573,-0.13399405777454376
-0.8166400790214539,2.766242742538452,-0.11893570423126221
-0.7883158326148987,2.7419347763061523,-0.11854954808950424
-0.7659834027290344,2.7360620498657227,-0.11894474178552628
-0.7407627105712891,2.7186965942382812,-0.1188356876373291
-0.7272560596466064,2.746534585952759,-0.12066805362701416
-0.7126086950302124,2.770489454269409,-0.12229923158884048
-0.6787276268005371,2.7186505794525146,-0.12058345973491669
-1.362825632095337,5.624799728393555,-0.25065019726753235
-1.3397682905197144,5.702447414398193,-0.25530168414115906
-1.2902790307998657,5.67376708984375,-0.2550874948501587
-1.2501531839370728,5.682680130004883,-0.2564939260482788
-1.2002767324447632,5.645493030548096,-0.2558229863643646
-1.1608480215072632,5.653669357299805,-0.25720083713531494
-1.1206549406051636,5.657732963562012,-0.2584020793437958
-1.0851473808288574,5.692403793334961,-0.2608746290206909
-1.0610790252685547,5.788156986236572,-0.26610690355300903
-1.0100547075271606,5.737799644470215,-0.26463836431503296
-0.9610494375228882,5.690760612487793,-0.2633066177368164
-0.9370455145835876,5.793552398681641,-0.26892656087875366
-0.9361923336982727,6.062276840209961,-0.28217437863349915
-0.6815686821937561,4.628700256347656,-0.21598874032497406
-0.6814848780632019,4.865201950073242,-0.22760458290576935
-0.6404522657394409,4.815631866455078,-0.22586289048194885
-0.5821036100387573,4.6224870681762695,-0.21736758947372437
-0.5557836890220642,4.676781177520752,-0.22038811445236206
-0.5206610560417175,4.6650896072387695,-0.220243901014328
-0.48429492115974426,4.633670806884766,-0.21916763484477997
-0.5686091780662537,5.833023548126221,-0.2764175236225128
-0.42849183082580566,4.737063884735107,-0.22491584718227386
-0.48428457975387573,5.805328369140625,-0.2760797142982483
-0.43782705068588257,5.742471694946289,-0.27341556549072266
-0.1055939570069313,1.5258721113204956,-0.07273946702480316
-0.09688284993171692,1.5577201843261719,-0.07435104995965958
-0.08670008182525635,1.5700373649597168,-0.07503622770309448
-0.0768919587135315,1.593981385231018,-0.07626716047525406
-0.06347516924142838,1.5438040494918823,-0.0739058405160904
-0.053642336279153824,1.571502685546875,-0.07527494430541992
-0.04174566641449928,1.5367321968078613,-0.07365508377552032
-0.030599839985370636,1.5135761499404907,-0.072593554854393
-0.009566370397806168,1.5450671911239624,-0.07414849102497101
0.001178440172225237,1.552899956703186,-0.07452081143856049
0.011730876751244068,1.5216412544250488,-0.07302077114582062
0.022749820724129677,1.552734136581421,-0.07451646775007248
0.03354121744632721,1.552538514137268,-0.07451428472995758
0.04430454969406128,1.5522711277008057,-0.07446309179067612
0.05595463514328003,1.571419358253479,-0.07533121109008789
0.22479930520057678,5.282134532928467,-0.2530621886253357
0.2615007758140564,5.280455112457275,-0.25283920764923096
0.2968693673610687,5.255147933959961,-0.25149765610694885
0.2698401212692261,4.252223491668701,-0.2033131867647171
0.29815223813056946,4.2268805503845215,-0.20184293389320374
0.3267923593521118,4.216952323913574,-0.20112508535385132
0.35608091950416565,4.214596748352051,-0.2007775902748108
0.4618290364742279,5.047447204589844,-0.2401827573776245
0.49536991119384766,5.028605937957764,-0.23896101117134094
0.5073360800743103,4.80385160446167,-0.22784098982810974
0.5121392607688904,4.548226356506348,-0.215317502617836
0.5506308674812317,4.602705955505371,-0.21750059723854065
0.5909254550933838,4.664604187011719,-0.22003374993801117
0.6533164381980896,4.884734153747559,-0.22998961806297302
0.6897062063217163,4.895530700683594,-0.22989153861999512
0.7199559211730957,4.867546081542969,-0.22799497842788696
0.7511781454086304,4.847069263458252,-0.22646327316761017
0.7836165428161621,4.834062576293945,-0.22529053688049316
0.8133054971694946,4.805449962615967,-0.2234049290418625
0.8530886769294739,4.838221549987793,-0.22420087456703186
0.8896856904029846,4.847543239593506,-0.22389735281467438
0.9215975999832153,4.83367919921875,-0.2225426584482193
0.9491562247276306,4.79656982421875,-0.22012680768966675
0.9824739098548889,4.789902687072754,-0.21912409365177155
1.0120718479156494,4.7678327560424805,-0.21727818250656128
1.0419361591339111,4.745469093322754,-0.21540001034736633
1.0719490051269531,4.726828575134277,-0.21371769905090332
1.103013038635254,4.711713790893555,-0.2121989130973816
1.1302552223205566,4.6812214851379395,-0.21000315248966217
1.1566063165664673,4.650713920593262,-0.20768636465072632
1.1889152526855469,4.6426191329956055,-0.20634357631206512
1.2147672176361084,4.611770153045654,-0.20401719212532043
1.244763970375061,4.595736980438232,-0.20234918594360352
1.2735501527786255,4.57574987411499,-0.2005208134651184
1.302603006362915,4.559511184692383,-0.19872984290122986
1.3298089504241943,4.535449504852295,-0.19657835364341736
1.3586134910583496,4.518817901611328,-0.1947769969701767
1.385443091392517,4.494394302368164,-0.19263732433319092
1.4143092632293701,4.477273464202881,-0.19081735610961914
1.44231379032135,4.460196018218994,-0.1888752430677414
1.4731135368347168,4.450188159942627,-0.18722297251224518
1.4974380731582642,4.421531677246094,-0.18480591475963593
1.520519733428955,4.3889384269714355,-0.18222999572753906
1.270570158958435,3.5873606204986572,-0.14792411029338837
1.2921812534332275,3.571392059326172,-0.1461675614118576
1.3271633386611938,3.591909408569336,-0.14590425789356232
1.618504285812378,4.287354946136475,-0.17278577387332916
1.6482882499694824,4.276065349578857,-0.17098501324653625
1.680266261100769,4.27206563949585,-0.16940346360206604
1.7119498252868652,4.267956256866455,-0.16778695583343506
1.7305835485458374,4.231001377105713,-0.16488145291805267
1.7634897232055664,4.225930690765381,-0.16317316889762878
1.7895804643630981,4.206540107727051,-0.16092684864997864
1.814639687538147,4.1873602867126465,-0.1586211770772934
1.8395529985427856,4.1680192947387695,-0.15632013976573944
1.8587803840637207,4.1338887214660645,-0.153432235121727
1.8945573568344116,4.134877681732178,-0.15181992948055267
1.9124658107757568,4.100871562957764,-0.1488897204399109
1.9399036169052124,4.08804178237915,-0.14672879874706268
1.9644136428833008,4.067729949951172,-0.14427460730075836
1.9926443099975586,4.054054260253906,-0.14203669130802155
2.016996383666992,4.033345699310303,-0.13947398960590363
2.0402278900146484,4.012965202331543,-0.13693934679031372
2.0674097537994385,3.9991087913513184,-0.13459894061088562
2.095151901245117,3.984724998474121,-0.13220179080963135
2.112781524658203,3.9533627033233643,-0.12920810282230377
2.1426033973693848,3.9462478160858154,-0.12699216604232788
2.1264328956604004,3.852796792984009,-0.1219516322016716
2.145521402359009,3.8243789672851562,-0.11901287734508514
2.159320592880249,3.789740562438965,-0.11585884541273117
2.199812412261963,3.802591323852539,-0.11414802074432373
2.2140626907348633,3.7672390937805176,-0.11089123785495758
2.244457244873047,3.758389472961426,-0.10835592448711395
2.2689831256866455,3.743710994720459,-0.10565727949142456
2.2897515296936035,3.721954822540283,-0.10272721946239471
2.307347297668457,3.6927437782287598,-0.09949995577335358
2.3442883491516113,3.6972548961639404,-0.09715479612350464
2.364431619644165,3.6751978397369385,-0.09405042231082916
2.3898372650146484,3.6588058471679688,-0.09097576141357422
2.405565023422241,3.629833936691284,-0.08758047223091125
2.437495231628418,3.6273796558380127,-0.08481663465499878
2.457984685897827,3.6041524410247803,-0.08136807382106781
2.468919277191162,3.5682859420776367,-0.07756013423204422
2.5005383491516113,3.5653700828552246,-0.07450969517230988
2.5434162616729736,3.5734076499938965,-0.07137402892112732
2.548025369644165,3.5317351818084717,-0.06723260134458542
2.589543104171753,3.540266275405884,-0.06390118598937988
2.210695743560791,2.980154037475586,-0.05063740909099579
2.6101338863372803,3.654841423034668,0.09531474113464355
2.611177682876587,3.716204881668091,0.10069486498832703
2.631810188293457,3.8016912937164307,0.10650091618299484
2.6070008277893066,3.8280866146087646,0.11069637537002563
2.578761577606201,3.8470542430877686,0.11452160030603409
2.5558595657348633,3.8715598583221436,0.1183461919426918
2.5257129669189453,3.8911802768707275,0.12202546000480652
2.5016183853149414,3.9158759117126465,0.12567360699176788
2.474161148071289,3.9331746101379395,0.12897735834121704
2.448566436767578,3.958235740661621,0.13249948620796204
2.419400453567505,3.9760212898254395,0.135724738240242
2.399099588394165,4.006411075592041,0.13930915296077728
2.3616199493408203,4.010396957397461,0.14188118278980255
2.3314764499664307,4.02788782119751,0.14490894973278046
2.3031296730041504,4.044060707092285,0.147744283080101
2.2957046031951904,4.097476482391357,0.15193656086921692
2.25345516204834,4.094038486480713,0.15399637818336487
2.227015256881714,4.117257118225098,0.15700563788414001
2.2019381523132324,4.139468669891357,0.1598806083202362
2.1798150539398193,4.168689727783203,0.16301904618740082
2.149040460586548,4.184536933898926,0.16558033227920532
2.124871253967285,4.214253902435303,0.16872538626194
2.092008590698242,4.2218546867370605,0.17087072134017944
2.0691068172454834,4.250400543212891,0.17385545372962952
2.0379436016082764,4.26533317565918,0.17621058225631714
2.0066394805908203,4.280052185058594,0.17856816947460175
1.976691484451294,4.29387092590332,0.18081606924533844
1.9558905363082886,4.329002380371094,0.18400098383426666
1.9750639200210571,4.457168102264404,0.19105327129364014
1.9518483877182007,4.492834091186523,0.1941814422607422
1.9427554607391357,4.5603861808776855,0.19868683815002441
1.9064271450042725,4.5629119873046875,0.20034964382648468
1.892852783203125,4.6233391761779785,0.20455659925937653
1.8505898714065552,4.615106582641602,0.20562851428985596
1.79281747341156,4.566558837890625,0.2048906534910202
1.766331672668457,4.593510627746582,0.20748940110206604
1.7314987182617188,4.598327159881592,0.20909225940704346
1.320430874824524,3.5852749347686768,0.16405853629112244
1.3037364482879639,3.62036395072937,0.16664379835128784
1.277565360069275,3.6296167373657227,0.16805429756641388
1.6358429193496704,4.752737998962402,0.22130277752876282
1.6138966083526611,4.797223091125488,0.22463926672935486
1.5791409015655518,4.808695316314697,0.22635668516159058
1.5445724725723267,4.8198323249816895,0.22799937427043915
1.5099691152572632,4.83070707321167,0.229639932513237
1.495689034461975,4.904467582702637,0.23426169157028198
1.4426374435424805,4.851089000701904,0.23282182216644287
1.4104801416397095,4.868589878082275,0.23468169569969177
1.3792446851730347,4.893677711486816,0.23687238991260529
1.342167854309082,4.895815372467041,0.2379484474658966
1.286802887916565,4.82583475112915,0.23549272119998932
1.255133032798767,4.842163562774658,0.23724238574504852
1.2287349700927734,4.881058692932129,0.2400546818971634
1.1932792663574219,4.889786243438721,0.2413017302751541
1.1646989583969116,4.924681186676025,0.24384193122386932
1.1317495107650757,4.940303325653076,0.24543583393096924
1.1007035970687866,4.963240146636963,0.24740006029605865
1.0710294246673584,4.993611812591553,0.24975326657295227
1.0349351167678833,5.001165866851807,0.25079479813575745
1.003270149230957,5.027456283569336,0.25277474522590637
0.9690751433372498,5.042054176330566,0.25418299436569214
1.4641493558883667,7.914364814758301,0.4000384509563446
1.409155249595642,7.924262046813965,0.40161001682281494
0.8929779529571533,5.238081455230713,0.26611319184303284
1.8037734031677246,11.050567626953125,0.5625663995742798
1.7052265405654907,10.93188190460205,0.5576967597007751
1.6131057739257812,10.839280128479004,0.5541502237319946
1.511399745941162,10.664741516113281,0.5464016199111938
1.4228200912475586,10.57843017578125,0.5431904792785645
1.3247497081756592,10.402350425720215,0.5349384546279907
1.2425473928451538,10.337773323059082,0.5323876142501831
1.1495904922485352,10.167882919311523,0.524419367313385
1.0684208869934082,10.07860279083252,0.5206051468849182
0.9922093152999878,10.023609161376953,0.5185723900794983
0.39776068925857544,4.33145809173584,0.22441452741622925
0.3610939085483551,4.260270118713379,0.22092469036579132
0.32997897267341614,4.247125625610352,0.22045142948627472
0.30240780115127563,4.280447006225586,0.2224014699459076
0.2748934328556061,4.317464828491211,0.22455595433712006
0.24520930647850037,4.334863185882568,0.2257082760334015
0.21497587859630585,4.336455345153809,0.2259586751461029
0.1881503164768219,4.419689178466797,0.23039217293262482
0.14769083261489868,4.151891231536865,0.2165333777666092
0.12321663647890091,4.308785438537598,0.22483138740062714
0.09195637702941895,4.274440288543701,0.22316676378250122
0.022762054577469826,1.5641080141067505,0.08171123266220093
0.012359081767499447,1.626641035079956,0.08498217910528183
0.0010890770936384797,1.7242112159729004,0.09006913006305695
-0.02755194902420044,4.349452018737793,0.22719059884548187
-0.05409526079893112,4.033202171325684,0.21066738665103912
-0.08254363387823105,4.056131362915039,0.21187129616737366
-0.110928013920784,4.063260555267334,0.2122601717710495
-0.13160748779773712,3.844078302383423,0.20068968832492828
-0.0678689256310463,1.6487066745758057,0.08602402359247208
-0.19794592261314392,4.114656925201416,0.21457234025001526
-0.19521205127239227,3.53669810295105,0.18433941900730133
-0.21881552040576935,3.51969051361084,0.18337051570415497
-0.24489504098892212,3.5414438247680664,0.184406578540802
-0.29658377170562744,3.897541046142578,0.20272082090377808
-0.32349997758865356,3.895416736602783,0.20239175856113434
-0.3428528606891632,3.803699016571045,0.1974184811115265
-0.3526756167411804,3.630399465560913,0.18823689222335815
-0.37223249673843384,3.573556423187256,0.18511416018009186
-0.4021663963794708,3.6174356937408447,0.18716031312942505
-0.43941083550453186,3.7192084789276123,0.19211266934871674
-0.4605904221534729,3.677356481552124,0.18964454531669617
-0.8277298212051392,6.25758695602417,0.3222094178199768
-0.8566721677780151,6.147398471832275,0.31605613231658936
-0.8982557058334351,6.1336140632629395,0.314883291721344
-0.9404873847961426,6.127328872680664,0.313944011926651
-0.5296610593795776,3.297227382659912,0.16856630146503448
-0.5484269261360168,3.270453691482544,0.16684068739414215
-0.5777578949928284,3.305039882659912,0.16824913024902344
-1.1525800228118896,6.333253860473633,0.32173386216163635
-1.2066843509674072,6.378819942474365,0.32337939739227295
-0.6334095597267151,3.227354049682617,0.1631595641374588
-0.6511750221252441,3.199965715408325,0.16132397949695587
-0.677873432636261,3.218376398086548,0.16181252896785736
-0.6985515356063843,3.2059998512268066,0.16075202822685242
-0.7268040776252747,3.227748155593872,0.16140776872634888
-1.235668659210205,5.316707134246826,0.2650708556175232
-1.2670093774795532,5.285322189331055,0.26259833574295044
-0.6874825358390808,2.784158706665039,0.1378646045923233
-0.7028011679649353,2.764265298843384,0.1364171952009201
-0.7190214395523071,2.7480275630950928,0.13515737652778625
-0.739131510257721,2.746762275695801,0.1346411406993866
-0.760158360004425,2.749155044555664,0.1341947764158249
-0.7830266952514648,2.7589962482452393,0.13412348926067352
-0.8814083337783813,3.0271363258361816,0.1465553641319275
-0.9493611454963684,3.178004741668701,0.1532163769006729
-0.9714530110359192,3.1713674068450928,0.15225940942764282
-1.0098239183425903,3.216714859008789,0.15371094644069672
-1.0494346618652344,3.265599250793457,0.15528981387615204
-1.0861234664916992,3.3029634952545166,0.15630373358726501
-1.1039879322052002,3.2806236743927,0.15447475016117096
-1.1216535568237305,3.258174419403076,0.15265299379825592
-1.160781979560852,3.2983267307281494,0.15371136367321014
-1.4751640558242798,4.101950168609619,0.1900462806224823
-1.5053999423980713,4.099338054656982,0.18883143365383148
-1.5308928489685059,4.081624507904053,0.18690167367458344
-1.5537019968032837,4.056357383728027,0.1846298724412918
-1.5544675588607788,3.9766252040863037,0.17986303567886353
-1.5598965883255005,3.9116179943084717,0.17571325600147247
-1.5861122608184814,3.9011356830596924,0.17405833303928375
-1.6144975423812866,3.893775701522827,0.172515869140625
-2.3619797229766846,5.586533069610596,0.24576188623905182
-1.6308155059814453,3.7853336334228516,0.16527493298053741
-1.6376352310180664,3.7313718795776367,0.16161298751831055
-1.646543025970459,3.684813976287842,0.15832936763763428
-1.6544185876846313,3.6342380046844482,0.154847651720047
-1.676446557044983,3.6156022548675537,0.15275102853775024
-1.6756244897842407,3.5514259338378906,0.14866496622562408
-1.692853331565857,3.5260119438171387,0.1461964249610901
-1.7030413150787354,3.4864578247070312,0.14316044747829437
-1.7272756099700928,3.4745938777923584,0.14124348759651184
-1.7509413957595825,3.4628071784973145,0.1392965465784073
-1.7808932065963745,3.4651448726654053,0.1378636211156845
-1.8218960762023926,3.4879465103149414,0.13722272217273712
-1.8556880950927734,3.492290735244751,0.13573390245437622
-2.471667528152466,4.575206279754639,0.17565946280956268
-1.1756718158721924,2.1426048278808594,0.08120220899581909
-1.166878342628479,2.093982696533203,0.07831905782222748
-2.547441005706787,4.4979248046875,0.1658567190170288
-2.571103811264038,4.466543197631836,0.16227205097675323
-2.5922293663024902,4.4363484382629395,0.15871375799179077
-2.6071789264678955,4.395941257476807,0.15481030941009521
-1.2533742189407349,2.0802040100097656,0.07201004773378372
-2.486041784286499,4.063457012176514,0.13818737864494324
-2.0431318283081055,3.290771484375,0.10981828719377518
-2.077557325363159,3.296957492828369,0.10788412392139435
-2.66241192817688,4.160683631896973,0.13331350684165955
-2.1472647190093994,3.308170795440674,0.103681281208992
-2.703068256378174,4.106581687927246,0.12579022347927094
-2.7407970428466797,4.100415229797363,0.12236639857292175
-2.7327451705932617,4.03062629699707,0.11708997935056686
-2.7715225219726562,4.032632827758789,0.1138986274600029
-2.794832944869995,4.007107257843018,0.10963492840528488
-2.811936140060425,3.97611665725708,0.10519522428512573
-2.8419787883758545,3.9644229412078857,0.10115870833396912
-2.8441052436828613,3.910010576248169,0.09577358514070511
-2.8892133235931396,3.920656442642212,0.09195086359977722
-2.988008499145508,4.18190336227417,-0.09754738211631775
-2.454664707183838,3.4875359535217285,-0.08528267592191696
-2.4197440147399902,3.492760419845581,-0.08922351896762848
-2.7435450553894043,4.023563861846924,-0.10699386149644852
-2.7542595863342285,4.10106897354126,-0.11306406557559967
-2.1805102825164795,3.3006973266601562,-0.09417819231748581
-2.1690728664398193,3.3361053466796875,-0.09825126826763153
-1.2821205854415894,2.0029165744781494,-0.06072007864713669
-2.6235578060150146,4.166940689086914,-0.12988443672657013
-1.2670773267745972,2.0445733070373535,-0.06537556648254395
-1.2648054361343384,2.073411703109741,-0.0679144337773323
-2.0081496238708496,3.348658323287964,-0.11230231076478958
-1.9879628419876099,3.3696513175964355,-0.11549385637044907
-2.6780433654785156,4.6124043464660645,-0.16136743128299713
-2.6672303676605225,4.672554016113281,-0.16670365631580353
-1.203683853149414,2.1450583934783936,-0.07799398899078369
-2.6428418159484863,4.788938045501709,-0.17726564407348633
-2.6160402297973633,4.8212666511535645,-0.1815177947282791
-2.5934062004089355,4.864329814910889,-0.18616336584091187
-1.8047722578048706,3.444101572036743,-0.13388372957706451
-1.7700251340866089,3.435662031173706,-0.13556262850761414
-1.737734317779541,3.4345169067382812,-0.1375032514333725
-1.7074395418167114,3.4365079402923584,-0.13951116800308228
-1.688271164894104,3.4589056968688965,-0.14229385554790497
-1.7620118856430054,3.6746387481689453,-0.15312758088111877
-1.7287850379943848,3.673037052154541,-0.154941588640213
-1.7020823955535889,3.6853857040405273,-0.15733036398887634
-1.678808569908142,3.704516887664795,-0.15999990701675415
-1.6592762470245361,3.7303009033203125,-0.16292285919189453
-2.2941460609436035,5.258871555328369,-0.2321283221244812
-2.1854169368743896,5.110128879547119,-0.2279089391231537
-2.1597399711608887,5.150537967681885,-0.23202183842658997
-1.5920387506484985,3.8732733726501465,-0.17621970176696777
-1.5557520389556885,3.8626596927642822,-0.17737329006195068
-1.5393922328948975,3.902693510055542,-0.1808127462863922
-1.5171574354171753,3.928032398223877,-0.18358461558818817
-1.496634840965271,3.956669569015503,-0.1864980161190033
-1.47377610206604,3.981790781021118,-0.189271479845047
-1.4477864503860474,3.9995224475860596,-0.19158302247524261
-1.424253225326538,4.024429798126221,-0.19425466656684875
-1.3986304998397827,4.0415730476379395,-0.1965312957763672
-1.3704986572265625,4.051105499267578,-0.1984417587518692
-1.348629355430603,4.083010196685791,-0.2013971358537674
-1.3194818496704102,4.092433929443359,-0.20319020748138428
-0.9730970859527588,3.0929462909698486,-0.154566690325737
-0.9629788398742676,3.136882781982422,-0.1577635258436203
-0.9131433367729187,3.049999475479126,-0.15436698496341705
-0.8051213622093201,2.760460376739502,-0.14049917459487915
-0.7733973264694214,2.72487473487854,-0.13948191702365875
-0.7521229982376099,2.7226755619049072,-0.1401444375514984
-0.7371993064880371,2.742863416671753,-0.14195992052555084
-0.7160143256187439,2.7403533458709717,-0.14257995784282684
-0.7032705545425415,2.7717854976654053,-0.1448972374200821
-1.491417646408081,6.061089992523193,-0.31837528944015503
-1.4615777730941772,6.124411106109619,-0.32321134209632874
-1.4426157474517822,6.236955165863037,-0.33069005608558655
-1.4193004369735718,6.338175296783447,-0.3375170826911926
-1.3702815771102905,6.328900337219238,-0.3383355438709259
-1.3198431730270386,6.315601825714111,-0.33897167444229126
-1.271092414855957,6.30162239074707,-0.3395361602306366
-1.2190418243408203,6.26809549331665,-0.33904537558555603
-1.1614969968795776,6.203537940979004,-0.33673542737960815
-1.1121701002120972,6.1807861328125,-0.3365532159805298
-1.0386406183242798,6.019392490386963,-0.3288210928440094
-0.9367984533309937,5.664675235748291,-0.3104238212108612
-0.9461787343025208,5.979181289672852,-0.32870253920555115
-0.9148352742195129,6.055001735687256,-0.33380618691444397
-0.6694643497467041,4.652082443237305,-0.2570784389972687
-0.6383188366889954,4.672155857086182,-0.25882601737976074
-0.6037057042121887,4.660974502563477,-0.25883984565734863
-0.5741450190544128,4.68823766708374,-0.2609998285770416
-0.5414016842842102,4.692087173461914,-0.2617901563644409
-0.5109917521476746,4.718997955322266,-0.2637593150138855
-0.4724193513393402,4.668099403381348,-0.2613886594772339
-0.44293513894081116,4.710127353668213,-0.2642390727996826
-0.4139409065246582,4.755791664123535,-0.26730433106422424
-0.3852163851261139,4.812948226928711,-0.2709735929965973
-0.11075147241353989,1.5169986486434937,-0.08550373464822769
-0.10349743068218231,1.5683177709579468,-0.08849884569644928
-0.09123082458972931,1.5495373010635376,-0.08754624426364899
-0.08082973957061768,1.5579171180725098,-0.08812989294528961
-0.06822710484266281,1.5194740295410156,-0.08605701476335526
-0.057024359703063965,1.5043208599090576,-0.08523755520582199
-0.04675967991352081,1.5124750137329102,-0.08574270457029343
-0.025904536247253418,1.5363719463348389,-0.08719834685325623
0.01677968166768551,1.5130952596664429,-0.08590859919786453
0.028208795934915543,1.5636341571807861,-0.08877719193696976
0.03907434642314911,1.5634008646011353,-0.088767409324646
0.05141660198569298,1.6098718643188477,-0.09135248512029648
0.2035059928894043,5.233737945556641,-0.2967682182788849
0.23815113306045532,5.197155475616455,-0.2944885194301605
0.22729706764221191,4.295711994171143,-0.24324831366539001
0.2568947970867157,4.2901506423950195,-0.24278680980205536
0.28193339705467224,4.2182440757751465,-0.2384621500968933
0.31110313534736633,4.216217994689941,-0.238013356924057
0.339002788066864,4.198441028594971,-0.23668795824050903
0.37208980321884155,4.234816551208496,-0.23841825127601624
0.4763042628765106,5.020342826843262,-0.2822827994823456
0.5075497627258301,4.982033729553223,-0.27969053387641907
0.4925297200679779,4.5248122215271,-0.2535110414028168
0.5305082201957703,4.5794548988342285,-0.2560659945011139
0.5694925785064697,4.629831790924072,-0.25837141275405884
0.6072033047676086,4.668344497680664,-0.26002466678619385
0.6719354391098022,4.899773597717285,-0.2723451256752014
0.7028911113739014,4.875781059265137,-0.27028682827949524
0.7364637851715088,4.870877265930176,-0.26930245757102966
0.7683367133140564,4.850211143493652,-0.26744556427001953
0.7969790697097778,4.814015865325928,-0.2647610902786255
0.8343843221664429,4.831480503082275,-0.26500576734542847
0.8717419505119324,4.848727226257324,-0.2650597393512726
0.9050764441490173,4.842681407928467,-0.26384875178337097
0.9370098114013672,4.828723907470703,-0.262217253446579
0.9649733901023865,4.791452407836914,-0.25931864976882935
0.9965997338294983,4.777071475982666,-0.2576693594455719
1.0244059562683105,4.747321128845215,-0.2550228536128998
1.056054949760437,4.7364606857299805,-0.2534102201461792
1.0816808938980103,4.69873046875,-0.2503730356693268
1.1148979663848877,4.691036701202393,-0.24892844259738922
1.140033483505249,4.652943134307861,-0.24587969481945038
1.1737182140350342,4.652691841125488,-0.24467778205871582
1.2015719413757324,4.629539966583252,-0.24228492379188538
1.2274255752563477,4.598613739013672,-0.23949600756168365
1.2599585056304932,4.589892387390137,-0.2378494143486023
1.2906793355941772,4.577380657196045,-0.2359972596168518
1.3153331279754639,4.546085357666016,-0.23305639624595642
1.341877818107605,4.5221357345581055,-0.23051223158836365
1.3684933185577393,4.4979329109191895,-0.22796039283275604
1.3956568241119385,4.473325252532959,-0.22537313401699066
1.4264073371887207,4.463708877563477,-0.22351472079753876
1.4518640041351318,4.439172744750977,-0.22082825005054474
1.4807671308517456,4.425597667694092,-0.21870335936546326
1.4987882375717163,4.378401756286621,-0.21491140127182007
1.526611328125,4.360606670379639,-0.21258431673049927
1.287298560142517,3.596834897994995,-0.17404326796531677
1.3036013841629028,3.5661234855651855,-0.1712457686662674
1.602184534072876,4.29208517074585,-0.20452068746089935
1.6348228454589844,4.2882161140441895,-0.20271849632263184
1.6617714166641235,4.269573211669922,-0.20021256804466248
1.6940196752548218,4.265388488769531,-0.19823583960533142
1.7184406518936157,4.243084907531738,-0.19545936584472656
1.7416976690292358,4.2168121337890625,-0.19248616695404053
1.771023154258728,4.204686164855957,-0.19015635550022125
1.7965178489685059,4.185471057891846,-0.1874392181634903
1.8250951766967773,4.173199653625488,-0.18496546149253845
1.843904733657837,4.139407157897949,-0.18156671524047852
1.875912070274353,4.133684158325195,-0.17936868965625763
1.904275894165039,4.120804786682129,-0.17683573067188263
1.9251922369003296,4.093937397003174,-0.17364729940891266
1.9531248807907104,4.080796241760254,-0.17101484537124634
1.9746215343475342,4.053188323974609,-0.16775470972061157
2.002553701400757,4.039571285247803,-0.1650775969028473
2.025864362716675,4.019300937652588,-0.16206420958042145
2.0472402572631836,3.9954097270965576,-0.15891924500465393
2.074965238571167,3.981194257736206,-0.15607593953609467
2.095588445663452,3.952824592590332,-0.15263943374156952
2.125460147857666,3.9458250999450684,-0.15001408755779266
2.15163254737854,3.9317240715026855,-0.14711661636829376
2.1390981674194336,3.84511137008667,-0.14144468307495117
2.153832197189331,3.8100998401641846,-0.1377144306898117
2.175445318222046,3.7889084815979004,-0.13441778719425201
2.2047839164733887,3.781062126159668,-0.13159596920013428
2.2310376167297363,3.765740156173706,-0.12842456996440887
2.244018316268921,3.73081374168396,-0.1245642602443695
2.2765159606933594,3.729490041732788,-0.12181881070137024
2.290215015411377,3.693664789199829,-0.1177687793970108
2.3153574466705322,3.67806339263916,-0.11439163982868195
2.3433687686920166,3.669654369354248,-0.11120712757110596
2.376502513885498,3.6670172214508057,-0.10807652026414871
2.393281936645508,3.6375105381011963,-0.10404962301254272
2.4170725345611572,3.62185001373291,-0.10035082697868347
2.432396650314331,3.592829942703247,-0.09624358266592026
2.4660022258758545,3.588921308517456,-0.09266090393066406
2.4709513187408447,3.5476057529449463,-0.08809889107942581
2.4946844577789307,3.531057119369507,-0.08399520069360733
2.527858257293701,3.526724100112915,-0.07996387779712677
2.545355796813965,3.504560708999634,-0.07559189945459366
2.597372531890869,3.524675130844116,-0.07169347256422043
2.6766111850738525,3.7794840335845947,0.1191747784614563
2.6492741107940674,3.7985427379608154,0.1239873543381691
2.625653028488159,3.8242299556732178,0.12888281047344208
2.600088357925415,3.850921630859375,0.13384729623794556
2.573138952255249,3.8688316345214844,0.13809262216091156
2.544255018234253,3.8877346515655518,0.14232920110225677
2.5148379802703857,3.9066731929779053,0.14651206135749817
2.48337984085083,3.9173572063446045,0.1501198410987854
2.462350368499756,3.9488747119903564,0.15454904735088348
2.4243457317352295,3.953862190246582,0.15786224603652954
2.4307761192321777,4.027487754821777,0.16374613344669342
