X,Y,Z
0.6719148755073547,4.122290134429932,0.9753512144088745
0.644957959651947,4.141493797302246,0.9810169339179993
0.6189526915550232,4.171865940093994,0.9894089102745056
0.58878093957901,4.168055057525635,0.9897079467773438
0.5607633590698242,4.17909574508667,0.9935795068740845
0.5364065170288086,4.220120906829834,1.0046442747116089
0.5057368278503418,4.215904712677002,1.0042914152145386
0.4815441071987152,4.268124580383301,1.0174367427825928
0.45169153809547424,4.278676986694336,1.020723819732666
0.4201836585998535,4.266264915466309,1.0185641050338745
0.3865995407104492,4.227120876312256,1.0100568532943726
0.17745523154735565,2.101433038711548,0.502570629119873
0.329955518245697,4.26177453994751,1.019956350326538
0.2994585931301117,4.263838768005371,1.0207386016845703
0.26711004972457886,4.227735996246338,1.0124266147613525
0.2337930053472519,4.16484260559082,0.9977400898933411
0.20119436085224152,4.0941009521484375,0.9812065362930298
0.17326009273529053,4.106610298156738,0.9846644401550293
0.14422455430030823,4.107553958892822,0.9854079484939575
0.11380664259195328,4.043818473815918,0.9702988862991333
0.1234612762928009,5.829384803771973,1.3986316919326782
0.08346389979124069,5.875650882720947,1.4096927642822266
0.042595140635967255,5.879857063293457,1.4107308387756348
0.0009094157139770687,5.933158874511719,1.4236199855804443
-0.040643226355314255,5.970973491668701,1.4328629970550537
-0.08277448266744614,6.012293815612793,1.443019151687622
-0.12519340217113495,6.042088031768799,1.4497524499893188
-0.16675043106079102,6.026078224182129,1.445297360420227
-0.21058861911296844,6.081915855407715,1.4581398963928223
-0.2549043595790863,6.110836982727051,1.4645841121673584
-0.1758304238319397,3.6123464107513428,0.8655288815498352
-0.20046302676200867,3.603569507598877,0.8632262349128723
-0.22597450017929077,3.6097893714904785,0.8645573854446411
-0.43249019980430603,6.219907283782959,1.4885609149932861
-0.48601779341697693,6.345967769622803,1.5175378322601318
-0.5563883185386658,6.660991191864014,1.5917158126831055
-0.598676323890686,6.615811824798584,1.5798451900482178
-0.6291661262512207,6.4530816078186035,1.540005087852478
-0.6717216372489929,6.42631196975708,1.5327117443084717
-0.7212984561920166,6.459669589996338,1.5396817922592163
-0.7639046907424927,6.4401421546936035,1.533216118812561
-0.800666093826294,6.375054836273193,1.5159943103790283
-0.8369932770729065,6.313533782958984,1.4997262954711914
-0.8754332065582275,6.2705979347229,1.4879575967788696
-0.9242810606956482,6.29502010345459,1.4922112226486206
-0.9761788845062256,6.341736316680908,1.5018310546875
-1.024245262145996,6.361891746520996,1.5048017501831055
-1.0741572380065918,6.3931450843811035,1.509816288948059
-1.1277519464492798,6.4427714347839355,1.5192104578018188
-1.1827576160430908,6.495718002319336,1.5294175148010254
-1.2365796566009521,6.529261589050293,1.5350157022476196
-1.2931944131851196,6.577435493469238,1.5441292524337769
-1.34978187084198,6.621418476104736,1.5522983074188232
-1.4070602655410767,6.66900634765625,1.5605207681655884
-1.4453439712524414,6.6269354820251465,1.5475765466690063
-1.4830209016799927,6.580775260925293,1.5337333679199219
-1.5179576873779297,6.527065753936768,1.5182709693908691
-0.677297830581665,2.8233885765075684,0.6554905772209167
-0.6897029876708984,2.7895050048828125,0.6464027762413025
-0.7024389505386353,2.7593348026275635,0.6381155848503113
-0.723469078540802,2.7623846530914307,0.637196958065033
-0.7382648587226868,2.7432687282562256,0.6312300562858582
-0.7681035995483398,2.7792069911956787,0.637943685054779
-1.7530585527420044,6.176331043243408,1.4142401218414307
-1.7898356914520264,6.14329719543457,1.4032554626464844
-1.824852466583252,6.102509021759033,1.390534520149231
-1.8539683818817139,6.051349639892578,1.374711036682129
-1.8836019039154053,6.003711700439453,1.3597413301467896
-1.9137758016586304,5.959580898284912,1.3456825017929077
-1.9478323459625244,5.925943374633789,1.3340113162994385
-1.977953314781189,5.877224445343018,1.3189207315444946
-2.012951612472534,5.846649169921875,1.3080790042877197
-2.0400710105895996,5.79838228225708,1.292661428451538
-2.068892478942871,5.757336616516113,1.2787740230560303
-2.0959317684173584,5.712551593780518,1.2641648054122925
-2.1220438480377197,5.663747310638428,1.248668909072876
-2.157223701477051,5.635779857635498,1.2376981973648071
-2.2052910327911377,5.643493175506592,1.2347092628479004
-2.2733798027038574,5.704867839813232,1.242692232131958
-2.326367139816284,5.726676940917969,1.2418811321258545
-2.362107992172241,5.705588340759277,1.231804370880127
-2.3847720623016357,5.6482086181640625,1.2137142419815063
-2.424588680267334,5.63313102722168,1.2048654556274414
-2.502506971359253,5.705700397491455,1.2145686149597168
-3.7072112560272217,8.303325653076172,1.7580708265304565
-3.8058648109436035,8.375470161437988,1.7638283967971802
-3.873469114303589,8.372886657714844,1.7535213232040405
-3.9508790969848633,8.386503219604492,1.7463730573654175
-4.048671722412109,8.440958976745605,1.7476636171340942
-4.126283168792725,8.457917213439941,1.7402048110961914
-4.203558444976807,8.47462272644043,1.732388973236084
-4.287476062774658,8.500502586364746,1.726196527481079
-4.402204990386963,8.57938003540039,1.7302013635635376
-4.479104042053223,8.582098007202148,1.7187426090240479
-4.568224906921387,8.61274528503418,1.7120170593261719
-4.658481597900391,8.646737098693848,1.7054202556610107
-1.180893898010254,2.1581521034240723,0.42231905460357666
-1.2040404081344604,2.1639716625213623,0.4198145270347595
-4.978473663330078,8.802872657775879,1.6931747198104858
-5.074131488800049,8.836713790893555,1.6839945316314697
-5.214472770690918,8.946685791015625,1.688815712928772
-1.2413017749786377,2.0976593494415283,0.3920745551586151
-1.2366763353347778,2.056544065475464,0.3803158104419708
-2.9565162658691406,4.842221260070801,0.8857899904251099
-2.984394073486328,4.818419933319092,0.8713657259941101
-3.0039877891540527,4.781271934509277,0.8545772433280945
-3.038322925567627,4.762081146240234,0.8402308225631714
-3.049415349960327,4.706969738006592,0.8193754553794861
-3.0548741817474365,4.650514602661133,0.7982202768325806
-3.0684590339660645,4.6068925857543945,0.7793930172920227
-3.056063413619995,4.5199761390686035,0.7525215744972229
-3.1136515140533447,4.539519786834717,0.7432950139045715
-3.139242649078369,4.515039443969727,0.7262217402458191
-2.9088714122772217,4.125643253326416,0.6511852145195007
-2.873274087905884,4.015581130981445,0.6209492683410645
-2.9085278511047363,4.011724472045898,0.6070162653923035
-2.9257724285125732,3.982361316680908,0.5889200568199158
-2.945247173309326,3.9512343406677246,0.5693553686141968
-2.4477553367614746,3.4563088417053223,-0.24203018844127655
-2.8828670978546143,4.135781764984131,-0.30785953998565674
-2.9026830196380615,4.2296295166015625,-0.33269986510276794
-1.3332651853561401,1.9728642702102661,-0.16320841014385223
-1.3181813955307007,1.9822447299957275,-0.17184096574783325
-2.801460027694702,4.278748989105225,-0.38704702258110046
-2.7050602436065674,4.1958231925964355,-0.3948439657688141
-2.77335786819458,4.372322082519531,-0.42726683616638184
-1.2694292068481445,2.0337624549865723,-0.20591093599796295
-2.713350296020508,4.415530204772949,-0.461882621049881
-2.14697265625,3.551830768585205,-0.3833657503128052
-2.669396162033081,4.4885172843933105,-0.4990341365337372
-2.6333720684051514,4.4989399909973145,-0.5142781138420105
-2.618842601776123,4.550417423248291,-0.5345256924629211
-2.584930896759033,4.567855358123779,-0.5506247878074646
-2.5768561363220215,4.628403186798096,-0.57149738073349
-2.558241128921509,4.67221736907959,-0.5904970169067383
-2.5199403762817383,4.682179927825928,-0.6052349209785461
-2.5034406185150146,4.7329254150390625,-0.625332236289978
-2.478609800338745,4.765829563140869,-0.6427716016769409
-2.4543404579162598,4.802457809448242,-0.6607227921485901
-2.425947427749634,4.832115173339844,-0.6778098940849304
-1.0987800359725952,2.2273173332214355,-0.3182555139064789
-1.0572422742843628,2.1819653511047363,-0.3175184428691864
-1.0346139669418335,2.1746926307678223,-0.3219749629497528
-1.028549075126648,2.202258348464966,-0.33161404728889465
-1.0224997997283936,2.229668378829956,-0.34122544527053833
-1.0080978870391846,2.239471673965454,-0.34818074107170105
-0.9917876720428467,2.2457523345947266,-0.35451260209083557
-0.9752098321914673,2.251981735229492,-0.3609282076358795
-0.9712617993354797,2.2863051891326904,-0.37173891067504883
-0.9519234299659729,2.2850451469421387,-0.3767719268798828
-0.9412051439285278,2.3051576614379883,-0.3852517902851105
-0.9303230047225952,2.325179100036621,-0.39377468824386597
-0.9163130521774292,2.337975263595581,-0.4011630117893219
-0.9051349759101868,2.357818365097046,-0.409665048122406
-0.8949434161186218,2.3812732696533203,-0.4187387228012085
-0.8778406381607056,2.386583089828491,-0.42467090487480164
-1.0369861125946045,2.880911350250244,-0.5185984969139099
-1.0212087631225586,2.9015865325927734,-0.5283493399620056
-0.9979066252708435,2.900300979614258,-0.5338131785392761
-0.9697874784469604,2.8842315673828125,-0.53652024269104
-0.9469345808029175,2.8824775218963623,-0.5418078303337097
-0.9358682632446289,2.9171578884124756,-0.5539499521255493
-0.9169737696647644,2.9299726486206055,-0.561823308467865
-0.8758781552314758,2.869084119796753,-0.5553914904594421
-0.7975175380706787,2.678969144821167,-0.5234540700912476
-0.7657321095466614,2.6391806602478027,-0.520470917224884
-0.7532411217689514,2.665653705596924,-0.5301699638366699
-0.7383756041526794,2.6846585273742676,-0.5384724140167236
-0.7032255530357361,2.629542589187622,-0.5319160223007202
-0.7000853419303894,2.6927239894866943,-0.549235999584198
-0.7044875025749207,2.789447069168091,-0.5732851028442383
-0.6646929383277893,2.711483955383301,-0.5614126324653625
-0.6322721242904663,2.6592187881469727,-0.5546693205833435
-0.6054826378822327,2.629094123840332,-0.5524986982345581
-0.5719795823097229,2.5651469230651855,-0.5427126884460449
-0.5450252890586853,2.5271058082580566,-0.5381307601928711
-0.5194512009620667,2.4925732612609863,-0.5342074632644653
-0.49214547872543335,2.446584463119507,-0.5277329087257385
-0.46740713715553284,2.4117043018341064,-0.5233966112136841
-0.44909676909446716,2.4066660404205322,-0.5251823663711548
-0.42614123225212097,2.375185251235962,-0.5211768746376038
-0.40303540229797363,2.339752674102783,-0.5162373781204224
-0.3798096477985382,2.30039381980896,-0.5102540254592896
-0.35868000984191895,2.272261619567871,-0.50636887550354
-0.3405255973339081,2.2590131759643555,-0.5057371854782104
-0.3203717768192291,2.2305350303649902,-0.5016785860061646
-0.29910221695899963,2.190568447113037,-0.49497872591018677
-0.2789134383201599,2.1543188095092773,-0.48856809735298157
-0.2606339454650879,2.1292564868927,-0.4846651256084442
-0.24550600349903107,2.1305673122406006,-0.48679932951927185
-0.2273314744234085,2.101459264755249,-0.4819527864456177
-0.21114416420459747,2.087451934814453,-0.4801517128944397
-0.19730888307094574,2.09609055519104,-0.48347556591033936
-0.17938359081745148,2.059128761291504,-0.47628656029701233
-0.16386939585208893,2.0486018657684326,-0.4752262234687805
-0.14848406612873077,2.0342209339141846,-0.47295451164245605
-0.13481558859348297,2.0425548553466797,-0.4757722318172455
-0.11836320161819458,2.0052201747894287,-0.46796104311943054
-0.10522013902664185,2.020948648452759,-0.47254493832588196
-0.09127350151538849,2.0290377140045166,-0.4751947224140167
-0.07777021825313568,2.044696807861328,-0.4793030619621277
-0.06392071396112442,2.056462526321411,-0.4825281798839569
-0.04960605129599571,2.056727647781372,-0.48308175802230835
-0.03482002392411232,2.030297040939331,-0.4773005247116089
-0.02067045122385025,2.053297996520996,-0.4827035367488861
-0.00638491939753294,2.0533828735351562,-0.48274296522140503
0.007710485719144344,2.007737874984741,-0.4720538258552551
0.021976785734295845,2.038045883178711,-0.4792451858520508
0.035723112523555756,2.015134334564209,-0.47344690561294556
0.05046572536230087,2.0453596115112305,-0.48012688755989075
0.06516478210687637,2.0526657104492188,-0.48143520951271057
0.07958058267831802,2.0560734272003174,-0.48185721039772034
0.09457908570766449,2.0708658695220947,-0.4845733642578125
0.10797669738531113,2.0513923168182373,-0.47915926575660706
0.12382447719573975,2.0774025917053223,-0.48438942432403564
0.13954229652881622,2.091892719268799,-0.4869253635406494
0.1552041620016098,2.106343984603882,-0.48919767141342163
0.17171214520931244,2.1283230781555176,-0.4929673969745636
0.18720375001430511,2.1350107192993164,-0.49320027232170105
0.20315571129322052,2.1453773975372314,-0.4942953586578369
0.21915274858474731,2.151853322982788,-0.4943191111087799
0.22963833808898926,2.1090848445892334,-0.4827543795108795
0.24701103568077087,2.130589485168457,-0.4859389662742615
0.2651287317276001,2.1557462215423584,-0.4899439811706543
0.28213679790496826,2.169433116912842,-0.4912880063056946
0.29964613914489746,2.1830599308013916,-0.4921168088912964
0.3171031177043915,2.196579694747925,-0.49295252561569214
0.3444414734840393,2.274081230163574,-0.5080817937850952
0.36271917819976807,2.2872838973999023,-0.508776068687439
0.3880782127380371,2.3418500423431396,-0.5181846618652344
0.40056490898132324,2.3172173500061035,-0.5099908113479614
0.4238472878932953,2.3525984287261963,-0.5149633288383484
0.4565142095088959,2.4366307258605957,-0.5305116772651672
0.4801514446735382,2.4679248332977295,-0.5341423749923706
0.5065203905105591,2.5102972984313965,-0.5399216413497925
0.527266263961792,2.5224997997283936,-0.5391539335250854
0.5541714429855347,2.560654401779175,-0.5438269376754761
0.585508406162262,2.6173393726348877,-0.5521766543388367
0.6167982220649719,2.670069694519043,-0.559282660484314
0.6426417231559753,2.6964499950408936,-0.5607678294181824
0.680804431438446,2.7709553241729736,-0.5721192359924316
0.7062681913375854,2.7893447875976562,-0.5715875625610352
0.7480931878089905,2.8707194328308105,-0.5835244655609131
0.7831532955169678,2.9220683574676514,-0.5891544818878174
0.8190131783485413,2.9730873107910156,-0.5945543646812439
0.8587612509727478,3.0348525047302246,-0.6019302010536194
0.894365131855011,3.077831268310547,-0.6048755645751953
0.9499755501747131,3.1868138313293457,-0.6206311583518982
1.0084013938903809,3.2988855838775635,-0.636576771736145
1.0604352951049805,3.3846912384033203,-0.6471063494682312
1.1159201860427856,3.477416515350342,-0.658295750617981
1.1780011653900146,3.5841031074523926,-0.6715517640113831
1.2621575593948364,3.752242088317871,-0.6958949565887451
1.3225533962249756,3.8430354595184326,-0.7053757309913635
1.4198768138885498,4.035029888153076,-0.7326182723045349
1.4859760999679565,4.131809234619141,-0.7418559789657593
1.5483022928237915,4.213419437408447,-0.7479767203330994
1.593562364578247,4.243669509887695,-0.7445579171180725
1.6316916942596436,4.255777835845947,-0.7378050684928894
1.6502089500427246,4.217358112335205,-0.7221639156341553
1.682718276977539,4.214629173278809,-0.7126696109771729
1.6907769441604614,4.150761127471924,-0.6928899884223938
1.398917317390442,3.3664941787719727,-0.5544412136077881
1.4344836473464966,3.386547565460205,-0.5501381158828735
1.4612953662872314,3.3849470615386963,-0.5422332286834717
1.4822063446044922,3.3688580989837646,-0.531941831111908
1.4995819330215454,3.3456614017486572,-0.5205181241035461
1.5200568437576294,3.329364776611328,-0.5099910497665405
1.540112018585205,3.313021183013916,-0.49960216879844666
1.5636590719223022,3.303389310836792,-0.490149587392807
1.583490252494812,3.2867343425750732,-0.47961971163749695
1.6028897762298584,3.2700750827789307,-0.4690612852573395
1.6262009143829346,3.259941577911377,-0.45925697684288025
1.63706636428833,3.2254583835601807,-0.4461393654346466
1.7075800895690918,3.30833101272583,-0.44901764392852783
2.054826021194458,3.916156768798828,-0.5212758183479309
2.0823490619659424,3.9031989574432373,-0.5091001987457275
2.0749144554138184,3.8250374794006348,-0.48850420117378235
2.1298375129699707,3.862947463989258,-0.4825301766395569
2.1164631843566895,3.778581142425537,-0.46153703331947327
2.1394286155700684,3.758197546005249,-0.4482302665710449
2.1814112663269043,3.7714273929595947,-0.43886303901672363
2.1874265670776367,3.72436785697937,-0.4224834144115448
2.2136809825897217,3.7102699279785156,-0.40958133339881897
2.2561800479888916,3.722442150115967,-0.399419903755188
2.265322685241699,3.681767225265503,-0.3835987150669098
2.2819762229919434,3.6544578075408936,-0.36931002140045166
2.3328964710235596,3.6789567470550537,-0.3596266508102417
2.337702751159668,3.6310112476348877,-0.3426353633403778
2.3577945232391357,3.609950065612793,-0.32853439450263977
2.400191068649292,3.6206140518188477,-0.3167726397514343
2.4035966396331787,3.572709083557129,-0.29972726106643677
2.4360623359680176,3.5707061290740967,-0.2866195738315582
2.4834258556365967,3.5866427421569824,-0.27395471930503845
2.4857802391052246,3.5385968685150146,-0.2563639283180237
2.49989914894104,3.5105631351470947,-0.24044112861156464
2.5518195629119873,3.5319924354553223,-0.22686423361301422
2.2251830101013184,3.037245988845825,-0.18183252215385437
2.1753151416778564,2.92937970161438,-0.1623336374759674
2.790910482406616,3.9251091480255127,0.5848038196563721
2.7752273082733154,3.966848373413086,0.6049427390098572
2.735457181930542,3.9685158729553223,0.6178028583526611
2.7151498794555664,4.00347900390625,0.6354860067367554
2.683197498321533,4.022559642791748,0.650529682636261
2.6625850200653076,4.05254602432251,0.6662933826446533
2.644132137298584,4.089986801147461,0.6833669543266296
2.5992372035980225,4.08893346786499,0.6935586929321289
2.580763578414917,4.1258225440979,0.7096942067146301
2.5550997257232666,4.14872407913208,0.7231008410453796
2.5194289684295654,4.1593475341796875,0.7339744567871094
2.4903547763824463,4.183658123016357,0.7472987771034241
2.4672391414642334,4.213202476501465,0.7610201239585876
2.442784547805786,4.238794326782227,0.7738706469535828
2.4013607501983643,4.238275051116943,0.781562864780426
2.389315366744995,4.291711330413818,0.799098014831543
2.278996706008911,4.165725231170654,0.7829820513725281
2.245523691177368,4.173302173614502,0.7913260459899902
2.207850456237793,4.174130916595459,0.7982149720191956
2.207969903945923,4.250556945800781,0.819242537021637
2.161536931991577,4.238023281097412,0.8232299089431763
2.146040916442871,4.282930850982666,0.8381614089012146
2.115567684173584,4.296361446380615,0.8468510508537292
2.0972790718078613,4.337849140167236,0.8607672452926636
2.0645675659179688,4.351866722106934,0.8690516352653503
2.031797409057617,4.3656086921691895,0.8773232698440552
2.0007035732269287,4.378371238708496,0.8851471543312073
1.9627550840377808,4.377076148986816,0.8902390599250793
2.007974147796631,4.565523624420166,0.9336657524108887
1.9738818407058716,4.578818321228027,0.9412272572517395
1.9336810111999512,4.577725410461426,0.9458746910095215
1.9288235902786255,4.657269477844238,0.9670795202255249
1.8794223070144653,4.630393981933594,0.9662966728210449
1.8518608808517456,4.6565260887146,0.9763116240501404
1.8382399082183838,4.722279071807861,0.9942309260368347
1.7882781028747559,4.6949310302734375,0.9926150441169739
1.7742196321487427,4.760254859924316,1.0105839967727661
1.3371933698654175,3.6667568683624268,0.781626284122467
1.3190510272979736,3.6966731548309326,0.791187584400177
1.284713625907898,3.6834428310394287,0.7911338210105896
1.6650190353393555,4.887369632720947,1.0532275438308716
1.6219544410705566,4.876371383666992,1.0544029474258423
1.5912578105926514,4.901308536529541,1.063368797302246
1.565989375114441,4.940322399139404,1.0753653049468994
1.519907832145691,4.913444995880127,1.0730667114257812
1.493168830871582,4.95249080657959,1.084507942199707
1.4733049869537354,5.017126083374023,1.1015815734863281
1.4347233772277832,5.019237518310547,1.1050128936767578
1.4046494960784912,5.05043363571167,1.1148916482925415
1.3481897115707397,4.9816575050354,1.1026480197906494
1.2967063188552856,4.927131652832031,1.0935251712799072
1.2613060474395752,4.935389041900635,1.0976861715316772
1.2320865392684937,4.9693989753723145,1.1075327396392822
1.2045035362243652,5.014496326446533,1.1199778318405151
1.1655595302581787,5.007117748260498,1.1206830739974976
1.1372398138046265,5.044034004211426,1.1313388347625732
1.1093295812606812,5.084500312805176,1.14287269115448
1.0716921091079712,5.0839667320251465,1.1447639465332031
1.0392975807189941,5.113293170928955,1.1531518697738647
1.0027775764465332,5.119839191436768,1.1564387083053589
1.504597783088684,7.98143196105957,1.8056960105895996
1.443440556526184,7.960590362548828,1.8038973808288574
1.391803503036499,7.991868495941162,1.8139948844909668
1.3429815769195557,8.049359321594238,1.8299424648284912
0.6732482314109802,4.218966484069824,0.9601457715034485
0.6375622749328613,4.185505390167236,0.9535739421844482
0.6132787466049194,4.227183818817139,0.964171290397644
0.5805478692054749,4.208275318145752,0.9609846472740173
0.5506880879402161,4.211829662322998,0.9629845023155212
0.5240988731384277,4.237801551818848,0.9701441526412964
0.49736034870147705,4.267510414123535,0.9777653217315674
0.4659575819969177,4.259251117706299,0.976508378982544
0.43862080574035645,4.288643836975098,0.9839339256286621
0.4069242477416992,4.276156425476074,0.9818018078804016
0.3709849417209625,4.214136123657227,0.9683337807655334
0.1737750619649887,2.1442089080810547,0.4931103587150574
0.31292659044265747,4.225881099700928,0.9726872444152832
0.2858944535255432,4.2657999992370605,0.9820981621742249
0.25279733538627625,4.21434211730957,0.9705191254615784
0.2247660905122757,4.253896236419678,0.9799519777297974
0.19225876033306122,4.194365978240967,0.966598629951477
0.22440634667873383,5.773974895477295,1.3311810493469238
0.18445196747779846,5.7827982902526855,1.3338392972946167
0.14483118057250977,5.810426235198975,1.340645432472229
0.10393279045820236,5.83413553237915,1.3459453582763672
0.06346546113491058,5.857548236846924,1.3512448072433472
0.022705772891640663,5.888291835784912,1.3583004474639893
-0.018304744735360146,5.9073309898376465,1.362722396850586
-0.05992336943745613,5.960338592529297,1.3750470876693726
-0.10266424715518951,5.994009971618652,1.3829822540283203
-0.14533731341362,6.038919925689697,1.393067479133606
-0.18702445924282074,6.030357837677002,1.3904370069503784
-0.2316323220729828,6.101388931274414,1.4062191247940063
-0.2746011018753052,6.115052700042725,1.4088398218154907
-0.18656790256500244,3.596446990966797,0.828309178352356
-0.21200211346149445,3.5951597690582275,0.8277771472930908
-0.4100484549999237,6.218733310699463,1.4315181970596313
-0.45720675587654114,6.273080348968506,1.4430001974105835
-0.49983611702919006,6.26261568069458,1.4393967390060425
-0.5476820468902588,6.312551975250244,1.449734091758728
-0.5959932208061218,6.3506879806518555,1.4573944807052612
-0.6482413411140442,6.426391124725342,1.473738193511963
-0.6963362693786621,6.452447891235352,1.47874915599823
-0.7395163774490356,6.432755947113037,1.473320722579956
-0.7792340517044067,6.390355587005615,1.4617722034454346
-0.8166986703872681,6.328731060028076,1.4458931684494019
-0.8551080822944641,6.285858154296875,1.434425711631775
-0.8980398178100586,6.276669502258301,1.4307162761688232
-0.945629894733429,6.297304630279541,1.433860182762146
-0.9976947903633118,6.343939304351807,1.442974328994751
-1.0478967428207397,6.371357440948486,1.447371482849121
-1.0991852283477783,6.409998893737793,1.4537649154663086
-1.151720643043518,6.451997756958008,1.4609533548355103
-1.2069683074951172,6.50483512878418,1.4706251621246338
-1.2571688890457153,6.523409843444824,1.4725569486618042
-1.3168071508407593,6.586460113525391,1.4845590591430664
-1.3696246147155762,6.607779026031494,1.4871584177017212
-1.4268609285354614,6.6552815437316895,1.4949142932891846
-1.4614911079406738,6.59809684753418,1.4790045022964478
-1.497959017753601,6.5518927574157715,1.4656645059585571
-1.5280208587646484,6.479415416717529,1.4465419054031372
-0.680533766746521,2.7970340251922607,0.6231696009635925
-0.6935740113258362,2.76676869392395,0.6152150630950928
-0.7089114785194397,2.747615337371826,0.6096332669258118
-0.733475387096405,2.765441417694092,0.6119993329048157
-0.7573094964027405,2.7793800830841064,0.6135103702545166
-1.7251631021499634,6.163813591003418,1.3570746183395386
-1.770352840423584,6.160233974456787,1.352811574935913
-1.8026657104492188,6.112304210662842,1.3388861417770386
-1.8354105949401855,6.067902565002441,1.325778603553772
-1.8651636838912964,6.020237922668457,1.311220645904541
-1.8963273763656616,5.9758429527282715,1.2974008321762085
-1.9273968935012817,5.935140132904053,1.284561276435852
-1.9590541124343872,5.893956661224365,1.2716134786605835
-1.9917690753936768,5.856131553649902,1.2594590187072754
-2.0203347206115723,5.807252407073975,1.2450255155563354
-2.046793222427368,5.758924961090088,1.229982852935791
-2.077270984649658,5.721070766448975,1.2171813249588013
-2.1053552627563477,5.679666996002197,1.2038012742996216
-2.132758378982544,5.634150981903076,1.1895201206207275
-2.1737852096557617,5.624140739440918,1.1827770471572876
-2.2412664890289307,5.681698322296143,1.1901586055755615
-2.3016738891601562,5.721314430236816,1.192879319190979
-2.3460440635681152,5.721590995788574,1.1874819993972778
-2.3698630332946777,5.671937942504883,1.1717885732650757
-2.3904049396514893,5.610913276672363,1.1536258459091187
-2.474372625350952,5.697768211364746,1.1658779382705688
-3.798030138015747,8.582869529724121,1.7470331192016602
-3.8714985847473145,8.595030784606934,1.7398676872253418
-3.942168712615967,8.59957504272461,1.7311553955078125
-4.035789966583252,8.64816951751709,1.7310118675231934
-4.1182708740234375,8.667610168457031,1.724782109260559
-4.196844577789307,8.675703048706055,1.7159308195114136
-4.290491580963135,8.723108291625977,1.7139312028884888
-4.38142728805542,8.762825012207031,1.7103326320648193
-4.460428237915039,8.773690223693848,1.7007917165756226
-4.561610698699951,8.820403099060059,1.6976648569107056
-4.661696910858154,8.862838745117188,1.693542242050171
-4.725425720214844,8.841390609741211,1.6758018732070923
-1.162075161933899,2.1406335830688477,0.4024873375892639
-1.1767504215240479,2.133478879928589,0.3978085219860077
-5.065811634063721,9.035188674926758,1.6700080633163452
-2.5358173847198486,4.451400279998779,0.8153682351112366
-2.5581657886505127,4.422733306884766,0.8021900653839111
-2.6031429767608643,4.434166431427002,0.7964423298835754
-1.2460124492645264,2.0894386768341064,0.37136468291282654
-2.926156520843506,4.830231666564941,0.8492783308029175
-2.966555118560791,4.825922966003418,0.8387709259986877
-2.982560396194458,4.7819061279296875,0.8211532831192017
-3.015578269958496,4.7634501457214355,0.8077229857444763
-3.035033941268921,4.721267223358154,0.7899813652038574
-3.041435480117798,4.664138317108154,0.7695329785346985
-3.0399489402770996,4.597943305969238,0.7476856112480164
-3.059446096420288,4.559447288513184,0.7296865582466125
-3.09213924407959,4.539741516113281,0.7145873308181763
-3.117368698120117,4.515427589416504,0.698322057723999
-3.146688938140869,4.497394561767578,0.683019757270813
-2.8738410472869873,4.047050952911377,0.6020106673240662
-6.810492038726807,9.456192016601562,1.3759392499923706
-2.9233314990997314,4.006408214569092,0.5698795318603516
-2.960766077041626,4.000548362731934,0.5546724796295166
-2.4646151065826416,3.4548022747039795,-0.2291645109653473
-2.4484288692474365,3.4842865467071533,-0.24596920609474182
-2.889479160308838,4.178476810455322,-0.31265345215797424
-1.3320516347885132,1.9555091857910156,-0.1539730578660965
-1.326160192489624,1.9776360988616943,-0.16334249079227448
-2.823937177658081,4.279567718505859,-0.3697313964366913
-2.805591344833374,4.318009376525879,-0.3885834217071533
-2.1818461418151855,3.411991596221924,-0.3190096914768219
-2.736649513244629,4.349689960479736,-0.42173391580581665
-1.274908423423767,2.0580220222473145,-0.20624232292175293
-2.7159931659698486,4.455398082733154,-0.46086832880973816
-2.145937919616699,3.5800721645355225,-0.3819962441921234
-2.6538071632385254,4.498347759246826,-0.4936332702636719
-2.6251564025878906,4.522405624389648,-0.5098320245742798
-1.1945760250091553,2.092804431915283,-0.2421495020389557
-2.5888590812683105,4.611176013946533,-0.546842634677887
-2.5685579776763916,4.651773452758789,-0.5649614930152893
-2.5379607677459717,4.675533771514893,-0.5808271765708923
-2.5107169151306152,4.705944061279297,-0.597571611404419
-2.487983465194702,4.742452144622803,-0.6147563457489014
-2.4609580039978027,4.772096633911133,-0.6311226487159729
-2.4410033226013184,4.819521903991699,-0.6500885486602783
-2.4197463989257812,4.862931251525879,-0.6683470606803894
-2.3817379474639893,4.871068000793457,-0.6815699338912964
-1.0717711448669434,2.2317769527435303,-0.31774601340293884
-1.017459511756897,2.158047676086426,-0.3124822676181793
-1.0181958675384521,2.1995527744293213,-0.32372525334358215
-1.0166562795639038,2.2376596927642822,-0.33468446135520935
-0.9957279562950134,2.2334303855895996,-0.33917734026908875
-0.9872280359268188,2.257399082183838,-0.3479557931423187
-0.9710615873336792,2.2634706497192383,-0.3539539575576782
-0.9549492001533508,2.269378185272217,-0.35991451144218445
-0.9500585794448853,2.303953170776367,-0.3704394996166229
-0.9420512914657593,2.331301212310791,-0.37981992959976196
-0.922574520111084,2.329817533493042,-0.38447901606559753
-0.9143967628479004,2.3569328784942627,-0.3938875198364258
-0.9015640616416931,2.3733022212982178,-0.4014038145542145
-0.8949247002601624,2.40777587890625,-0.41213253140449524
-0.8803969025611877,2.420353889465332,-0.4190763831138611
-0.8632348775863647,2.4255411624908447,-0.424751341342926
-0.899075984954834,2.5835070610046387,-0.4572851061820984
-0.9574573040008545,2.8149185180664062,-0.5034911632537842
-0.9455794095993042,2.8462042808532715,-0.5144503116607666
-0.9396791458129883,2.8956151008605957,-0.5287262797355652
-0.9283848404884338,2.9304356575012207,-0.5402544140815735
-0.9074959754943848,2.935849666595459,-0.546318531036377
-0.8289351463317871,2.7496771812438965,-0.516413152217865
-0.7845630049705505,2.669597864151001,-0.505963921546936
-0.7632027268409729,2.6667721271514893,-0.5099117755889893
-0.740143358707428,2.65634822845459,-0.5121257305145264
-0.7192967534065247,2.6531410217285156,-0.5157172679901123
-0.7103706002235413,2.6942813396453857,-0.5279796123504639
-0.7056393027305603,2.7540011405944824,-0.5439323782920837
-0.7302543520927429,2.93670392036438,-0.5843077301979065
-0.7076875567436218,2.9333276748657227,-0.5878674387931824
-0.6739632487297058,2.8812379837036133,-0.5815799832344055
-0.6418482661247253,2.832596778869629,-0.5758287310600281
-0.6079671382904053,2.7725462913513184,-0.5671623349189758
-0.5785643458366394,2.7309889793395996,-0.562235414981842
-0.5586096048355103,2.7303719520568848,-0.5656306147575378
-0.5335241556167603,2.7033205032348633,-0.563529908657074
-0.5024038553237915,2.642324924468994,-0.5538407564163208
-0.474208265542984,2.592369318008423,-0.54627525806427
-0.4530673325061798,2.579876184463501,-0.5466018915176392
-0.43052980303764343,2.555870532989502,-0.5444194078445435
-0.4016566872596741,2.4902446269989014,-0.5329936146736145
-0.3830567002296448,2.484837770462036,-0.5341872572898865
-0.36399585008621216,2.4755136966705322,-0.5345470905303955
-0.33687496185302734,2.409341812133789,-0.5226185917854309
-0.31854912638664246,2.3997249603271484,-0.5226937532424927
-0.3008541464805603,2.3938329219818115,-0.5232371687889099
-0.2832566201686859,2.387812376022339,-0.523766279220581
-0.264064759016037,2.3664944171905518,-0.5209417343139648
-0.24358035624027252,2.329861640930176,-0.514699399471283
-0.22595307230949402,2.3197760581970215,-0.5138197541236877
-0.20566581189632416,2.2753546237945557,-0.505304217338562
-0.19234609603881836,2.306784152984619,-0.5136495232582092
-0.1745326817035675,2.2849011421203613,-0.5101528763771057
-0.1575653851032257,2.2705860137939453,-0.5079188942909241
-0.14146943390369415,2.2714056968688965,-0.5089917778968811
-0.12567386031150818,2.2720983028411865,-0.510044276714325
-0.10915607213973999,2.2574527263641357,-0.5076711177825928
-0.09316816926002502,2.250368356704712,-0.5067219138145447
-0.0768943652510643,2.2318012714385986,-0.5029493570327759
-0.06069108098745346,2.2169342041015625,-0.5000370144844055
-0.045258354395627975,2.2171874046325684,-0.5005496144294739
-0.030116882175207138,2.240225076675415,-0.5060818791389465
-0.014329588040709496,2.209902286529541,-0.4991825819015503
0.0010816288413479924,2.24424409866333,-0.506914496421814
0.01667313650250435,2.2098922729492188,-0.4991547763347626
0.03201792761683464,2.209728717803955,-0.4991304874420166
0.04705709218978882,2.194333553314209,-0.49516212940216064
0.0625164583325386,2.201690673828125,-0.4963540732860565
0.07888804376125336,2.23179030418396,-0.5026893019676208
0.09439219534397125,2.231308698654175,-0.5021546483039856
0.10980837792158127,2.2231829166412354,-0.4995015263557434
0.12483743578195572,2.2149903774261475,-0.49674057960510254
0.14023974537849426,2.214303970336914,-0.4956901967525482
0.1551200896501541,2.205902576446533,-0.4929387867450714
0.17312879860401154,2.2392728328704834,-0.4992769658565521
0.18964065611362457,2.245946168899536,-0.4993671774864197
0.20459780097007751,2.23732328414917,-0.49610424041748047
0.22167012095451355,2.251378297805786,-0.4978910982608795
0.24137116968631744,2.2880971431732178,-0.5045632719993591
0.2662883698940277,2.366461992263794,-0.519956111907959
0.2876299321651459,2.402897834777832,-0.5260339975357056
0.30581384897232056,2.4126808643341064,-0.5263001918792725
0.3256673216819763,2.4336836338043213,-0.5290131568908691
0.34796780347824097,2.4697680473327637,-0.5344616770744324
0.3713466227054596,2.5094563961029053,-0.5406205654144287
0.39036333560943604,2.5149266719818115,-0.5393404960632324
0.39876148104667664,2.45615291595459,-0.5243973135948181
0.4204378128051758,2.480353355407715,-0.526862621307373
0.44977524876594543,2.545839309692383,-0.537870466709137
0.4835079312324524,2.629878044128418,-0.5526490807533264
0.5083460807800293,2.660996437072754,-0.5562044382095337
0.5377019047737122,2.7106728553771973,-0.5632870197296143
0.5651379227638245,2.7489519119262695,-0.567681610584259
0.5923371911048889,2.7832515239715576,-0.571180522441864
0.619303286075592,2.8135640621185303,-0.5737825036048889
0.6509442329406738,2.862354278564453,-0.5799874067306519
0.6862668395042419,2.922077178955078,-0.5877919793128967
0.7176029086112976,2.9629085063934326,-0.59173983335495
0.7486373782157898,2.999737501144409,-0.5947898626327515
0.7830877900123596,3.0474436283111572,-0.5998927354812622
0.8338444828987122,3.154320001602173,-0.6159887909889221
0.8815043568611145,3.2420904636383057,-0.6279399991035461
0.9301312565803528,3.329468250274658,-0.6396229863166809
0.9821974039077759,3.4237475395202637,-0.6523498892784119
1.0203174352645874,3.465988874435425,-0.6546286344528198
1.0923997163772583,3.6183433532714844,-0.677239716053009
1.1444439888000488,3.696333646774292,-0.6854255795478821
1.2193981409072876,3.843590021133423,-0.7061669230461121
1.3106132745742798,4.034079551696777,-0.734049916267395
1.3728841543197632,4.128679275512695,-0.7437354326248169
1.432879090309143,4.211704730987549,-0.7510033249855042
1.4892568588256836,4.2795186042785645,-0.7552325129508972
1.5380442142486572,4.321262836456299,-0.7543742656707764
1.5603662729263306,4.290374755859375,-0.7406547665596008
1.587727665901184,4.273802280426025,-0.7294906377792358
1.6152359247207642,4.256931304931641,-0.7182536721229553
1.632739543914795,4.214704513549805,-0.7027831673622131
1.3545628786087036,3.425535202026367,-0.5640356540679932
1.3871471881866455,3.4388458728790283,-0.5591604709625244
1.408536672592163,3.423166513442993,-0.5494749546051025
1.4267281293869019,3.4002275466918945,-0.5386708378791809
1.4534016847610474,3.3986947536468506,-0.5310889482498169
1.4743409156799316,3.382603645324707,-0.5211315751075745
1.488905668258667,3.3521902561187744,-0.5090340971946716
1.5126489400863647,3.342879295349121,-0.5001873970031738
1.5358588695526123,3.33361554145813,-0.491202712059021
1.559003472328186,3.3241708278656006,-0.48221519589424133
1.5762958526611328,3.300184726715088,-0.47088056802749634
1.599599003791809,3.290252923965454,-0.46171000599861145
1.610282301902771,3.256077527999878,-0.44910237193107605
2.009225606918335,3.994394540786743,-0.5412931442260742
2.0251736640930176,3.957413673400879,-0.5264607071876526
2.0457708835601807,3.9308416843414307,-0.513096034526825
2.0696070194244385,3.9110875129699707,-0.5004426836967468
2.0544497966766357,3.819438934326172,-0.47890016436576843
2.105825185775757,3.850466251373291,-0.472608745098114
2.1080288887023926,3.793022394180298,-0.45543575286865234
2.141649007797241,3.7934019565582275,-0.4452652335166931
2.153191089630127,3.7524757385253906,-0.4298948645591736
2.1836605072021484,3.7452075481414795,-0.4185144007205963
2.2130017280578613,3.7383291721343994,-0.4071137309074402
2.226456642150879,3.704439401626587,-0.3927627205848694
2.24471378326416,3.6765103340148926,-0.37868133187294006
2.2869713306427,3.688373327255249,-0.36847585439682007
2.299443006515503,3.654289722442627,-0.35386696457862854
2.3250458240509033,3.6393046379089355,-0.3407590687274933
2.3673338890075684,3.6503586769104004,-0.3299022614955902
2.378814935684204,3.616114377975464,-0.31495946645736694
2.386899709701538,3.5745420455932617,-0.29889827966690063
2.4294121265411377,3.5846612453460693,-0.28706246614456177
2.4486875534057617,3.5631563663482666,-0.2726552188396454
2.473155975341797,3.5472981929779053,-0.2582060694694519
2.511213541030884,3.5502166748046875,-0.24469539523124695
2.5301902294158936,3.528132677078247,-0.22920241951942444
2.5546717643737793,3.511441469192505,-0.21341513097286224
2.1659140586853027,2.9361424446105957,-0.16582947969436646
2.785815477371216,3.946082592010498,0.5649502873420715
2.75834059715271,3.972440481185913,0.5820903182029724
2.7142038345336914,3.9677460193634033,0.5933000445365906
2.6919758319854736,3.9993531703948975,0.6098873615264893
2.6556501388549805,4.012080192565918,0.6232139468193054
2.6409478187561035,4.052112579345703,0.6399248838424683
2.6156005859375,4.0756754875183105,0.653854489326477
2.5835065841674805,4.094045639038086,0.6665624976158142
2.5595414638519287,4.125218391418457,0.6813920140266418
2.541985511779785,4.16133975982666,0.6963356137275696
2.4912161827087402,4.144956588745117,0.7022756338119507
2.4865009784698486,4.20881986618042,0.7215551137924194
2.4506664276123047,4.218936443328857,0.7315436005592346
2.423762321472168,4.241489410400391,0.7433964014053345
2.4021193981170654,4.274110794067383,0.7567678689956665
2.348747730255127,4.253438472747803,0.7603057026863098
2.2554898262023926,4.157540798187256,0.7501598596572876
2.2149393558502197,4.151427268981934,0.7555632591247559
2.2134714126586914,4.220306396484375,0.7748215794563293
2.188689708709717,4.248937129974365,0.7861823439598083
2.1529626846313477,4.256880760192871,0.7937293648719788
2.128443956375122,4.284804821014404,0.804880678653717
2.102985382080078,4.308653831481934,0.8151446580886841
2.071460723876953,4.32231330871582,0.8235055804252625
2.052011489868164,4.364126682281494,0.8367093205451965
2.012746572494507,4.36391544342041,0.8419131636619568
1.9874080419540405,4.3909382820129395,0.8522365093231201
2.0218794345855713,4.55103874206543,0.8884934782981873
2.007873773574829,4.6061177253723145,0.9043964743614197
1.9518860578536987,4.570223331451416,0.9019915461540222
1.9238643646240234,4.597342014312744,0.9119543433189392
1.9151159524917603,4.670252799987793,0.9310396313667297
1.8749439716339111,4.664456844329834,0.9343833327293396
1.8447961807250977,4.683335304260254,0.942706286907196
1.8278005123138428,4.742196559906006,0.958651602268219
1.775209903717041,4.707559585571289,0.9555680155754089
1.743140697479248,4.726422309875488,0.9633630514144897
1.3373032808303833,3.705472469329834,0.7582739591598511
1.3035194873809814,3.692129373550415,0.7585539221763611
1.6631137132644653,4.820465564727783,0.9942010045051575
1.6437453031539917,4.878575801849365,1.0095064640045166
1.5996665954589844,4.8638176918029785,1.0098021030426025
1.5597065687179565,4.859539985656738,1.0122708082199097
1.5381358861923218,4.9094767570495605,1.0259989500045776
1.5231504440307617,4.985134601593018,1.0452865362167358
1.4853805303573608,4.987454414367676,1.0488618612289429
1.4587868452072144,5.030182361602783,1.0606013536453247
1.4180796146392822,5.0248894691467285,1.0622857809066772
1.3668129444122314,4.978570938110352,1.0552794933319092
1.3111563920974731,4.909423828125,1.043350338935852
1.279986023902893,4.93248176574707,1.051080346107483
1.2505804300308228,4.962792873382568,1.0600427389144897
1.2193706035614014,4.989416599273682,1.0678744316101074
1.190484881401062,5.02700138092041,1.0781283378601074
1.1562172174453735,5.042008399963379,1.083598256111145
1.1236191987991333,5.064208507537842,1.0906686782836914
1.0922400951385498,5.0897979736328125,1.0984952449798584
1.052622675895691,5.0778398513793945,1.0980937480926514
1.0215543508529663,5.110793590545654,1.106855869293213
0.9894041419029236,5.139791011810303,1.1148308515548706
1.514987587928772,8.188763618469238,1.7789925336837769
1.4535573720932007,8.17556095123291,1.7789379358291626
1.3925704956054688,8.161874771118164,1.77884042263031
1.338098168373108,8.185412406921387,1.7869349718093872
1.2741997241973877,8.156122207641602,1.7825238704681396
0.3248845040798187,2.182687520980835,0.47753745317459106
1.1525079011917114,8.137906074523926,1.7823972702026367
1.0931419134140015,8.129900932312012,1.7826669216156006
1.0407748222351074,8.170622825622559,1.7936933040618896
0.5151939988136292,4.281688213348389,0.9410982131958008
0.24263395369052887,2.142409563064575,0.47137731313705444
0.23249699175357819,2.1932854652404785,0.4828677475452423
0.42503342032432556,4.2983317375183105,0.9469274878501892
0.39545682072639465,4.3085432052612305,0.9498424530029297
0.36541399359703064,4.310924053192139,0.9510720372200012
0.1635628044605255,2.103297710418701,0.4643929600715637
0.2997291386127472,4.242785453796387,0.9375728368759155
0.2729523777961731,4.290292739868164,0.9484277963638306
0.32046377658843994,5.662961006164551,1.2521717548370361
0.28228268027305603,5.695371150970459,1.259698510169983
0.24486514925956726,5.75419282913208,1.2731342315673828
0.20521605014801025,5.786096572875977,1.2806894779205322
0.16522397100925446,5.7948317527771,1.2831732034683228
0.12504862248897552,5.8032989501953125,1.2856212854385376
0.08558231592178345,5.868871688842773,1.29991614818573
0.044588107615709305,5.86171293258667,1.2981618642807007
0.0030567925423383713,5.941987037658691,1.3158316612243652
-0.03917870670557022,6.075361728668213,1.345324158668518
-0.08207432925701141,6.124533176422119,1.356235384941101
-0.12456292659044266,6.116201877593994,1.3544787168502808
-0.16617077589035034,6.0809550285339355,1.3465183973312378
-0.20832064747810364,6.079868316650391,1.345564842224121
-0.25029996037483215,6.055595397949219,1.3395355939865112
-0.17441391944885254,3.61177921295166,0.7986013293266296
-0.19780834019184113,3.5801374912261963,0.791299045085907
-0.22199784219264984,3.567377805709839,0.788211464881897
-0.4322460889816284,6.245031833648682,1.37943696975708
-0.478238582611084,6.268807888031006,1.383743166923523
-0.5268230438232422,6.330414295196533,1.3961055278778076
-0.5712136030197144,6.334646701812744,1.3958654403686523
-0.6171633005142212,6.353760719299316,1.3989653587341309
-0.6688388586044312,6.421855449676514,1.4128938913345337
-0.720977783203125,6.478089332580566,1.424243688583374
-0.7574895024299622,6.401342868804932,1.4064441919326782
-0.7976698875427246,6.366308689117432,1.3969719409942627
-0.8343711495399475,6.308327674865723,1.3825000524520874
-0.873999297618866,6.276601314544678,1.3738690614700317
-0.9192111492156982,6.27849006652832,1.372628927230835
-0.9669570922851562,6.298983573913574,1.375530481338501
-1.019271969795227,6.345512390136719,1.3841649293899536
-1.0701390504837036,6.380428314208984,1.3900012969970703
-1.121684193611145,6.4189324378967285,1.3960165977478027
-1.1772223711013794,6.475828647613525,1.4060579538345337
-1.2280170917510986,6.49835205078125,1.4086276292800903
-1.2856546640396118,6.554258823394775,1.4184764623641968
-1.341155767440796,6.594696044921875,1.4250038862228394
-1.4012947082519531,6.653371334075928,1.4354995489120483
-1.4419041872024536,6.622252464294434,1.4258795976638794
-1.4761210680007935,6.560944557189941,1.4096107482910156
-1.514745831489563,6.5257158279418945,1.3991059064865112
-0.6747670769691467,2.8192217350006104,0.6031821370124817
-0.6862210631370544,2.7814767360687256,0.593872606754303
-0.6962378025054932,2.739990472793579,0.5838243961334229
-0.7251728177070618,2.772536277770996,0.5893749594688416
-0.742035448551178,2.7606823444366455,0.5852847099304199
-0.7648805975914001,2.770859956741333,0.5858883261680603
-1.7397688627243042,6.139951705932617,1.2948647737503052
-1.7870585918426514,6.143527507781982,1.2921704053878784
-1.816583514213562,6.084162712097168,1.2762631177902222
-1.849943995475769,6.04330587387085,1.2642056941986084
-1.8783360719680786,5.9917473793029785,1.249329924583435
-1.9095618724822998,5.951023101806641,1.2368241548538208
-1.9403818845748901,5.910114765167236,1.2243702411651611
-1.9714064598083496,5.864835739135742,1.2109254598617554
-2.004956007003784,5.830480098724365,1.199898600578308
-2.032744884490967,5.781581401824951,1.1858209371566772
-2.0625665187835693,5.743954658508301,1.1734944581985474
-2.090707302093506,5.702547073364258,1.1604856252670288
-2.118380546569824,5.661000728607178,1.1475471258163452
-2.1520113945007324,5.629279136657715,1.1364208459854126
-2.2041609287261963,5.647660732269287,1.1355341672897339
-2.2659971714019775,5.690863132476807,1.139331340789795
-2.317336082458496,5.709103584289551,1.1376038789749146
-2.3528637886047363,5.687862396240234,1.1280372142791748
-2.38348650932312,5.65174674987793,1.1154261827468872
-2.426403760910034,5.643502712249756,1.1083093881607056
-3.8258161544799805,8.730648040771484,1.706141710281372
-3.927358388900757,8.802010536193848,1.7106198072433472
-4.010240077972412,8.8307523727417,1.706493616104126
-4.0834269523620605,8.833900451660156,1.6972386837005615
-4.188283443450928,8.898321151733398,1.6993855237960815
-4.264617919921875,8.89909553527832,1.6892726421356201
-4.342777252197266,8.907084465026855,1.6799803972244263
-4.4486613273620605,8.97400188446045,1.6811102628707886
-4.528891563415527,8.984416007995605,1.6713709831237793
-4.639076232910156,9.048348426818848,1.6712123155593872
-4.736886978149414,9.083492279052734,1.6654584407806396
-4.833644866943359,9.118728637695312,1.6590611934661865
-4.923403739929199,9.144146919250488,1.6501634120941162
-1.1756811141967773,2.1499829292297363,0.38480186462402344
-1.174216389656067,2.111973285675049,0.37461549043655396
-2.526700496673584,4.470949649810791,0.7859190106391907
-2.541531801223755,4.428733825683594,0.7710238695144653
-2.555372953414917,4.386806488037109,0.7561500668525696
-1.2118843793869019,2.049184799194336,0.34959596395492554
