X,Y,Z
-1.4152965545654297,2.3272085189819336,0.12320739775896072
-1.4230085611343384,2.304311513900757,0.11990698426961899
-1.4387247562408447,2.294667959213257,0.11727098375558853
-1.4492601156234741,2.2789180278778076,0.11429080367088318
-1.4601964950561523,2.2627780437469482,0.11122707277536392
-1.4695243835449219,2.242884635925293,0.10789778083562851
-1.4754328727722168,2.220417022705078,0.10441854596138
-1.4939161539077759,2.217576265335083,0.10186155885457993
-1.4741063117980957,2.15567946434021,0.09641937911510468
-1.47296142578125,2.1234259605407715,0.09230194985866547
-1.4908984899520874,2.120553493499756,0.08951739221811295
-1.5010513067245483,2.1039340496063232,0.08590579777956009
-1.505279302597046,2.081803560256958,0.08206469565629959
-1.5139449834823608,2.065969228744507,0.07840576767921448
-1.527976155281067,2.0557520389556885,0.07469412684440613
-1.514909029006958,2.137784242630005,-0.07114961743354797
-1.4792369604110718,2.1197762489318848,-0.07402803003787994
-1.4680172204971313,2.1369102001190186,-0.077971450984478
-1.488690972328186,2.2029993534088135,-0.08381250500679016
-1.4819170236587524,2.2262113094329834,-0.08781518787145615
-1.460824966430664,2.2306394577026367,-0.09108123928308487
-1.4529112577438354,2.254260540008545,-0.09504667669534683
-1.4411996603012085,2.2708780765533447,-0.0986056849360466
-1.4300652742385864,2.291574239730835,-0.10240016132593155
-1.4256478548049927,2.321707248687744,-0.10652337968349457
-1.409360647201538,2.3314857482910156,-0.10963185131549835
-1.39600670337677,2.3484439849853516,-0.11306218802928925
-1.390621304512024,2.3786516189575195,-0.11712643504142761
-1.3619608879089355,2.368053913116455,-0.1191226914525032
-1.3484286069869995,2.3846070766448975,-0.12240015715360641
-1.3383435010910034,2.408003330230713,-0.12604551017284393
-1.3288803100585938,2.4308934211730957,-0.12957628071308136
-1.317155122756958,2.450413942337036,-0.13292215764522552
-1.302503228187561,2.4669065475463867,-0.13613100349903107
-1.2954667806625366,2.4968578815460205,-0.14003987610340118
-1.3028415441513062,2.554332971572876,-0.14548680186271667
-1.2966684103012085,2.587897300720215,-0.14959590137004852
-1.2812319993972778,2.6041147708892822,-0.15271244943141937
-1.2725393772125244,2.634230136871338,-0.1566610485315323
-1.2307264804840088,2.593550682067871,-0.15630696713924408
-1.2119777202606201,2.602212429046631,-0.15882740914821625
-1.199579119682312,2.6249587535858154,-0.16221436858177185
-1.1730022430419922,2.61543345451355,-0.16356584429740906
-1.1625335216522217,2.6412689685821533,-0.16711530089378357
-1.1755969524383545,2.724750518798828,-0.1743292361497879
-1.1710401773452759,2.7689433097839355,-0.1790737807750702
-1.1544121503829956,2.784205198287964,-0.18194328248500824
-1.1437873840332031,2.8137001991271973,-0.18574373424053192
-1.1280211210250854,2.832498073577881,-0.18878355622291565
-1.112968921661377,2.8550333976745605,-0.19210149347782135
-1.1149183511734009,2.920980930328369,-0.19834475219249725
-1.1013362407684326,2.9467897415161133,-0.20188839733600616
-1.0858548879623413,2.9689831733703613,-0.20514285564422607
-1.0724366903305054,2.998554229736328,-0.20887035131454468
-1.053175687789917,3.013475179672241,-0.21163047850131989
-1.0447555780410767,3.0574700832366943,-0.21639560163021088
-1.0270496606826782,3.07563853263855,-0.21935410797595978
-1.0099068880081177,3.0975637435913086,-0.22247125208377838
-0.9901396632194519,3.1119701862335205,-0.22507083415985107
-0.9793825149536133,3.1560468673706055,-0.22985561192035675
-0.9573659300804138,3.1626460552215576,-0.23189842700958252
-0.9427229166030884,3.1953465938568115,-0.23577500879764557
-0.9285973310470581,3.2317841053009033,-0.23989850282669067
-0.9140008687973022,3.268177032470703,-0.24405743181705475
-0.8932768106460571,3.28183650970459,-0.2465173900127411
-0.8749564290046692,3.306776762008667,-0.24987000226974487
-0.8592807650566101,3.342942476272583,-0.2538909912109375
-0.8450223803520203,3.3866066932678223,-0.2585204839706421
-0.8229981064796448,3.3999083042144775,-0.2608550488948822
-0.8020001649856567,3.4167935848236084,-0.26346907019615173
-0.7862735986709595,3.460271120071411,-0.2681185305118561
-0.7651792764663696,3.4808297157287598,-0.2708616852760315
-0.7478511333465576,3.520315647125244,-0.27510905265808105
-0.7310240864753723,3.563493251800537,-0.27967143058776855
-0.712237536907196,3.598938226699829,-0.28365781903266907
-0.6916292905807495,3.630593776702881,-0.2872607409954071
-0.6744489669799805,3.681236505508423,-0.2922804653644562
-0.6525399088859558,3.7088000774383545,-0.29550135135650635
-0.633769154548645,3.755392074584961,-0.3002610504627228
-0.6138225197792053,3.7980430126190186,-0.3047402799129486
-0.5908463597297668,3.8291680812835693,-0.30814698338508606
-0.569588303565979,3.8716564178466797,-0.3124173879623413
-0.5493471026420593,3.9256038665771484,-0.31764867901802063
-0.5281683802604675,3.9755537509918213,-0.3225839138031006
-0.505383312702179,4.017663478851318,-0.32691678404808044
-0.47952619194984436,4.040358066558838,-0.3294577896595001
-0.4558781683444977,4.090030670166016,-0.3342030644416809
-0.43167707324028015,4.135640621185303,-0.33863547444343567
-0.40666237473487854,4.177216053009033,-0.3427635729312897
-0.3804256319999695,4.210882186889648,-0.3462705612182617
-0.35195106267929077,4.225021839141846,-0.3479093015193939
-0.32041195034980774,4.207952976226807,-0.34698885679244995
-0.2883358299732208,4.171195030212402,-0.3444463312625885
-0.26127859950065613,4.204127788543701,-0.34767210483551025
-0.22623518109321594,4.100838661193848,-0.33963996171951294
-0.19759754836559296,4.102288722991943,-0.33998873829841614
-0.16877052187919617,4.111339092254639,-0.34098875522613525
-0.14092834293842316,4.135729789733887,-0.343274861574173
-0.13425244390964508,4.949887275695801,-0.4111856520175934
-0.09970420598983765,4.942882061004639,-0.41094717383384705
-0.06537207961082458,4.943450927734375,-0.4109969437122345
-0.030247867107391357,4.920429229736328,-0.4091056287288666
0.003963127266615629,4.912731170654297,-0.408507764339447
0.03790874034166336,4.873652458190918,-0.40532004833221436
0.07188242673873901,4.87326717376709,-0.40535441040992737
0.10573495924472809,4.8687825202941895,-0.4047203063964844
0.1385239064693451,4.829041481018066,-0.40117722749710083
0.17241907119750977,4.82018518447876,-0.40021830797195435
0.20590075850486755,4.818896293640137,-0.39991167187690735
0.23786324262619019,4.7862701416015625,-0.3970033824443817
0.26991426944732666,4.7651286125183105,-0.39473778009414673
0.3024250864982605,4.755428314208984,-0.3934418261051178
0.33488261699676514,4.737696647644043,-0.3914940357208252
0.36597004532814026,4.712021827697754,-0.38892030715942383
0.3987159729003906,4.7094197273254395,-0.38824543356895447
0.4291260242462158,4.683370113372803,-0.385355681180954
0.46152761578559875,4.680367946624756,-0.38438349962234497
0.4924667775630951,4.657720565795898,-0.38180628418922424
0.5231059193611145,4.638786315917969,-0.37956702709198
0.5562580823898315,4.642852783203125,-0.3791903555393219
0.584433913230896,4.608100414276123,-0.3753742277622223
0.6152158975601196,4.596339702606201,-0.3734583258628845
0.645404577255249,4.576576232910156,-0.37089627981185913
0.6738136410713196,4.5489678382873535,-0.36773616075515747
0.7048012018203735,4.540437698364258,-0.3660844564437866
0.7348815202713013,4.527904033660889,-0.36388495564460754
0.7647839784622192,4.515176773071289,-0.3616926670074463
0.7946606278419495,4.502232551574707,-0.35949987173080444
0.8208947777748108,4.465979099273682,-0.3554466664791107
0.7188688516616821,3.7641074657440186,-0.2985589802265167
0.7417402267456055,3.743913173675537,-0.29576432704925537
0.7839145660400391,3.8189666271209717,-0.3004890978336334
0.9390311241149902,4.419332027435303,-0.3463383913040161
0.9686548113822937,4.405108451843262,-0.34381812810897827
0.9991037249565125,4.398459434509277,-0.3418113887310028
1.0292454957962036,4.391670227050781,-0.3396698832511902
1.0593773126602173,4.384664535522461,-0.33752572536468506
1.08696448802948,4.366031169891357,-0.3344894349575043
1.115959644317627,4.350836277008057,-0.33170562982559204
1.1419278383255005,4.328156471252441,-0.3282247483730316
1.1715590953826904,4.3204121589660645,-0.3258151710033417
1.2011373043060303,4.312464237213135,-0.32340553402900696
1.2269011735916138,4.289180755615234,-0.3198354244232178
1.257277488708496,4.28056001663208,-0.3173511326313019
1.2843034267425537,4.264587879180908,-0.3141416907310486
1.3134223222732544,4.2559051513671875,-0.311485230922699
1.3403364419937134,4.239527702331543,-0.3082696497440338
1.3650232553482056,4.215457439422607,-0.304496705532074
1.3921961784362793,4.198553562164307,-0.30115246772766113
1.4195009469985962,4.185492038726807,-0.2980024814605713
1.4428937435150146,4.161192893981934,-0.2940734624862671
1.4691106081008911,4.143945693969727,-0.29063063859939575
1.4952863454818726,4.126486778259277,-0.2871848940849304
1.52073335647583,4.109078884124756,-0.28360337018966675
1.557402491569519,4.1205525398254395,-0.2819404602050781
1.5771492719650269,4.088188171386719,-0.27731820940971375
1.6084476709365845,4.0845723152160645,-0.27462488412857056
1.6336358785629272,4.066379070281982,-0.27089598774909973
1.6581579446792603,4.048236846923828,-0.2670864462852478
1.682985544204712,4.029751300811768,-0.26323050260543823
1.720154881477356,4.039689540863037,-0.2612059712409973
2.010556221008301,4.632402420043945,-0.2964417636394501
2.0465071201324463,4.6296892166137695,-0.2930079400539398
2.0776760578155518,4.616044998168945,-0.2888915538787842
2.110071897506714,4.6015944480896,-0.28459998965263367
2.1404519081115723,4.583499431610107,-0.28012722730636597
2.1645870208740234,4.555148601531982,-0.274917334318161
2.2035908699035645,4.558341979980469,-0.2716127038002014
2.2331581115722656,4.539848327636719,-0.26693111658096313
2.2670962810516357,4.527629852294922,-0.26251259446144104
2.2974812984466553,4.512553691864014,-0.2578868269920349
2.3258330821990967,4.493877410888672,-0.2530559003353119
2.362133502960205,4.488401412963867,-0.24886943399906158
1.7379400730133057,3.2474329471588135,-0.17720529437065125
1.7520402669906616,3.222285509109497,-0.17290383577346802
1.7379398345947266,3.1456611156463623,-0.16587050259113312
1.7291382551193237,3.079284906387329,-0.15942412614822388
1.7869576215744019,3.131941318511963,-0.15910467505455017
1.3400691747665405,2.3131680488586426,-0.11521278321743011
1.2941948175430298,2.1999921798706055,-0.10734886676073074
0.9573060870170593,1.601285696029663,-0.07640702277421951
0.9679532051086426,1.5949680805206299,-0.07438436895608902
0.9804700016975403,1.5919839143753052,-0.0725095346570015
0.9852376580238342,1.5753384828567505,-0.06993546336889267
1.0000745058059692,1.5753110647201538,-0.06808024644851685
1.0210808515548706,1.5851399898529053,-0.06657897680997849
1.0211491584777832,1.5619194507598877,-0.06364696472883224
1.033935308456421,1.558265209197998,-0.061476968228816986
1.0439772605895996,1.5516444444656372,-0.05918391793966293
1.0588456392288208,1.5510910749435425,-0.057020317763090134
2.550269603729248,3.681553840637207,-0.12994913756847382
2.5827207565307617,3.6781678199768066,-0.12447672337293625
2.6124231815338135,3.666935682296753,-0.11832010746002197
2.6271004676818848,3.6373870372772217,-0.11148425191640854
2.618269681930542,3.5764055252075195,-0.10363084077835083
2.6890761852264404,3.621436834335327,-0.09834758192300797
2.628269910812378,3.6871581077575684,0.17113320529460907
2.6012320518493652,3.7059597969055176,0.17798057198524475
2.5738282203674316,3.7247262001037598,0.1845265030860901
1.0727589130401611,1.578416347503662,0.08054601401090622
1.0573586225509644,1.5792617797851562,0.08268533647060394
1.0412514209747314,1.580459475517273,0.0848015695810318
1.0332189798355103,1.5948946475982666,0.08764500170946121
1.0261852741241455,1.6085679531097412,0.090275339782238
1.0059332847595215,1.6027863025665283,0.09177715331315994
0.9813917279243469,1.5903586149215698,0.09285109490156174
0.9822704195976257,1.6171457767486572,0.09608932584524155
0.966467022895813,1.6174339056015015,0.09775941073894501
0.9898636341094971,1.6850612163543701,0.10348814725875854
1.3443068265914917,2.32711124420166,0.14511947333812714
1.8118102550506592,3.1873745918273926,0.20162709057331085
1.757960557937622,3.1458654403686523,0.20172375440597534
1.7565642595291138,3.199906587600708,0.20795242488384247
1.765034556388855,3.2705516815185547,0.2152058482170105
1.7640495300292969,3.3239285945892334,0.22134609520435333
2.365119457244873,4.536354064941406,0.3054983913898468
2.334958076477051,4.560407638549805,0.3105163872241974
2.3016459941864014,4.577004432678223,0.3149906396865845
2.269619941711426,4.5926737785339355,0.3192768692970276
2.236213445663452,4.608741283416748,0.3234417140483856
2.2022147178649902,4.6247944831848145,0.3275609016418457
2.1686832904815674,4.640324592590332,0.3316095173358917
2.1395010948181152,4.662150859832764,0.33602339029312134
2.1025853157043457,4.6700849533081055,0.3394176661968231
2.071556329727173,4.692182540893555,0.34366410970687866
2.0371804237365723,4.706934928894043,0.347398042678833
1.7755999565124512,4.182787895202637,0.3109823167324066
1.7149250507354736,4.119287490844727,0.3084796667098999
1.690557837486267,4.145958423614502,0.3125861585140228
1.65457022190094,4.14345121383667,0.31442293524742126
1.6244900226593018,4.155115604400635,0.31733739376068115
1.5955090522766113,4.1661152839660645,0.3201376497745514
1.5691533088684082,4.184220790863037,0.32350534200668335
1.5464227199554443,4.217374801635742,0.32786980271339417
1.51585054397583,4.228255271911621,0.33049213886260986
1.48027503490448,4.224129676818848,0.3319394588470459
1.4533166885375977,4.241518497467041,0.3350380063056946
1.4311350584030151,4.2735090255737305,0.33931833505630493
1.4010558128356934,4.287374496459961,0.3419758677482605
1.3725119829177856,4.30458927154541,0.34488803148269653
1.3392460346221924,4.306712627410889,0.3466048836708069
1.3114159107208252,4.323227405548096,0.34945350885391235
1.2790422439575195,4.324612140655518,0.3510940372943878
1.252459168434143,4.348430633544922,0.35437795519828796
1.2227733135223389,4.364792823791504,0.35704755783081055
1.193496823310852,4.380795478820801,0.35968661308288574
1.1667563915252686,4.403944969177246,0.3629073202610016
1.1380176544189453,4.419338226318359,0.36550432443618774
1.108785629272461,4.434636116027832,0.3679954707622528
1.0765818357467651,4.442417621612549,0.3697541356086731
1.0466653108596802,4.45741605758667,0.37211501598358154
1.016850233078003,4.4721550941467285,0.37446749210357666
0.9873577952384949,4.486588954925537,0.3767997622489929
0.9569033980369568,4.497020721435547,0.37881699204444885
0.8124923706054688,3.9583628177642822,0.3342333137989044
0.7533735632896423,3.807356834411621,0.32223618030548096
0.726310670375824,3.812509775161743,0.32344090938568115
0.8358101844787598,4.560190677642822,0.3877922296524048
0.8080832958221436,4.58878231048584,0.39116397500038147
0.7753714323043823,4.594308376312256,0.3925057649612427
0.7472281455993652,4.626473903656006,0.39594948291778564
0.7144680023193359,4.631547451019287,0.39709946513175964
0.6840317249298096,4.6517791748046875,0.39956921339035034
0.6538156867027283,4.671745300292969,0.4020301401615143
0.6217165589332581,4.683877944946289,0.403854638338089
0.5888684391975403,4.688039302825928,0.4048006534576416
0.5586026906967163,4.715184688568115,0.4076470732688904
0.5253519415855408,4.718931674957275,0.4084940552711487
0.4946894347667694,4.745650291442871,0.41134926676750183
0.46274304389953613,4.760529041290283,0.41319921612739563
0.4297291040420532,4.771363258361816,0.41472989320755005
0.3981685936450958,4.797479629516602,0.41734248399734497
0.3650916814804077,4.807868480682373,0.4185639023780823
0.33237388730049133,4.825797080993652,0.4204643666744232
0.3001514673233032,4.851254463195801,0.4230417311191559
0.26623788475990295,4.860980033874512,0.4242759048938751
0.23335938155651093,4.882101058959961,0.4265208840370178
0.19989913702011108,4.899144649505615,0.4281070828437805
0.16599880158901215,4.908177852630615,0.42901211977005005
0.13255776464939117,4.940317630767822,0.431958943605423
0.09785584360361099,4.956675052642822,0.4335508346557617
0.06339507550001144,4.9611077308654785,0.4341185688972473
0.028943315148353577,4.9769768714904785,0.43567895889282227
-0.005754336714744568,5.0004143714904785,0.4376264214515686
-0.04066218063235283,5.01582670211792,0.43889209628105164
-0.07657795399427414,5.038766860961914,0.4408361315727234
-0.11179719120264053,5.045901298522949,0.4414198100566864
-0.14684079587459564,5.045011520385742,0.44132277369499207
-0.18227756023406982,5.055551528930664,0.4421887993812561
-0.21827228367328644,5.0775322914123535,0.4438022971153259
-0.2549680769443512,5.107030391693115,0.4460907578468323
-0.2933809161186218,5.147882461547852,0.44938385486602783
-0.2772025763988495,4.3340888023376465,0.3781335651874542
-0.3043033480644226,4.289388656616211,0.37404319643974304
-0.3328586220741272,4.271691799163818,0.3722563087940216
-0.36497968435287476,4.300368309020996,0.37432220578193665
-0.3922979533672333,4.266754627227783,0.3709772229194641
-0.41638851165771484,4.209779739379883,0.36563360691070557
-0.4419306516647339,4.172008991241455,0.36198145151138306
-0.46434733271598816,4.110884189605713,0.35632845759391785
-0.4872135519981384,4.061264991760254,0.3515996038913727
-0.5116770267486572,4.026947975158691,0.34804657101631165
-0.5326148271560669,3.9732630252838135,0.3428577184677124
-0.5566843748092651,3.946453332901001,0.34001338481903076
-0.5766945481300354,3.8925092220306396,0.33485183119773865
-0.5977733731269836,3.8500163555145264,0.33070310950279236
-0.6166633367538452,3.795865058898926,0.3254401981830597
-0.6374539136886597,3.760939359664917,0.3217586278915405
-0.6577950716018677,3.7259068489074707,0.3180941045284271
-0.6770933866500854,3.6869235038757324,0.3141159415245056
-0.6968705654144287,3.6516263484954834,0.3104718327522278
-0.7177385687828064,3.6238627433776855,0.30749163031578064
-0.7312316298484802,3.561676263809204,0.30142825841903687
-0.7490469217300415,3.5262434482574463,0.29762762784957886
-0.7639424204826355,3.4793174266815186,0.29288601875305176
-0.7844608426094055,3.4588844776153564,0.29039445519447327
-0.8067442178726196,3.4458611011505127,0.2885364294052124
-0.8228150010108948,3.4061264991760254,0.2844245731830597
-0.8440948128700256,3.3930084705352783,0.2823927700519562
-0.8613393306732178,3.364677906036377,0.2791174650192261
-0.8743047118186951,3.321197986602783,0.27461346983909607
-0.8953278064727783,3.3076412677764893,0.2725900411605835
-0.9114252328872681,3.275073289871216,0.26900532841682434
-0.9295596480369568,3.2538986206054688,0.26628270745277405
-0.9362185597419739,3.195342540740967,0.2604560852050781
-0.9556007981300354,3.1815929412841797,0.25831151008605957
-0.9716969132423401,3.156471014022827,0.25525012612342834
-0.9846465587615967,3.1199262142181396,0.25126156210899353
-1.0110161304473877,3.127985954284668,0.2508699893951416
-1.017425298690796,3.076852560043335,0.2456095963716507
-1.0356688499450684,3.0626721382141113,0.24332965910434723
-1.0551499128341675,3.0520286560058594,0.24133992195129395
-1.063369870185852,3.0080246925354004,0.23671020567417145
-1.0767009258270264,2.9785735607147217,0.233239084482193
-1.096738338470459,2.971398115158081,0.23140138387680054
-1.0933408737182617,2.902121067047119,0.22474882006645203
-1.1100072860717773,2.887580633163452,0.2223769873380661
-1.1244313716888428,2.8654026985168457,0.21938864886760712
-1.1331504583358765,2.8285574913024902,0.21528546512126923
-1.1477575302124023,2.8101866245269775,0.2125144898891449
-1.1485804319381714,2.7594141960144043,0.20730184018611908
-1.1320602893829346,2.669278383255005,0.19920219480991364
-1.13674795627594,2.6292612552642822,0.19485533237457275
-1.160098671913147,2.6319708824157715,0.19367288053035736
-1.1840569972991943,2.6385278701782227,0.1926630437374115
-1.1984089612960815,2.6236231327056885,0.19008055329322815
-1.2226200103759766,2.6297836303710938,0.189016193151474
-1.264235019683838,2.670696496963501,0.19037090241909027
-1.2845618724822998,2.665468215942383,0.18835611641407013
-1.2626962661743164,2.5765621662139893,0.18042254447937012
-1.2744863033294678,2.557844400405884,0.17747028172016144
-1.28139328956604,2.528350591659546,0.17374052107334137
-1.2989799976348877,2.519519090652466,0.17142294347286224
-1.3049049377441406,2.4902329444885254,0.1676500290632248
-1.314237356185913,2.4678242206573486,0.16431264579296112
-1.327057123184204,2.45224928855896,0.1614510416984558
-1.3385100364685059,2.432835578918457,0.15828317403793335
-1.3434925079345703,2.403477430343628,0.15444804728031158
-1.359214425086975,2.3947832584381104,0.15191900730133057
-1.3675998449325562,2.3721766471862793,0.14846080541610718
-1.3762465715408325,2.349271774291992,0.14494991302490234
-1.38402259349823,2.3267266750335693,0.14144422113895416
-1.395099401473999,2.3111560344696045,0.13834896683692932
-1.4268312454223633,2.3285505771636963,0.13715358078479767
-1.430974006652832,2.2986512184143066,0.13303299248218536
-1.4418213367462158,2.282806158065796,0.1297348588705063
-1.4565309286117554,2.273613929748535,0.12681451439857483
-1.4657812118530273,2.25388240814209,0.12316132336854935
-1.476718544960022,2.2375569343566895,0.11965256929397583
-1.4869166612625122,2.2215776443481445,0.11608748883008957
-1.493003010749817,2.1988186836242676,0.11211787164211273
-1.5036265850067139,2.182267427444458,0.1083626076579094
-1.4861170053482056,2.1280770301818848,0.10276821255683899
-1.493451714515686,2.1087708473205566,0.09879232943058014
-1.4987636804580688,2.0859742164611816,0.0944719985127449
-1.5369739532470703,2.1114981174468994,0.09233386814594269
-1.5165421962738037,2.0540406703948975,0.08627961575984955
-1.4933611154556274,2.0906822681427,-0.07367400079965591
-1.5111876726150513,2.1496706008911133,-0.07984912395477295
-1.500320553779602,2.1666154861450195,-0.08427480608224869
-1.4880553483963013,2.184344530105591,-0.08874639123678207
-1.454940915107727,2.1688694953918457,-0.09160108119249344
-1.4692060947418213,2.2248597145080566,-0.09741641581058502
-1.4648045301437378,2.2555603981018066,-0.10228811204433441
-1.4447773694992065,2.25901198387146,-0.1056337058544159
-1.4343942403793335,2.2792932987213135,-0.10974796861410141
-1.429652214050293,2.309678316116333,-0.11437759548425674
-1.4174877405166626,2.3261361122131348,-0.11816464364528656
-1.4122250080108643,2.356492757797241,-0.12272940576076508
-1.3946424722671509,2.366757392883301,-0.1262190192937851
-1.385793924331665,2.3898308277130127,-0.1302507519721985
-1.372585654258728,2.4062485694885254,-0.13390901684761047
-1.3472017049789429,2.402491807937622,-0.13641804456710815
-1.337161898612976,2.4257428646087646,-0.14044490456581116
-1.3257404565811157,2.4451427459716797,-0.14416924118995667
-1.3114765882492065,2.461482286453247,-0.14767548441886902
-1.2970244884490967,2.4777495861053467,-0.1511945277452469
-1.29032301902771,2.507411241531372,-0.15545754134655
-1.3056153059005737,2.5826058387756348,-0.16265159845352173
-1.2676565647125244,2.553450107574463,-0.1632232517004013
-1.2782479524612427,2.6219310760498047,-0.17003706097602844
-1.2430951595306396,2.5954198837280273,-0.1706400215625763
-1.2163232564926147,2.5863583087921143,-0.17230241000652313
-1.212268352508545,2.626771926879883,-0.17724157869815826
-1.1899076700210571,2.6282272338867188,-0.17959341406822205
-1.1572515964508057,2.604234218597412,-0.18009540438652039
-1.168277621269226,2.6801209449768066,-0.18747834861278534
-1.1427501440048218,2.673969268798828,-0.18913041055202484
-1.1461838483810425,2.7358150482177734,-0.19561102986335754
-1.1503722667694092,2.801398515701294,-0.20244362950325012
-1.0373785495758057,2.577893018722534,-0.18817290663719177
-1.1173818111419678,2.835296630859375,-0.2089686095714569
-1.122274398803711,2.9084861278533936,-0.21641238033771515
-1.0936977863311768,2.8941807746887207,-0.21733172237873077
-1.0905934572219849,2.949225425720215,-0.22348500788211823
-1.0827090740203857,2.993407964706421,-0.22874633967876434
-1.0664759874343872,3.015573501586914,-0.23236756026744843
-1.0504029989242554,3.037513256072998,-0.23596413433551788
-1.0341687202453613,3.059340476989746,-0.23957355320453644
-1.0119805335998535,3.066565752029419,-0.24194160103797913
-0.998458206653595,3.099470853805542,-0.24631012976169586
-0.9811861515045166,3.1211330890655518,-0.24980708956718445
-0.9730668663978577,3.1724085807800293,-0.2556982934474945
-0.9518440365791321,3.182724714279175,-0.2582406997680664
-0.9378771781921387,3.2191569805145264,-0.2628195583820343
-0.9166725873947144,3.2331759929656982,-0.26562854647636414
-0.9044383764266968,3.276857614517212,-0.2708512246608734
-0.8846495151519775,3.2941746711730957,-0.2739264965057373
-0.8672415614128113,3.322784900665283,-0.27779635787010193
-0.8475368618965149,3.343768835067749,-0.28103217482566833
-0.8328244686126709,3.387399673461914,-0.2862299978733063
-0.8128405809402466,3.408094644546509,-0.2894822955131531
-0.7934367656707764,3.432481050491333,-0.29302000999450684
-0.7759939432144165,3.4682350158691406,-0.29737746715545654
-0.7548220157623291,3.48868465423584,-0.3004531264305115
-0.7386806607246399,3.5357344150543213,-0.3058724105358124
-0.7232404351234436,3.5864298343658447,-0.31162554025650024
-0.7062307596206665,3.6332955360412598,-0.31696099042892456
-0.6805789470672607,3.6380510330200195,-0.31852757930755615
-0.6645358204841614,3.69624924659729,-0.3248063325881958
-0.6442400217056274,3.735246181488037,-0.32944947481155396
-0.623327910900116,3.7702109813690186,-0.33374980092048645
-0.6029573678970337,3.812800168991089,-0.3385589122772217
-0.5814058780670166,3.8514482975006104,-0.342981219291687
-0.559861958026886,3.8938331604003906,-0.34777331352233887
-0.538043737411499,3.9399867057800293,-0.35294944047927856
-0.5146071910858154,3.974382162094116,-0.35709017515182495
-0.4928666353225708,4.027999401092529,-0.3627128601074219
-0.4672638177871704,4.054450988769531,-0.3658948242664337
-0.44305703043937683,4.096203327178955,-0.37048596143722534
-0.4164726138114929,4.118443965911865,-0.37333807349205017
-0.392409086227417,4.175414562225342,-0.3793703317642212
-0.36622777581214905,4.21286678314209,-0.3833325505256653
-0.3351684510707855,4.195866107940674,-0.382361501455307
-0.30729982256889343,4.2174296379089355,-0.3849213719367981
-0.27209532260894775,4.130113124847412,-0.37755006551742554
-0.24081671237945557,4.096917152404785,-0.37508854269981384
-0.21304631233215332,4.113996505737305,-0.3769446015357971
-0.1836567521095276,4.099798202514648,-0.3759531080722809
-0.15535743534564972,4.108713150024414,-0.37709885835647583
-0.12749335169792175,4.132983207702637,-0.37967386841773987
-0.11695360392332077,4.9231672286987305,-0.4526190161705017
-0.08249164372682571,4.916073799133301,-0.45202040672302246
-0.04821058735251427,4.916518688201904,-0.45213690400123596
-0.013925507664680481,4.901165008544922,-0.45082205533981323
0.020133282989263535,4.89335298538208,-0.45022207498550415
0.0544917918741703,4.8697509765625,-0.44807642698287964
0.08770546317100525,4.834278106689453,-0.4445693790912628
0.12126535177230835,4.833578586578369,-0.44428369402885437
0.15436303615570068,4.817093849182129,-0.4425688683986664
0.18754063546657562,4.808156490325928,-0.44156980514526367
0.22021666169166565,4.791232585906982,-0.43973004817962646
0.25277286767959595,4.766315937042236,-0.43690791726112366
0.28507620096206665,4.75286340713501,-0.4351714849472046
0.31702694296836853,4.735305309295654,-0.43308162689208984
0.34993553161621094,4.733047962188721,-0.43241313099861145
0.3808928430080414,4.707314968109131,-0.4294760823249817
0.41403666138648987,4.704611301422119,-0.42842361330986023
0.4443907141685486,4.6784892082214355,-0.4252766966819763
0.47527214884757996,4.659904479980469,-0.42283985018730164
0.5072614550590515,4.652710914611816,-0.42145830392837524
0.535896897315979,4.618276119232178,-0.417458176612854
0.568362832069397,4.614521026611328,-0.41604170203208923
0.599209725856781,4.6028947830200195,-0.4139568507671356
0.6290602684020996,4.583327293395996,-0.41117650270462036
0.659896194934845,4.571252346038818,-0.40908968448638916
0.6874899864196777,4.5397796630859375,-0.4050918519496918
0.7199829816818237,4.5388360023498535,-0.403678297996521
0.7481434941291809,4.514711380004883,-0.400249183177948
0.7781830430030823,4.501885414123535,-0.39784079790115356
0.8067392110824585,4.4811930656433105,-0.3947613537311554
0.7044986486434937,3.764167547225952,-0.33035972714424133
0.7288877367973328,3.751741886138916,-0.32797911763191223
0.7567146420478821,3.754321813583374,-0.3269011378288269
0.9188753962516785,4.400636196136475,-0.3816754221916199
0.9519945979118347,4.405714511871338,-0.3806241750717163
0.9797769784927368,4.387855529785156,-0.37731724977493286
1.0125409364700317,4.392597198486328,-0.3759511411190033
1.0406622886657715,4.374220848083496,-0.3725864291191101
1.0710699558258057,4.3670759201049805,-0.37021809816360474
1.0975682735443115,4.344635963439941,-0.3665234446525574
1.1292718648910522,4.3447723388671875,-0.3645169734954834
1.1590533256530762,4.337143898010254,-0.3618704378604889
1.1853941679000854,4.314094066619873,-0.35791194438934326
1.2175711393356323,4.313438892364502,-0.35584890842437744
1.2408267259597778,4.282716751098633,-0.3512013852596283
1.2723203897476196,4.28183126449585,-0.3488894999027252
1.2970844507217407,4.258350372314453,-0.34475409984588623
1.3248540163040161,4.241876125335693,-0.3411421477794647
1.3520169258117676,4.225356101989746,-0.33758455514907837
1.378477692604065,4.208852291107178,-0.3338409662246704
1.4047061204910278,4.192206382751465,-0.3300829827785492
1.4322298765182495,4.179016590118408,-0.3266022205352783
1.4587397575378418,4.161833763122559,-0.32279834151268005
1.4879425764083862,4.151741981506348,-0.31944406032562256
1.51615571975708,4.141785144805908,-0.3160196840763092
1.5388447046279907,4.117034435272217,-0.3114904761314392
1.564638376235962,4.0992231369018555,-0.3074589967727661
1.593212366104126,4.088463306427002,-0.3039642870426178
1.6156939268112183,4.063136100769043,-0.2991711497306824
1.6432572603225708,4.052335739135742,-0.2955050766468048
1.6680984497070312,4.0340094566345215,-0.2912745475769043
1.7022684812545776,4.0369062423706055,-0.28854143619537354
1.9607114791870117,4.562637805938721,-0.3226757347583771
2.0280144214630127,4.631491184234619,-0.32391518354415894
2.0611491203308105,4.621426582336426,-0.31961366534233093
2.099806785583496,4.621446132659912,-0.31592702865600586
2.1233625411987305,4.589521884918213,-0.3099899888038635
2.1542370319366455,4.575433254241943,-0.30518993735313416
2.190800428390503,4.571341514587402,-0.3009703457355499
2.2174665927886963,4.545778751373291,-0.2953118681907654
2.245155096054077,4.52378511428833,-0.2898557186126709
2.278942108154297,4.515920162200928,-0.2852359116077423
2.311122417449951,4.5042405128479,-0.2803539037704468
2.3461008071899414,4.495249271392822,-0.2754986882209778
2.391911029815674,4.506731986999512,-0.27173373103141785
1.7442240715026855,3.2343459129333496,-0.1918041855096817
1.7661064863204956,3.222682237625122,-0.18784666061401367
1.737320065498352,3.118476629257202,-0.1784987598657608
1.7659556865692139,3.1205224990844727,-0.17526528239250183
1.8161784410476685,3.15948224067688,-0.17396454513072968
1.3518290519714355,2.3148751258850098,-0.12484562397003174
0.9536616802215576,1.6075830459594727,-0.0848424956202507
0.9541667103767395,1.5846649408340454,-0.08177240192890167
0.9789677858352661,1.601684331893921,-0.0807342454791069
0.9862107634544373,1.5881730318069458,-0.07801609486341476
1.0008774995803833,1.5883194208145142,-0.07598961144685745
1.000744104385376,1.5653996467590332,-0.07287134230136871
1.0179672241210938,1.5683481693267822,-0.07084521651268005
1.021944522857666,1.5518667697906494,-0.06792967766523361
1.032133936882019,1.5452169179916382,-0.06541816145181656
1.04938805103302,1.547832727432251,-0.06316877156496048
1.0728812217712402,1.5602635145187378,-0.06125600263476372
2.5655038356781006,3.6801657676696777,-0.13870424032211304
2.6001038551330566,3.6752068996429443,-0.13222569227218628
2.6240124702453613,3.65842342376709,-0.1251683086156845
2.6159555912017822,3.5970470905303955,-0.11651232838630676
2.6585464477539062,3.604813814163208,-0.1097622737288475
2.6240317821502686,3.708146810531616,0.19538918137550354
2.591268301010132,3.7212119102478027,0.20248201489448547
1.0564725399017334,1.5418773889541626,0.08644073456525803
1.062889575958252,1.5751025676727295,0.09071458876132965
1.0550509691238403,1.589576244354248,0.09387058019638062
1.0304193496704102,1.5776084661483765,0.09537070989608765
1.027748465538025,1.5977815389633179,0.09868592768907547
1.0113525390625,1.5988301038742065,0.10078170150518417
0.9950470328330994,1.5996911525726318,0.10284680873155594
0.9879003167152405,1.6131203174591064,0.10556548088788986
0.9719032049179077,1.6135611534118652,0.10738852620124817
0.9557156562805176,1.6139934062957764,0.10918691754341125
1.3525432348251343,2.3213958740234375,0.15942424535751343
1.8592522144317627,3.2442691326141357,0.22609221935272217
1.7870872020721436,3.1728804111480713,0.22415176033973694
1.7520983219146729,3.165347099304199,0.22661764919757843
1.7839512825012207,3.2765626907348633,0.23748904466629028
1.7567896842956543,3.282092571258545,0.24074013531208038
2.386542558670044,4.540587425231934,0.33690720796585083
2.349346399307251,4.550798416137695,0.3414255380630493
2.317448139190674,4.566765785217285,0.34618791937828064
2.288483142852783,4.5897016525268555,0.3514373302459717
2.254511594772339,4.606130123138428,0.3560464382171631
2.2130937576293945,4.608525276184082,0.35963699221611023
2.1873013973236084,4.637718200683594,0.3651171624660492
2.154839277267456,4.65254545211792,0.36947616934776306
2.1207563877105713,4.667847156524658,0.3736576735973358
2.0896191596984863,4.690065383911133,0.37839967012405396
2.0558462142944336,4.704637050628662,0.38248932361602783
1.991708517074585,4.6471781730651855,0.38066190481185913
1.7368950843811035,4.133014678955078,0.3409489095211029
1.6978402137756348,4.123679161071777,0.34243232011795044
1.6735783815383911,4.150116443634033,0.34690049290657043
1.641331672668457,4.1543354988098145,0.3494664132595062
1.6117757558822632,4.165623188018799,0.352651447057724
1.5820226669311523,4.176758766174316,0.35564985871315
1.5571095943450928,4.202476501464844,0.3598020672798157
1.5292531251907349,4.22072696685791,0.36334407329559326
1.4969191551208496,4.2237982749938965,0.3655393421649933
1.4694511890411377,4.241426944732666,0.3690299689769745
1.4417487382888794,4.2589111328125,0.3723486363887787
1.4109961986541748,4.268971920013428,0.3749315142631531
1.3837578296661377,4.289923191070557,0.37849485874176025
1.3558379411697388,4.30676794052124,0.38168254494667053
1.3252242803573608,4.316059589385986,0.38423633575439453
1.2947453260421753,4.3250861167907715,0.38663989305496216
1.2658387422561646,4.341541767120361,0.38955745100975037
1.2431374788284302,4.380266189575195,0.3945057690143585
1.209963321685791,4.381269931793213,0.3960667848587036
1.183437705039978,4.404429912567139,0.39962705969810486
1.150206208229065,4.404979705810547,0.4011684060096741
1.124476671218872,4.435530662536621,0.40516579151153564
1.0871750116348267,4.4206061363220215,0.4050314128398895
1.0628182888031006,4.458352088928223,0.40974414348602295
1.0334241390228271,4.473068714141846,0.4123437702655792
1.0025458335876465,4.483898639678955,0.4146279990673065
0.9741974472999573,4.505904197692871,0.41777652502059937
0.9389252066612244,4.497342109680176,0.41796746850013733
0.770246684551239,3.8249480724334717,0.35632944107055664
0.7417542338371277,3.8225252628326416,0.3569645881652832
0.8460119366645813,4.531126499176025,0.42418017983436584
0.8240464925765991,4.590362071990967,0.43078291416168213
0.7929147481918335,4.603611946105957,0.4328249990940094
0.7615427374839783,4.6166672706604,0.4348480701446533
0.731843113899231,4.641034126281738,0.4379631280899048
0.6976451277732849,4.638308048248291,0.4385491609573364
0.6664333939552307,4.650631427764893,0.4405616819858551
0.6371595859527588,4.67816686630249,0.4439850449562073
0.605147123336792,4.690165996551514,0.44568878412246704
0.5711632966995239,4.686498165130615,0.4459249973297119
0.5416456460952759,4.721225261688232,0.44984057545661926
0.5098080635070801,4.740320682525635,0.45229896903038025
0.47879862785339355,4.763002872467041,0.4551134705543518
0.4462616741657257,4.773890972137451,0.4567102789878845
0.41339555382728577,4.784595489501953,0.458082377910614
0.38040104508399963,4.795072555541992,0.45945659279823303
0.3478025794029236,4.820877552032471,0.4623318016529083
0.31631267070770264,4.854159832000732,0.46594029664993286
0.2836992144584656,4.875589370727539,0.46843796968460083
0.2497355341911316,4.877399921417236,0.4689256548881531
0.2163531333208084,4.894534111022949,0.47071772813796997
0.18213099241256714,4.911462306976318,0.4725170433521271
0.148527592420578,4.9359049797058105,0.4750610291957855
0.11460484564304352,4.956226348876953,0.4772326350212097
0.08014372736215591,4.956874847412109,0.4775335192680359
0.04594547301530838,4.988404750823975,0.4806567132472992
0.010581951588392258,4.980833530426025,0.47985291481018066
-0.024291247129440308,5.011897563934326,0.4827956259250641
-0.059269100427627563,5.019388198852539,0.4834907352924347
-0.09466475993394852,5.046072959899902,0.4860580563545227
-0.12963461875915527,5.041411876678467,0.4856294095516205
-0.16520729660987854,5.059845924377441,0.4872609078884125
-0.20184019207954407,5.081905841827393,0.4890902638435364
-0.2377944439649582,5.0959601402282715,0.49017590284347534
-0.27478593587875366,5.125290393829346,0.4927522540092468
-0.3106563687324524,5.1271772384643555,0.49271145462989807
-0.2891547381877899,4.2791829109191895,0.41105523705482483
-0.31985703110694885,4.284846782684326,0.4112706184387207
-0.3494472801685333,4.282597064971924,0.41061854362487793
-0.38039377331733704,4.295637607574463,0.4114505648612976
-0.404925137758255,4.238771915435791,0.40560925006866455
-0.4284638464450836,4.177886962890625,0.3994108736515045
-0.45380493998527527,4.1361541748046875,0.39506515860557556
-0.4765273332595825,4.082782745361328,0.3894534111022949
-0.5008196830749512,4.048614501953125,0.3856015205383301
-0.5231519937515259,4.0027360916137695,0.3806632459163666
-0.5423039793968201,3.9374682903289795,0.37391194701194763
-0.566192626953125,3.9066836833953857,0.3704538345336914
-0.5874847173690796,3.8642871379852295,0.3659299314022064
-0.6091486215591431,3.8295300006866455,0.3619556128978729
-0.629635751247406,3.7908406257629395,0.3575761914253235
-0.6476309895515442,3.7405524253845215,0.352134644985199
-0.667185366153717,3.7016520500183105,0.3477926552295685
-0.6876516342163086,3.6663546562194824,0.3437994420528412
-0.707213282585144,3.631035566329956,0.3398437201976776
-0.7251057624816895,3.591918706893921,0.33532431721687317
-0.7416754961013794,3.548924446105957,0.3304622173309326
-0.7568353414535522,3.5020744800567627,0.3252766728401184
-0.7780807614326477,3.481595039367676,0.32254350185394287
-0.7970521450042725,3.4534692764282227,0.31913599371910095
-0.8137139678001404,3.4177184104919434,0.31500035524368286
-0.8351085186004639,3.4046804904937744,0.31280213594436646
-0.8458525538444519,3.3500189781188965,0.30681201815605164
-0.8671033382415771,3.336679458618164,0.30461809039115906
-0.8822129368782043,3.3006410598754883,0.30037611722946167
-0.9030493497848511,3.2870659828186035,0.2982037663459778
-0.9244226813316345,3.2772223949432373,0.2962535619735718
-0.9378990530967712,3.2411446571350098,0.29187366366386414
-0.949106752872467,3.1974568367004395,0.2868252694606781
-0.9653638005256653,3.172400712966919,0.28348419070243835
-0.9804584980010986,3.1434640884399414,0.2798091769218445
-0.9951339960098267,3.114492416381836,0.27613139152526855
-1.0112890005111694,3.0930697917938232,0.2729872465133667
-1.0275923013687134,3.0714406967163086,0.26982614398002625
-1.0395596027374268,3.0387842655181885,0.26574334502220154
-1.0606796741485596,3.031639575958252,0.2638818025588989
-1.0765050649642944,3.009683609008789,0.26074984669685364
-1.091471552848816,2.987884759902954,0.25750207901000977
-1.1060668230056763,2.9660685062408447,0.2542457580566406
-1.1165987253189087,2.933145761489868,0.25004443526268005
-1.117215633392334,2.874671220779419,0.24368815124034882
-1.1286604404449463,2.845245838165283,0.2398340106010437
-1.1406686305999756,2.8196349143981934,0.23622000217437744
-1.1536248922348022,2.7976927757263184,0.23289085924625397
-1.145536184310913,2.725297212600708,0.22538891434669495
-1.1414072513580322,2.66375470161438,0.21883608400821686
-1.156813383102417,2.6487739086151123,0.21614719927310944
-1.1683056354522705,2.626858711242676,0.2127988040447235
-1.1857800483703613,2.6191959381103516,0.21058537065982819
-1.2002582550048828,2.604196310043335,0.20776700973510742
-1.2316430807113647,2.6241588592529297,0.20768816769123077
-1.2734297513961792,2.664912223815918,0.20921345055103302
-1.2569905519485474,2.586516857147217,0.20127777755260468
-1.2706643342971802,2.571323871612549,0.19832037389278412
-1.2831077575683594,2.552250623703003,0.19501523673534393
-1.2938064336776733,2.52953839302063,0.1914345622062683
-1.300159215927124,2.5001420974731445,0.18731606006622314
-1.3093335628509521,2.477921724319458,0.18370464444160461
-1.3219759464263916,2.46254563331604,0.18062275648117065
-1.3316932916641235,2.4397525787353516,0.17690680921077728
-1.3393347263336182,2.413496732711792,0.17291146516799927
-1.3551620244979858,2.404841899871826,0.17015452682971954
-1.3631703853607178,2.3825528621673584,0.1664544939994812
-1.3718104362487793,2.3597655296325684,0.1626330465078354
-1.3999016284942627,2.370622396469116,0.16109904646873474
-1.3874739408493042,2.3146910667419434,0.15493892133235931
-1.4146438837051392,2.3258142471313477,0.15334248542785645
-1.4267983436584473,2.3094208240509033,0.14974291622638702
-1.4382537603378296,2.2933053970336914,0.14614392817020416
-1.4530432224273682,2.284165382385254,0.14295557141304016
-1.4600801467895508,2.2613296508789062,0.13879504799842834
-1.473694086074829,2.2480263710021973,0.13517312705516815
-1.4837734699249268,2.2322278022766113,0.13134093582630157
-1.5090079307556152,2.2390151023864746,0.12880733609199524
-1.5048037767410278,2.1996359825134277,0.12338711321353912
-1.4837278127670288,2.138547420501709,0.1167670339345932
-1.4905186891555786,2.1197214126586914,0.11258183419704437
-1.5007758140563965,2.1031010150909424,0.10821496695280075
-1.5095884799957275,2.087362289428711,0.10387314856052399
-1.513756513595581,2.0652167797088623,0.09913238137960434
-1.5231742858886719,2.0487706661224365,0.09437865018844604
-1.4851741790771484,2.0962040424346924,-0.08180683851242065
-1.479048728942871,2.1194188594818115,-0.08689645677804947
-1.4919211864471436,2.1720426082611084,-0.09320909529924393
-1.4928739070892334,2.2089805603027344,-0.09894511103630066
-1.477207899093628,2.219292640686035,-0.10322191566228867
-1.4753265380859375,2.2530698776245117,-0.10861556977033615
-1.4526264667510986,2.2536518573760986,-0.11227122694253922
-1.442768931388855,2.273651361465454,-0.11677229404449463
-1.4295347929000854,2.290987253189087,-0.1212121769785881
-1.4171395301818848,2.307631492614746,-0.12543638050556183
-1.4208898544311523,2.350827932357788,-0.13107331097126007
-1.39541494846344,2.3476860523223877,-0.1341363489627838
-1.39417564868927,2.384432792663574,-0.13941362500190735
-1.3810715675354004,2.400834321975708,-0.14350053668022156
-1.3633393049240112,2.4107301235198975,-0.14711126685142517
-1.3380577564239502,2.4067976474761963,-0.1498514711856842
-1.324953556060791,2.422717332839966,-0.15368816256523132
-1.3167426586151123,2.449134111404419,-0.1581978052854538
-1.3057312965393066,2.4724502563476562,-0.16257525980472565
-1.3096100091934204,2.5230162143707275,-0.16869257390499115
-1.3043380975723267,2.556201219558716,-0.1736723929643631
-1.2699613571166992,2.5340375900268555,-0.17482724785804749
-1.2841476202011108,2.6094679832458496,-0.18275882303714752
-1.2518620491027832,2.5902836322784424,-0.18406328558921814
-1.2018189430236816,2.531907081604004,-0.182418093085289
-1.186701774597168,2.547410249710083,-0.18596786260604858
-1.174661636352539,2.5699121952056885,-0.1900586187839508
-1.1837522983551025,2.6383044719696045,-0.1975363790988922
-1.158827304840088,2.6320993900299072,-0.1994495838880539
-1.1456001996994019,2.654642105102539,-0.20350655913352966
-1.120308756828308,2.648275136947632,-0.20531655848026276
-1.1361310482025146,2.7385823726654053,-0.2146102339029312
-1.1374315023422241,2.7967846393585205,-0.22148512303829193
-1.1302909851074219,2.837226629257202,-0.22692130506038666
-1.1265275478363037,2.888718843460083,-0.23335082828998566
-1.114590048789978,2.9181456565856934,-0.23796901106834412
-1.0887386798858643,2.91102933883667,-0.239614799618721
-1.0826197862625122,2.958745241165161,-0.2456587255001068
-1.074526309967041,3.0028579235076904,-0.2514702379703522
-1.0529520511627197,3.0102574825286865,-0.2542509138584137
-1.0394880771636963,3.03940486907959,-0.2588365375995636
-1.0241482257843018,3.0649166107177734,-0.26303189992904663
-1.009520411491394,3.0941243171691895,-0.2675243616104126
-0.9875377416610718,3.100986957550049,-0.2701038420200348
-0.9769831299781799,3.1448869705200195,-0.27595359086990356
-0.9616373181343079,3.1738011837005615,-0.2804548144340515
-0.9467118978500366,3.2064907550811768,-0.2851731479167938
-0.9281418919563293,3.2279012203216553,-0.28892630338668823
-0.9159993529319763,3.271585464477539,-0.2946861684322357
-0.8931641578674316,3.277676582336426,-0.2970869541168213
-0.8696492314338684,3.2837865352630615,-0.29936936497688293
-0.8570482730865479,3.331110954284668,-0.3053508996963501
-0.835361897945404,3.3444340229034424,-0.3082534372806549
-0.8157169222831726,3.365093231201172,-0.31183353066444397
-0.8109222650527954,3.45002818107605,-0.3214040994644165
-0.7774953842163086,3.417642593383789,-0.31987464427948
-0.7475017309188843,3.396268129348755,-0.319338321685791
-0.7455376386642456,3.5039634704589844,-0.33097636699676514
-0.7297207117080688,3.550793170928955,-0.3369348347187042
-0.7139163017272949,3.6014163494110107,-0.3431895971298218
-0.6895270347595215,3.61391282081604,-0.3457197844982147
-0.6689571142196655,3.64528751373291,-0.3500627875328064
-0.644847571849823,3.657357692718506,-0.35256895422935486
-0.621959924697876,3.676924705505371,-0.35582035779953003
-0.5999395251274109,3.7040669918060303,-0.35961970686912537
-0.5787813663482666,3.742699146270752,-0.36450156569480896
-0.5615794062614441,3.8080668449401855,-0.37201303243637085
-0.5388191938400269,3.838690757751465,-0.3761669099330902
-0.5182272791862488,3.888446807861328,-0.3822362422943115
-0.493865966796875,3.915006637573242,-0.3857520520687103
-0.47140663862228394,3.9607229232788086,-0.39116525650024414
-0.44749078154563904,4.0024919509887695,-0.39624035358428955
-0.42490217089653015,4.055646896362305,-0.402460515499115
-0.401957631111145,4.112549304962158,-0.4090583920478821
-0.3710850775241852,4.091940879821777,-0.407652884721756
