X,Y,Z
2.6190574169158936,3.971160888671875,0.21068036556243896
2.612373113632202,4.026491165161133,0.21885856986045837
2.567288398742676,4.018072128295898,0.22322386503219604
2.5575754642486572,4.070096492767334,0.2308264821767807
2.5228989124298096,4.082187175750732,0.23611456155776978
2.502458333969116,4.112720012664795,0.24217279255390167
2.4759175777435303,4.137531280517578,0.24790482223033905
2.4328513145446777,4.135554790496826,0.2518824338912964
2.4227166175842285,4.186326503753662,0.2589007019996643
2.3972630500793457,4.20963191986084,0.26417696475982666
2.3620405197143555,4.22025728225708,0.26852452754974365
2.2791314125061035,4.145522594451904,0.2674194872379303
2.2314178943634033,4.126835823059082,0.26955467462539673
2.2171077728271484,4.169623851776123,0.2756888270378113
2.186140537261963,4.185663223266602,0.27990806102752686
2.1514647006988525,4.194545745849609,0.2836621105670929
2.13191819190979,4.230451583862305,0.28915679454803467
2.105781316757202,4.251951694488525,0.29362741112709045
2.077974557876587,4.274014472961426,0.29796791076660156
2.0430569648742676,4.281909942626953,0.301312655210495
2.0174221992492676,4.306703090667725,0.3057743310928345
1.9824153184890747,4.30980110168457,0.30865371227264404
1.944617509841919,4.309628963470459,0.31123390793800354
1.9887337684631348,4.494579792022705,0.32712623476982117
1.9558700323104858,4.5087175369262695,0.3306942880153656
1.9381059408187866,4.5542755126953125,0.3364883363246918
1.8927817344665527,4.535061836242676,0.3375130593776703
1.8622758388519287,4.555849075317383,0.34134048223495483
1.8348394632339478,4.583521366119385,0.34563347697257996
1.7933164834976196,4.574584484100342,0.34715142846107483
1.782340407371521,4.641301155090332,0.35437655448913574
0.6870878338813782,1.8270692825317383,0.1403554528951645
1.331105351448059,3.620098352432251,0.2796153128147125
1.3048765659332275,3.629462718963623,0.28184202313423157
1.281493067741394,3.645873546600342,0.2846147418022156
1.6371084451675415,4.763460159301758,0.37378114461898804
1.6038496494293213,4.774540901184082,0.376583993434906
1.5736294984817505,4.800778865814209,0.38037827610969543
1.5341869592666626,4.796969413757324,0.38176703453063965
1.5090683698654175,4.837378025054932,0.3866867125034332
1.4753758907318115,4.847561359405518,0.38917115330696106
1.4416142702102661,4.857509136199951,0.39165544509887695
1.4157402515411377,4.89736795425415,0.3963702619075775
1.387371301651001,4.933620452880859,0.4007727801799774
1.3684614896774292,5.0033416748046875,0.4079134166240692
1.279374361038208,4.809396266937256,0.3935029208660126
1.258516550064087,4.867027282714844,0.3996448814868927
1.2299681901931763,4.898242950439453,0.4035645127296448
1.1998755931854248,4.929593086242676,0.40733352303504944
1.1646136045455933,4.937887668609619,0.40920478105545044
1.1366186141967773,4.976208686828613,0.41357916593551636
1.1036378145217896,4.991449356079102,0.4160463213920593
1.071313500404358,5.010278224945068,0.4188373386859894
1.0368504524230957,5.025337219238281,0.4211137294769287
1.0041828155517578,5.047715663909912,0.4239388406276703
0.9668550491333008,5.046940803527832,0.4248422086238861
2.1297600269317627,11.55403995513916,0.9748257398605347
2.005842924118042,11.322970390319824,0.9575420022010803
1.900620460510254,11.190810203552246,0.948558509349823
1.796354055404663,11.05007553100586,0.9381632208824158
1.6995538473129272,10.943055152893066,0.9306389689445496
1.5959172248840332,10.77745532989502,0.9181343913078308
1.5085021257400513,10.699421882629395,0.9130679965019226
1.4100059270858765,10.53986930847168,0.9010809063911438
1.3177611827850342,10.402539253234863,0.8907381296157837
1.2301517724990845,10.291606903076172,0.8822084069252014
1.1442757844924927,10.17995548248291,0.8736362457275391
1.0666563510894775,10.129533767700195,0.8703427314758301
0.9905281662940979,10.07845687866211,0.8670126795768738
0.39178210496902466,4.2983622550964355,0.3702494204044342
0.35815680027008057,4.258283615112305,0.36715251207351685
0.3298065960407257,4.280053615570068,0.3692533075809479
0.3008970320224762,4.297751426696777,0.3710227906703949
0.2737575173377991,4.3463239669799805,0.37547916173934937
0.24341663718223572,4.355886459350586,0.37659066915512085
0.2115517109632492,4.3263421058654785,0.37433329224586487
0.17976810038089752,4.288804054260254,0.37124714255332947
0.14882834255695343,4.262718200683594,0.3690372705459595
0.11841493844985962,4.240298748016357,0.36716219782829285
0.11905709654092789,5.719542026519775,0.49536293745040894
0.060916703194379807,4.397172451019287,0.380939245223999
0.03046383336186409,4.4130425453186035,0.3824380338191986
-0.0002574309182818979,4.405365943908691,0.3817445635795593
-0.02915349043905735,4.152317523956299,0.35968801379203796
-0.057429417967796326,4.070301055908203,0.3524725139141083
-0.08711818605661392,4.135959148406982,0.35806509852409363
-0.11506371945142746,4.108035564422607,0.35557234287261963
-0.1408582627773285,4.029362201690674,0.3487057685852051
-0.16974501311779022,4.051644802093506,0.3504394292831421
-0.17992761731147766,3.6850154399871826,0.3184709846973419
-0.19762173295021057,3.536029577255249,0.3053584396839142
-0.22260308265686035,3.5423731803894043,0.3056876063346863
-0.26785433292388916,3.835832118988037,0.3307894766330719
-0.3010607063770294,3.919280767440796,0.33777540922164917
-0.3174794912338257,3.7891616821289062,0.3262176811695099
-0.3387925624847412,3.7287521362304688,0.3205935060977936
-0.35696256160736084,3.6489038467407227,0.3133351504802704
-0.37448838353157043,3.5728509426116943,0.3064331114292145
-0.40842998027801514,3.6514370441436768,0.3128061592578888
-0.435670405626297,3.66401743888855,0.3135300874710083
-0.456020325422287,3.6184563636779785,0.3091350495815277
-0.47680366039276123,3.584434747695923,0.30569037795066833
-0.5014587044715881,3.5811374187469482,0.30488502979278564
-0.5194034576416016,3.5314416885375977,0.3001483380794525
-0.5386068820953369,3.4931888580322266,0.29640716314315796
-0.5775787234306335,3.5777456760406494,0.30308547616004944
-0.5846652984619141,3.470136880874634,0.2933288812637329
-0.616485595703125,3.512148380279541,0.2962043285369873
-1.162160873413086,6.3648271560668945,0.5355885624885559
-1.2113021612167358,6.383554935455322,0.5359670519828796
-1.269227147102356,6.4438862800598145,0.5398416519165039
-1.3202452659606934,6.461608409881592,0.5401280522346497
-1.3771419525146484,6.5135979652404785,0.5429086089134216
-1.4290530681610107,6.5384721755981445,0.5434294939041138
-1.4685083627700806,6.5059709548950195,0.5392041802406311
-1.495097279548645,6.4161787033081055,0.5302541255950928
-0.6609688997268677,2.7485198974609375,0.22649787366390228
-0.6958240270614624,2.808236598968506,0.2307273894548416
-0.705261766910553,2.7658095359802246,0.22645804286003113
-0.7220311164855957,2.753523588180542,0.22468088567256927
-0.7408513426780701,2.74861478805542,0.2235117405653
-0.7582443356513977,2.735884666442871,0.2216915786266327
-0.7900805473327637,2.775580644607544,0.2241339534521103
-0.8406779170036316,2.878643274307251,0.23153869807720184
-0.9908670783042908,3.3095388412475586,0.2650964856147766
-1.0109882354736328,3.2954306602478027,0.2628782391548157
-1.0271492004394531,3.2660725116729736,0.25942423939704895
-1.0522292852401733,3.2663960456848145,0.258358895778656
-1.0673986673355103,3.2370035648345947,0.2549085021018982
-1.1041401624679565,3.274170160293579,0.256568968296051
-1.1236255168914795,3.259437322616577,0.2541615962982178
-2.0224380493164062,5.739381790161133,0.4453122317790985
-2.0471689701080322,5.6812005043029785,0.43852391839027405
-2.077293634414673,5.641456127166748,0.43324217200279236
-2.104137659072876,5.598483562469482,0.4274621903896332
-2.133288621902466,5.562678337097168,0.4222712218761444
-1.5419286489486694,3.9408326148986816,0.29740267992019653
-1.553917407989502,3.8901987075805664,0.2917766273021698
-1.5691746473312378,3.850616931915283,0.28705891966819763
-1.5830223560333252,3.8114070892333984,0.2822357416152954
-1.6266523599624634,3.844025135040283,0.28272008895874023
-1.6201599836349487,3.7579987049102783,0.2744857966899872
-1.6279587745666504,3.703798294067383,0.2685532569885254
-1.6425769329071045,3.667660713195801,0.2640145421028137
-1.657265543937683,3.6355643272399902,0.25962841510772705
-1.6650017499923706,3.5893032550811768,0.2542760372161865
-1.677699327468872,3.5534348487854004,0.2496616691350937
-1.6995590925216675,3.5345919132232666,0.2461766004562378
-1.7238191366195679,3.5230305194854736,0.2432047724723816
-1.7262791395187378,3.4698541164398193,0.23728780448436737
-1.7386685609817505,3.437671184539795,0.2328576296567917
-1.7695791721343994,3.439624309539795,0.230652317404747
-1.786291241645813,3.413591146469116,0.2265661507844925
-2.4704322814941406,4.644565105438232,0.30486100912094116
-2.486114978790283,4.601047039031982,0.2986469268798828
-2.5003674030303955,4.5536065101623535,0.2921324372291565
-1.186164379119873,2.1251540184020996,0.13468609750270844
-2.5430283546447754,4.485728740692139,0.2806902229785919
-2.5804643630981445,4.482608318328857,0.276746928691864
-2.5908563137054443,4.431780815124512,0.26983097195625305
-2.6178512573242188,4.407121181488037,0.2643972337245941
-1.2490906715393066,2.071298599243164,0.12236347794532776
-1.2544065713882446,2.04995059967041,0.1191883534193039
-2.6523544788360596,4.268371105194092,0.24392753839492798
-2.078132152557373,3.293175220489502,0.18487413227558136
-2.0950915813446045,3.273380994796753,0.18036659061908722
-2.147980213165283,3.3091564178466797,0.1788673996925354
-2.134557008743286,3.2389097213745117,0.17135588824748993
-2.1825411319732666,3.2635066509246826,0.168771430850029
-2.2186334133148193,3.272373914718628,0.16532433032989502
-2.272007703781128,3.3023388385772705,0.16256552934646606
-2.332212209701538,3.3415987491607666,0.160026416182518
-2.3825764656066895,3.368476390838623,0.15672476589679718
-2.3763182163238525,3.3108911514282227,0.14904792606830597
-2.9055721759796143,3.99311900138855,0.17362774908542633
-2.9073305130004883,3.9437403678894043,0.16527143120765686
-3.0198588371276855,4.225365161895752,-0.13421842455863953
-2.4352307319641113,3.4620988368988037,-0.11598611623048782
-2.7764461040496826,4.009391784667969,-0.14089208841323853
-2.7323005199432373,4.006319522857666,-0.1469501405954361
-2.743027925491333,4.088364601135254,-0.15618254244327545
-2.1845877170562744,3.3061184883117676,-0.13093003630638123
-2.1727967262268066,3.3416428565979004,-0.13698413968086243
-1.3083405494689941,2.045513391494751,-0.08660684525966644
-1.3023428916931152,2.067688465118408,-0.0901137962937355
-1.2708369493484497,2.050421953201294,-0.09187228232622147
-1.259566068649292,2.0663812160491943,-0.0950852558016777
-2.015744209289551,3.3604698181152344,-0.15849386155605316
-2.0967700481414795,3.552746534347534,-0.17150363326072693
-2.06842303276062,3.5645878314971924,-0.1759675145149231
-1.9752424955368042,3.4604012966156006,-0.17443807423114777
-1.2000319957733154,2.1367430686950684,-0.10988548398017883
-1.9362646341323853,3.508692502975464,-0.18396520614624023
-1.9236528873443604,3.546506881713867,-0.1894010454416275
-1.913488507270813,3.5872015953063965,-0.19490931928157806
-1.84253990650177,3.5141642093658447,-0.1941504031419754
-1.779236912727356,3.4545133113861084,-0.1939476579427719
-1.7364625930786133,3.4323341846466064,-0.1957404613494873
-1.7125312089920044,3.444131374359131,-0.19932062923908234
-1.6877977848052979,3.4561140537261963,-0.20284678041934967
-1.6694285869598389,3.4821290969848633,-0.20718026161193848
-1.7244341373443604,3.6630663871765137,-0.22082382440567017
-1.715166449546814,3.710212469100952,-0.22653014957904816
-1.6912195682525635,3.729536771774292,-0.23053407669067383
-1.6673167943954468,3.748605728149414,-0.23446081578731537
-2.2318408489227295,5.114738464355469,-0.3235631585121155
-2.185359239578247,5.104800701141357,-0.3265249729156494
-1.610183835029602,3.8363754749298096,-0.24798065423965454
-1.58500075340271,3.8550655841827393,-0.25177568197250366
-1.5153361558914185,3.76113224029541,-0.248085156083107
-1.4504197835922241,3.673489570617676,-0.24464736878871918
-1.394925594329834,3.607079267501831,-0.24245911836624146
-1.3400193452835083,3.540243625640869,-0.24007205665111542
-1.3115109205245972,3.5424020290374756,-0.24235588312149048
-1.286797285079956,3.5512712001800537,-0.24501563608646393
-1.2645939588546753,3.5673270225524902,-0.24817755818367004
-1.2467128038406372,3.5981998443603516,-0.25223129987716675
-1.2209845781326294,3.606834650039673,-0.2547486126422882
-1.1926919221878052,3.6079018115997314,-0.25674474239349365
-1.142298698425293,3.5380923748016357,-0.2536206841468811
-0.9732045531272888,3.088737726211548,-0.2229272723197937
-0.9579775929450989,3.1178219318389893,-0.2264942228794098
-0.8932936787605286,2.9825656414031982,-0.21807126700878143
-0.8004472255706787,2.7417092323303223,-0.20172706246376038
-0.7767553925514221,2.7321906089782715,-0.2023153305053711
-0.7521600723266602,2.7187440395355225,-0.20242901146411896
-0.7369206547737122,2.7389442920684814,-0.20505231618881226
-0.7117343544960022,2.721329927444458,-0.20484258234500885
-0.7013812065124512,2.760097026824951,-0.20888230204582214
-1.4855414628982544,6.025321960449219,-0.45838868618011475
-1.463653802871704,6.122615337371826,-0.4679245054721832
-1.458970308303833,6.299571514129639,-0.4836583137512207
-1.416600227355957,6.316991329193115,-0.4872022271156311
-1.3726186752319336,6.326465606689453,-0.49014905095100403
-1.3227256536483765,6.312992572784424,-0.4911677837371826
-1.2666014432907104,6.264699459075928,-0.48924919962882996
-1.2119691371917725,6.219757080078125,-0.48758387565612793
-1.1628698110580444,6.197230815887451,-0.4876525402069092
-1.1120686531066895,6.162827491760254,-0.4867885410785675
-1.0474741458892822,6.051473140716553,-0.47957921028137207
-0.9353840947151184,5.639782428741455,-0.4482942223548889
-0.7761090993881226,4.892237663269043,-0.39005225896835327
-0.9135803580284119,6.02933406829834,-0.48216864466667175
-0.875469446182251,6.062370300292969,-0.4862977862358093
-0.6586951613426208,4.8029632568359375,-0.38622626662254333
-0.6234476566314697,4.795787334442139,-0.38651561737060547
-0.7327898740768433,5.963208198547363,-0.48170003294944763
-0.5586560964584351,4.823169231414795,-0.3905078172683716
-0.5179538130760193,4.761034965515137,-0.38638031482696533
-0.594998836517334,5.849055767059326,-0.47548747062683105
-0.5562646389007568,5.884065628051758,-0.47909650206565857
-0.5103219747543335,5.8334269523620605,-0.4757392704486847
-0.46760550141334534,5.809579372406006,-0.47457340359687805
-0.25571781396865845,3.479018211364746,-0.28467410802841187
-0.23250314593315125,3.4962198734283447,-0.28636953234672546
-0.20768499374389648,3.497750997543335,-0.2867457866668701
-0.2981470227241516,5.691843509674072,-0.46704116463661194
-0.25814276933670044,5.685954570770264,-0.4670029878616333
-0.21693941950798035,5.644770622253418,-0.46408385038375854
-0.1768210083246231,5.622775554656982,-0.46244949102401733
-0.1357421875,5.5771708488464355,-0.4588010013103485
-0.09672639518976212,5.570180416107178,-0.4583487808704376
-0.05775872990489006,5.543452739715576,-0.4562932252883911
-0.015447194688022137,4.445864677429199,-0.3660813570022583
0.014107896015048027,4.064352035522461,-0.3345864415168762
0.05724261701107025,5.4305644035339355,-0.4468570649623871
0.09496230632066727,5.430053234100342,-0.4466412365436554
0.13229720294475555,5.413712501525879,-0.4451453387737274
0.16831043362617493,5.362094879150391,-0.4407719075679779
0.20122388005256653,5.248017311096191,-0.43102842569351196
0.19462478160858154,4.297577381134033,-0.35258179903030396
0.270744264125824,5.170916557312012,-0.4237811267375946
0.2527572810649872,4.259530067443848,-0.3487388491630554
0.2792643904685974,4.211092472076416,-0.3444440960884094
0.3073514997959137,4.193574905395508,-0.342512845993042
0.3348185122013092,4.172004699707031,-0.3401634097099304
0.36796778440475464,4.212268352508545,-0.3428579270839691
0.47367843985557556,5.0198211669921875,-0.4079171419143677
0.5093374848365784,5.024230480194092,-0.4076221287250519
0.5126500725746155,4.730350971221924,-0.3829781115055084
0.5225546956062317,4.529522895812988,-0.3658394515514374
0.5624305009841919,4.591536045074463,-0.36995795369148254
0.6008380651473999,4.637811660766602,-0.3728141188621521
0.6647325158119202,4.865100860595703,-0.3901859223842621
0.6994763612747192,4.868211269378662,-0.3893558979034424
0.7318608164787292,4.855698108673096,-0.38716259598731995
0.7635179758071899,4.835179805755615,-0.38433319330215454
0.7958589196205139,4.822193622589111,-0.3821386396884918
0.8320214152336121,4.832019329071045,-0.38176846504211426
0.8681705594062805,4.8416242599487305,-0.38118776679039
0.8986073136329651,4.820371150970459,-0.3780803680419922
0.9332330822944641,4.82187032699585,-0.376777708530426
0.9612386226654053,4.784740924835205,-0.37243980169296265
0.9897444248199463,4.7552056312561035,-0.3687531054019928
1.0208616256713867,4.740817546844482,-0.3660579323768616
1.050820231437683,4.722464084625244,-0.36299899220466614
1.0815266370773315,4.707700729370117,-0.36023563146591187
1.10763418674469,4.669774055480957,-0.3556830585002899
1.1382259130477905,4.654558181762695,-0.35292044281959534
1.1682699918746948,4.639256477355957,-0.3499303460121155
1.1960904598236084,4.616250038146973,-0.3463449478149414
1.223802924156189,4.593038558959961,-0.34276363253593445
1.2511703968048096,4.56564998626709,-0.33884578943252563
1.2808163166046143,4.549511432647705,-0.3358057141304016
1.3097195625305176,4.53336238861084,-0.3325596749782562
1.3340699672698975,4.502073287963867,-0.3282296657562256
1.3628398180007935,4.485499858856201,-0.3249846398830414
1.3946000337600708,4.475927352905273,-0.3222109079360962
1.423140048980713,4.45895528793335,-0.3188777565956116
0.6208555698394775,1.900517463684082,-0.1349525898694992
0.6362682580947876,1.9037226438522339,-0.13421964645385742
0.6318334341049194,1.847710371017456,-0.12932170927524567
1.5235904455184937,4.356339454650879,-0.30266332626342773
0.6654035449028015,1.8609259128570557,-0.12825533747673035
0.6860659718513489,1.8784205913543701,-0.12841244041919708
0.6798370480537415,1.822636604309082,-0.12357528507709503
0.6897507905960083,1.8106584548950195,-0.12172842025756836
0.7050920724868774,1.8132001161575317,-0.12084808945655823
0.7405744194984436,1.8663808107376099,-0.12322796881198883
0.7561141848564148,1.8686511516571045,-0.12223199009895325
0.770569920539856,1.8670543432235718,-0.120951347053051
1.771350383758545,4.208670139312744,-0.2699839174747467
1.7999132871627808,4.196761131286621,-0.2664341628551483
1.8162014484405518,4.155941486358643,-0.26100894808769226
1.8447026014328003,4.143595218658447,-0.25740376114845276
1.873542070388794,4.130861759185791,-0.25374460220336914
1.8918662071228027,4.09696626663208,-0.2487393021583557
1.929287314414978,4.10557746887207,-0.24626865983009338
1.9374794960021973,4.050122261047363,-0.2398882955312729
1.953731894493103,4.012185096740723,-0.2345859706401825
2.0036447048187256,4.044394493103027,-0.23332981765270233
2.023624897003174,4.017197132110596,-0.22856870293617249
2.0472655296325684,3.9966623783111572,-0.22416846454143524
2.073303461074829,3.979048013687134,-0.2198573350906372
2.097219705581665,3.957897186279297,-0.2152663618326187
2.123535633087158,3.944065570831299,-0.21110203862190247
2.135307550430298,3.9023826122283936,-0.2054111510515213
2.122623920440674,3.8160147666931152,-0.19737857580184937
2.1597442626953125,3.822265863418579,-0.19414594769477844
2.181558847427368,3.8010811805725098,-0.18942929804325104
2.1997854709625244,3.7727222442626953,-0.18430721759796143
2.2378180027008057,3.7777509689331055,-0.18076279759407043
2.2505228519439697,3.7431116104125977,-0.17527638375759125
2.271322250366211,3.721597194671631,-0.1703890711069107
2.3017656803131104,3.7122559547424316,-0.1658131331205368
2.3181257247924805,3.683837413787842,-0.16044063866138458
2.3378937244415283,3.6622705459594727,-0.15538182854652405
2.3717517852783203,3.659270763397217,-0.15084190666675568
2.3834927082061768,3.6238372325897217,-0.14494776725769043
2.407287836074829,3.6082777976989746,-0.139794260263443
2.4364914894104004,3.5982632637023926,-0.13463498651981354
2.447277069091797,3.562751293182373,-0.12847900390625
2.470033884048462,3.547203779220581,-0.12307151407003403
2.494621515274048,3.5301551818847656,-0.11720120906829834
2.5133299827575684,3.5074498653411865,-0.1110454723238945
2.5362133979797363,3.4911253452301025,-0.10500691831111908
2.1776790618896484,2.955223798751831,-0.08385751396417618
2.6893839836120605,3.7978227138519287,0.15627984702587128
2.6710777282714844,3.829512596130371,0.16307424008846283
2.68001651763916,3.9037625789642334,0.17162814736366272
2.66266131401062,3.943633794784546,0.17874951660633087
2.6544787883758545,3.9911463260650635,0.1857452541589737
2.6201395988464355,4.0041823387146,0.19108177721500397
2.6025774478912354,4.043230056762695,0.19757848978042603
2.5492196083068848,4.021487236022949,0.2007564753293991
2.5272393226623535,4.0534844398498535,0.2065846174955368
2.504633903503418,4.0855512619018555,0.21234065294265747
2.4677982330322266,4.089439392089844,0.21634875237941742
2.4544804096221924,4.133545875549316,0.22244694828987122
2.4272682666778564,4.1583709716796875,0.22744572162628174
2.400209426879883,4.18279504776001,0.23240171372890472
2.3709592819213867,4.1992034912109375,0.2367132306098938
2.300588846206665,4.14446496963501,0.23687240481376648
2.2472379207611084,4.120149612426758,0.23863893747329712
2.221348762512207,4.142789840698242,0.2429913729429245
2.1991231441497803,4.172045707702637,0.2477351576089859
2.1651105880737305,4.180789470672607,0.251095175743103
2.144716262817383,4.217335224151611,0.25609466433525085
2.1109464168548584,4.225399971008301,0.2592991292476654
2.088279962539673,4.2538161277771,0.2636985182762146
2.0605568885803223,4.275754928588867,0.2676696479320526
2.029097318649292,4.290560245513916,0.27107876539230347
1.997871994972229,4.3049750328063965,0.2744508683681488
1.9677780866622925,4.318606376647949,0.2776901423931122
1.9978920221328735,4.467380046844482,0.2896874248981476
4.464299201965332,10.181056022644043,0.6653099060058594
4.391447067260742,10.220697402954102,0.6731361150741577
1.8968753814697266,4.502119064331055,0.29870206117630005
1.8803311586380005,4.5510663986206055,0.3041362464427948
1.8611302375793457,4.596631050109863,0.30927982926368713
1.8334283828735352,4.624335289001465,0.31313827633857727
1.8020364046096802,4.6448235511779785,0.3165677487850189
0.7047668099403381,1.8548285961151123,0.1271892935037613
1.3483010530471802,3.6242504119873047,0.25003400444984436
1.3197510242462158,3.6263070106506348,0.2515818774700165
1.2961077690124512,3.6429617404937744,0.2540874481201172
1.2846264839172363,3.696436643600464,0.25921767950057983
1.6149156093597412,4.753238201141357,0.3350417912006378
1.5854319334030151,4.775298118591309,0.33832746744155884
0.6345552206039429,1.9575061798095703,0.13934026658535004
1.5440868139266968,4.882591724395752,0.3490830957889557
1.5129196643829346,4.90848445892334,0.352507621049881
1.4762365818023682,4.911341190338135,0.3542320430278778
0.5467793941497803,1.8660695552825928,0.13516849279403687
1.405185341835022,4.923717498779297,0.358090877532959
1.3761610984802246,4.956031799316406,0.36172670125961304
1.3081512451171875,4.8452301025390625,0.3549097180366516
1.2713216543197632,4.8468241691589355,0.3563154637813568
1.2423834800720215,4.8742899894714355,0.3596026599407196
1.2121880054473877,4.897802829742432,0.36262455582618713
1.184581995010376,4.936490058898926,0.36652642488479614
1.1529297828674316,4.9598565101623535,0.3693092465400696
1.1187113523483276,4.975547790527344,0.37156179547309875
1.0856908559799194,4.990710258483887,0.37375566363334656
1.0565212965011597,5.02471399307251,0.37738609313964844
1.0180529356002808,5.016635894775391,0.37775325775146484
0.9913773536682129,5.069514274597168,0.3825737535953522
2.1822712421417236,11.60384750366211,0.8776857256889343
2.0611298084259033,11.400172233581543,0.8642242550849915
1.9597349166870117,11.287363052368164,0.8576148152351379
1.8580923080444336,11.162177085876465,0.8500607013702393
1.7513349056243896,10.99783706665039,0.8389988541603088
1.647076964378357,10.844374656677246,0.8286588788032532
1.5492024421691895,10.709084510803223,0.819686770439148
1.4556636810302734,10.584439277648926,0.8115198612213135
1.3638652563095093,10.455102920532227,0.8029888868331909
1.2761765718460083,10.344361305236816,0.7958625555038452
1.191118836402893,10.248520851135254,0.7893281579017639
1.0999014377593994,10.094058990478516,0.7783107757568359
1.0271753072738647,10.085946083068848,0.7785860896110535
0.41063082218170166,4.330999851226807,0.3347303569316864
0.3764171898365021,4.287145614624023,0.3317500054836273
0.3449803590774536,4.270210266113281,0.33080393075942993
0.31506356596946716,4.280303478240967,0.33177056908607483
0.285077303647995,4.282377243041992,0.3321289122104645
0.26155853271484375,4.393096923828125,0.34093520045280457
0.23182806372642517,4.410337448120117,0.34250807762145996
0.20116089284420013,4.411813735961914,0.34287410974502563
0.16640765964984894,4.323601245880127,0.3361910283565521
0.1341504007577896,4.258476257324219,0.33114394545555115
0.10586490482091904,4.317700386047363,0.3357827365398407
0.07628131657838821,4.349477291107178,0.33830416202545166
0.04590039327740669,4.334317684173584,0.337191104888916
0.015503818169236183,4.392942905426025,0.3418368101119995
-0.014918363653123379,4.3656840324401855,0.33970245718955994
-0.042457662522792816,4.096782207489014,0.31864795088768005
-0.07033204287290573,4.065248966217041,0.31608104705810547
-0.09875690937042236,4.072460651397705,0.3165423572063446
-0.129149928689003,4.137860298156738,0.32154011726379395
-0.15706108510494232,4.10183048248291,0.3186698853969574
-0.2691478431224823,5.948683261871338,0.4618941843509674
-0.18593156337738037,3.562586545944214,0.27637770771980286
-0.20919634401798248,3.5379140377044678,0.27423417568206787
-0.2337421476840973,3.536402940750122,0.27389997243881226
-0.2874685823917389,3.926999092102051,0.3039214313030243
-0.3088380992412567,3.851172924041748,0.29784488677978516
-0.3311178982257843,3.7985382080078125,0.29345598816871643
-0.3438044488430023,3.652735710144043,0.2818151116371155
-0.36311373114585876,3.5921943187713623,0.27678629755973816
-0.38424089550971985,3.5508646965026855,0.27325308322906494
-0.42807841300964355,3.7145307064056396,0.2855016887187958
-0.4491501450538635,3.6728484630584717,0.2819688022136688
-0.4734545946121216,3.661993980407715,0.2806674540042877
-0.4964925944805145,3.643277406692505,0.27871569991111755
-0.5192189812660217,3.6204938888549805,0.2764614224433899
-0.5373027920722961,3.5706512928009033,0.2721691429615021
-0.5554351210594177,3.5245635509490967,0.2681860029697418
-0.5805857181549072,3.524513006210327,0.26772335171699524
-0.5922071933746338,3.447575330734253,0.26127323508262634
-0.6041615009307861,3.378317356109619,0.2554168701171875
-1.1855170726776123,6.372872352600098,0.48067525029182434
-1.234843373298645,6.3914055824279785,0.48095083236694336
-1.2899699211120605,6.436273574829102,0.4832141101360321
-1.3432964086532593,6.469264984130859,0.48454880714416504
-0.75667804479599,3.5233519077301025,0.2631174623966217
-0.7861654162406921,3.540926456451416,0.26364076137542725
-1.3012257814407349,5.677405834197998,0.4214833974838257
-1.3460674285888672,5.691108226776123,0.42126157879829407
-0.678476095199585,2.7822084426879883,0.20534498989582062
-0.6957070231437683,2.769989490509033,0.2037852555513382
-0.7148330211639404,2.7651960849761963,0.20269067585468292
-0.7295805811882019,2.7452962398529053,0.20051546394824982
-0.7504848837852478,2.7478139400482178,0.19997991621494293
-0.7822217345237732,2.7876272201538086,0.2021455019712448
-0.8134427070617676,2.823395013809204,0.20400592684745789
-0.9754190444946289,3.299894332885742,0.23741430044174194
-1.0022308826446533,3.3082478046417236,0.2370067834854126
-1.0292304754257202,3.3163797855377197,0.23658379912376404
-1.0475850105285645,3.294382333755493,0.23399387300014496
-1.075338363647461,3.301936149597168,0.23351430892944336
-1.09340500831604,3.279684066772461,0.23082540929317474
-1.1003828048706055,3.228090763092041,0.22604906558990479
-1.1375223398208618,3.2648801803588867,0.22747063636779785
-2.0323710441589355,5.706288814544678,0.39551106095314026
-2.0627636909484863,5.666553497314453,0.39070436358451843
-2.088188409805298,5.615875720977783,0.38510221242904663
-2.121037244796753,5.587100028991699,0.3808170557022095
-2.1472830772399902,5.543852806091309,0.3756217360496521
-1.5404359102249146,3.8976407051086426,0.2624744474887848
-1.5558141469955444,3.858074188232422,0.2582012116909027
-1.5600932836532593,3.793342113494873,0.25224390625953674
-1.5737550258636475,3.754059314727783,0.24786600470542908
-1.598743200302124,3.743645191192627,0.24545137584209442
-1.639965534210205,3.768497943878174,0.24529162049293518
-1.640911340713501,3.700101613998413,0.23905633389949799
-1.648558497428894,3.649847984313965,0.23399116098880768
-1.6536964178085327,3.596247911453247,0.22863692045211792
-1.6627486944198608,3.553520917892456,0.22405511140823364
-1.6805824041366577,3.5280160903930664,0.2205229103565216
-1.7017126083374023,3.509371519088745,0.21742844581604004
-1.728654146194458,3.505047559738159,0.21513357758522034
-1.7312066555023193,3.4516735076904297,0.2097892314195633
-1.754410743713379,3.440105438232422,0.20701813697814941
-1.7819294929504395,3.4348952770233154,0.20456327497959137
-1.8090366125106812,3.429692029953003,0.20207089185714722
-2.470940351486206,4.611062049865723,0.2686120271682739
-2.4769670963287354,4.550397872924805,0.2620459496974945
-1.1903547048568726,2.1504220962524414,0.1222861111164093
-1.1860944032669067,2.1082327365875244,0.11837662756443024
-2.5700440406799316,4.499210834503174,0.24926796555519104
-2.5915822982788086,4.46904182434082,0.24424709379673004
-2.606684684753418,4.424302101135254,0.23826749622821808
-2.623514413833618,4.382784366607666,0.23241864144802094
-1.2560149431228638,2.067911148071289,0.10792655497789383
-2.6639153957366943,4.322193622589111,0.22189736366271973
-2.0624966621398926,3.294764280319214,0.16612932085990906
-2.0762503147125244,3.2678213119506836,0.16171656548976898
-2.093414545059204,3.2477569580078125,0.15757569670677185
-2.181577205657959,3.3349666595458984,0.15845216810703278
-2.737886667251587,4.123192310333252,0.19159913063049316
-2.7356646060943604,4.0638747215271,0.18448953330516815
-2.790900707244873,4.087976932525635,0.1810225248336792
-2.817680597305298,4.065070152282715,0.17505791783332825
-2.8119349479675293,4.002675533294678,0.16747400164604187
-2.819957971572876,3.958984613418579,0.1605735868215561
-2.870009660720825,3.9713733196258545,0.1556088924407959
-2.8761160373687744,3.928546667098999,0.14843031764030457
-2.93036150932312,3.947014331817627,0.14308995008468628
-2.457965612411499,3.4655978679656982,-0.10265610367059708
-2.417856216430664,3.4649882316589355,-0.10796856135129929
-2.7430837154388428,3.9900550842285156,-0.12986639142036438
-2.749720573425293,4.065664768218994,-0.13799051940441132
-2.200489044189453,3.3054914474487305,-0.1165028065443039
-2.172945976257324,3.3141634464263916,-0.12087760120630264
-2.651597499847412,4.111139297485352,-0.15492147207260132
-1.2805836200714111,2.017190456390381,-0.07833836227655411
-2.648061990737915,4.237817287445068,-0.16933175921440125
-1.2713826894760132,2.068758010864258,-0.08489906042814255
-2.0077860355377197,3.320467710494995,-0.1397235095500946
-2.0044801235198975,3.367805242538452,-0.14508171379566193
-2.693227529525757,4.601918697357178,-0.20273332297801971
-2.6666100025177,4.6351752281188965,-0.20870815217494965
-1.203673243522644,2.1263082027435303,-0.09766331315040588
-2.6633267402648926,4.784563064575195,-0.22401563823223114
-1.940580129623413,3.547213077545166,-0.16919364035129547
-1.922816276550293,3.574434757232666,-0.17349155247211456
-1.9120135307312012,3.6154017448425293,-0.17850534617900848
-1.8064296245574951,3.476707696914673,-0.17440803349018097
-1.7597194910049438,3.4479196071624756,-0.17567884922027588
-1.7320863008499146,3.4529905319213867,-0.1785302758216858
-1.695613980293274,3.440455675125122,-0.18044017255306244
-1.6751272678375244,3.4633169174194336,-0.18417103588581085
-1.6533595323562622,3.4822354316711426,-0.1876523196697235
-1.7214070558547974,3.691514492034912,-0.2014472484588623
-1.695408582687378,3.703355073928833,-0.20458075404167175
-1.6781787872314453,3.736699104309082,-0.20883384346961975
-2.308575391769409,5.240779399871826,-0.296254426240921
-2.20633602142334,5.1063947677612305,-0.2918812036514282
-2.170499324798584,5.121500015258789,-0.2958892285823822
-1.6083984375,3.8723931312561035,-0.22597640752792358
-2.1185240745544434,5.205986499786377,-0.3068292438983917
-2.162958860397339,5.423334121704102,-0.32270127534866333
-2.1371967792510986,5.471000671386719,-0.3286689519882202
-1.384724736213684,3.620859384536743,-0.2194260209798813
-1.3409209251403809,3.583075761795044,-0.21900494396686554
-1.31289803981781,3.5849859714508057,-0.22096222639083862
-1.282619595527649,3.5792179107666016,-0.2224215269088745
-1.264574646949768,3.6102874279022217,-0.22614118456840515
-1.2387206554412842,3.6190991401672363,-0.22837571799755096
-1.2153359651565552,3.635101556777954,-0.23107530176639557
-1.1875861883163452,3.635920286178589,-0.23277950286865234
-1.0011001825332642,3.138788938522339,-0.20238332450389862
-0.9713947772979736,3.1235053539276123,-0.20270395278930664
-0.9400904178619385,3.1003804206848145,-0.20247572660446167
-0.8121539950370789,2.7479043006896973,-0.18057705461978912
-0.7864880561828613,2.7309296131134033,-0.18056894838809967
-0.7620518803596497,2.717517614364624,-0.18073710799217224
-0.7406580448150635,2.7152585983276367,-0.18154828250408173
-0.7190178036689758,2.7129154205322266,-0.18237361311912537
-0.7107458114624023,2.7593069076538086,-0.18646325170993805
-0.6792263984680176,2.714942455291748,-0.18442277610301971
-1.4691771268844604,6.052749156951904,-0.41310015320777893
-1.4646261930465698,6.225978374481201,-0.42680639028549194
-1.4406005144119263,6.3273701667785645,-0.4357144236564636
-1.39407217502594,6.325634479522705,-0.43750232458114624
-1.3468248844146729,6.319746017456055,-0.4390161335468292
-1.2961032390594482,6.298356533050537,-0.43917369842529297
-1.241829514503479,6.257486343383789,-0.4378984868526459
-0.9315741658210754,4.8765788078308105,-0.3425231873989105
-0.8870012164115906,4.825344085693359,-0.34015220403671265
-0.8451799154281616,4.785248756408691,-0.3385581374168396
-0.8030242919921875,4.741033554077148,-0.3364027738571167
-0.7608739137649536,4.692627429962158,-0.33391711115837097
-0.7231342196464539,4.670896053314209,-0.333344042301178
-0.68382728099823,4.629458904266357,-0.33133867383003235
-0.654857337474823,4.657162189483643,-0.3342944085597992
-0.6231869459152222,4.66929292678833,-0.3358898460865021
-0.5914050340652466,4.681205749511719,-0.3374740481376648
-0.5613728165626526,4.708371639251709,-0.3401784896850586
-0.5293962359428406,4.723761081695557,-0.34206101298332214
-0.49740540981292725,4.734997272491455,-0.3436492383480072
-0.5664880275726318,5.781352996826172,-0.4202027916908264
-0.4346999228000641,4.780180931091309,-0.34793949127197266
-0.406832754611969,4.849047660827637,-0.35348033905029297
-0.3772483468055725,4.913905620574951,-0.358768105506897
-0.24406152963638306,3.4978034496307373,-0.25578102469444275
-0.22008001804351807,3.5071768760681152,-0.25668415427207947
-0.31784942746162415,5.702457904815674,-0.41768893599510193
-0.2772342562675476,5.688938140869141,-0.4170539081096649
-0.2360464334487915,5.667363166809082,-0.41585060954093933
-0.19547311961650848,5.633788108825684,-0.4137764275074005
-0.15562833845615387,5.611632347106934,-0.4122494161128998
-0.11592400074005127,5.581411361694336,-0.4100840091705322
-0.07680923491716385,5.562596321105957,-0.40877604484558105
-0.036980487406253815,5.492869853973389,-0.40374672412872314
0.00091875612270087,4.390492916107178,-0.3228077292442322
0.02819851040840149,3.9384937286376953,-0.28948310017585754
0.07678857445716858,5.441826343536377,-0.3997768461704254
0.11406857520341873,5.41780948638916,-0.397830069065094
0.15133298933506012,5.401324272155762,-0.39645639061927795
0.1861729770898819,5.302799224853516,-0.3890809416770935
0.1794593185186386,4.26603889465332,-0.3127397298812866
0.2086889147758484,4.256941318511963,-0.31171777844429016
0.23994053900241852,4.286543369293213,-0.31354326009750366
0.2658521831035614,4.222591400146484,-0.30854177474975586
0.2951396405696869,4.212867736816406,-0.3075183629989624
0.3231869041919708,4.195222854614258,-0.30579179525375366
0.35351747274398804,4.208466529846191,-0.3062102198600769
0.4571145176887512,5.024661064147949,-0.36496078968048096
0.4927269518375397,5.029185771942139,-0.3646678030490875
0.5160568952560425,4.90939474105835,-0.35538017749786377
0.5083299279212952,4.534069538116455,-0.32754790782928467
0.5456015467643738,4.580826282501221,-0.33011767268180847
0.5845174789428711,4.635014057159424,-0.33321982622146606
0.6316134333610535,4.742927074432373,-0.3401660919189453
0.6862906813621521,4.888907432556152,-0.3497989773750305
0.716735303401947,4.860996723175049,-0.3468763530254364
0.7478410601615906,4.840639591217041,-0.3443491458892822
0.7799433469772339,4.827777862548828,-0.34237661957740784
0.8121129870414734,4.814668655395508,-0.3403996229171753
0.853711724281311,4.855055809020996,-0.3422091007232666
0.8864766955375671,4.841368675231934,-0.34008291363716125
0.916867196559906,4.8199591636657715,-0.3372918963432312
0.9469637274742126,4.798367977142334,-0.3345138430595398
0.977135181427002,4.776524543762207,-0.3317296802997589
1.00547456741333,4.746857643127441,-0.32842665910720825
1.0380146503448486,4.735988140106201,-0.3262990117073059
1.0652939081192017,4.706088066101074,-0.3227633535861969
1.0957977771759033,4.691208839416504,-0.3202807307243347
1.1265040636062622,4.676046848297119,-0.3177826404571533
1.1552531719207764,4.653099060058594,-0.3147742450237274
1.1840190887451172,4.629915237426758,-0.31161582469940186
1.2097604274749756,4.5992231369018555,-0.30790627002716064
1.2401856184005737,4.587220668792725,-0.30547380447387695
1.2720803022384644,4.578625679016113,-0.30325645208358765
1.2974592447280884,4.54732608795166,-0.29955995082855225
1.3269851207733154,4.530831336975098,-0.29666510224342346
1.3533896207809448,4.50689172744751,-0.2932814955711365
1.3819324970245361,4.490220546722412,-0.2903871238231659
1.415513038635254,4.488083362579346,-0.28841632604599
0.6076960563659668,1.8810992240905762,-0.12011779844760895
0.6231749653816223,1.8843159675598145,-0.1194528341293335
0.6384860873222351,1.8874883651733398,-0.11879994720220566
0.6565697193145752,1.8978583812713623,-0.11858554929494858
0.6697763800621033,1.8933099508285522,-0.11742789298295975
0.6669095158576965,1.8447091579437256,-0.11353684216737747
0.6794149279594421,1.840213418006897,-0.11234360188245773
0.6659609079360962,1.766217589378357,-0.10693204402923584
0.6936501264572144,1.8016481399536133,-0.10815832763910294
0.7318499088287354,1.8621894121170044,-0.11084355413913727
0.7502804398536682,1.871737003326416,-0.11039306223392487
0.7732510566711426,1.8919724225997925,-0.11054670810699463
1.7575191259384155,4.216052055358887,-0.24394491314888
1.7837975025177002,4.1967034339904785,-0.2404460459947586
1.8063222169876099,4.170237064361572,-0.23649932444095612
1.840661644935608,4.172435760498047,-0.23411989212036133
1.849714994430542,4.117340087890625,-0.22853726148605347
1.8853641748428345,4.118491172790527,-0.22598905861377716
1.9105015993118286,4.098464012145996,-0.22230085730552673
1.9345967769622803,4.078692436218262,-0.2185564935207367
1.9500330686569214,4.0412092208862305,-0.21389366686344147
1.9832956790924072,4.038217544555664,-0.2109723687171936
2.011706590652466,4.024323463439941,-0.20742426812648773
2.0384860038757324,4.011007308959961,-0.20387743413448334
2.0616204738616943,3.9905622005462646,-0.19997942447662354
2.0875093936920166,3.9728567600250244,-0.1961141675710678
2.1149230003356934,3.9585134983062744,-0.19240735471248627
2.1336874961853027,3.9308576583862305,-0.1880083978176117
2.1377220153808594,3.8754429817199707,-0.1822597086429596
2.139878749847412,3.8163652420043945,-0.1763346940279007
2.158135414123535,3.7882893085479736,-0.17187272012233734
2.1909124851226807,3.787649393081665,-0.16862592101097107
2.2204625606536865,3.779634475708008,-0.16495779156684875
2.2392325401306152,3.7505502700805664,-0.16022370755672455
2.272144079208374,3.749147653579712,-0.15670092403888702
2.2803385257720947,3.7077224254608154,-0.1515171080827713
2.3102128505706787,3.698566436767578,-0.14746926724910736
2.330949544906616,3.6764607429504395,-0.14289385080337524
2.3509573936462402,3.654585838317871,-0.13826490938663483
2.3801658153533936,3.645129680633545,-0.1339772790670395
2.4136078357696533,3.64199161529541,-0.12982314825057983
2.419616937637329,3.6005892753601074,-0.12431714683771133
2.4351980686187744,3.5713448524475098,-0.11906778067350388
2.459648370742798,3.554713487625122,-0.114069864153862
2.477715492248535,3.5327627658843994,-0.10897840559482574
2.510969638824463,3.5285542011260986,-0.10407758504152298
2.5339155197143555,3.5122663974761963,-0.09874037653207779
2.600364923477173,3.5558605194091797,-0.09485570341348648
2.1871659755706787,2.948471784591675,-0.07404602319002151
2.6872029304504395,3.7619118690490723,0.1326051950454712
2.671125650405884,3.801798105239868,0.13924568891525269
2.6480653285980225,3.8271915912628174,0.14498749375343323
2.6156232357025146,3.839787244796753,0.15006276965141296
2.590280771255493,3.8661205768585205,0.15563692152500153
2.5954749584198,3.932793140411377,0.1624748408794403
2.5702290534973145,3.958444833755493,0.16768668591976166
2.5630903244018555,4.013906002044678,0.17409195005893707
2.5474231243133545,4.051363945007324,0.17944662272930145
2.5139713287353516,4.062829494476318,0.18362151086330414
2.4791767597198486,4.074817180633545,0.1877567023038864
2.457364559173584,4.106014251708984,0.19267715513706207
2.44441819190979,4.1498188972473145,0.1980821043252945
2.4014852046966553,4.14757776260376,0.20117613673210144
2.3859987258911133,4.192272186279297,0.20653733611106873
2.345299482345581,4.188171863555908,0.2093077003955841
2.2754147052764893,4.1330485343933105,0.20947831869125366
2.233505964279175,4.129060745239258,0.2120448797941208
2.1996676921844482,4.138167858123779,0.21522662043571472
2.1888670921325684,4.187792778015137,0.220421701669693
2.15543532371521,4.196148872375488,0.22341860830783844
2.130924940109253,4.225955963134766,0.22751234471797943
2.0896432399749756,4.220238208770752,0.22963398694992065
2.073791980743408,4.262617111206055,0.23428216576576233
2.047063112258911,4.283995151519775,0.23778179287910461
2.0155491828918457,4.2987446784973145,0.24078941345214844
1.9806679487228394,4.3061723709106445,0.24339628219604492
1.9578427076339722,4.3378400802612305,0.2473343312740326
1.9828275442123413,4.47606086730957,0.25737667083740234
1.9628700017929077,4.518728733062744,0.26187440752983093
1.9328930377960205,4.5399489402771,0.2651090919971466
1.8851407766342163,4.5175862312316895,0.2657727301120758
1.8707808256149292,4.573999404907227,0.27105775475502014
1.8358008861541748,4.579588890075684,0.2733066976070404
1.7939629554748535,4.570858955383301,0.27452144026756287
1.77892005443573,4.630937099456787,0.2798929512500763
1.7405349016189575,4.628687858581543,0.28148433566093445
1.3279105424880981,3.6086606979370117,0.22080238163471222
1.3051953315734863,3.6251161098480225,0.22310279309749603
1.2764196395874023,3.6269731521606445,0.22439667582511902
1.6369526386260986,4.760697841644287,0.2960948050022125
1.6082619428634644,4.786785125732422,0.2992561459541321
0.6321653127670288,1.9265737533569336,0.12106792628765106
1.5502315759658813,4.838381290435791,0.305545836687088
1.5107815265655518,4.83437967300415,0.30660754442214966
1.476014494895935,4.844980716705322,0.30860719084739685
0.5415962934494019,1.8239651918411255,0.11667612195014954
1.4165047407150269,4.894941806793213,0.3144408166408539
1.3796467781066895,4.8972296714782715,0.3159424960613251
1.3384335041046143,4.884291172027588,0.3162144124507904
1.286433219909668,4.829577445983887,0.3137769401073456
1.2607656717300415,4.872481822967529,0.31768789887428284
1.2267929315567017,4.881037712097168,0.3193572759628296
1.1976522207260132,4.912235736846924,0.3225506544113159
1.1664482355117798,4.935662269592285,0.3250793516635895
1.1346813440322876,4.958963871002197,0.3275296092033386
1.1043741703033447,4.9896626472473145,0.3304908573627472
1.071009635925293,5.00480842590332,0.33242878317832947
1.0363566875457764,5.0159831047058105,0.3341306447982788
1.0029104948043823,5.030633926391602,0.33603253960609436
0.9789876937866211,5.098783493041992,0.34132063388824463
1.446164608001709,7.830740451812744,0.5253539085388184
0.9299620985984802,5.24243688583374,0.35249263048171997
1.8999390602111816,11.170060157775879,0.7527678608894348
1.8026206493377686,11.063602447509766,0.7472933530807495
1.6938198804855347,10.875557899475098,0.7359927892684937
1.6049706935882568,10.80615520477295,0.7324410080909729
1.4969017505645752,10.593273162841797,0.7191694378852844
1.4104576110839844,10.522428512573242,0.7155532240867615
1.3235530853271484,10.423593521118164,0.7100170850753784
1.2260252237319946,10.223458290100098,0.6975781917572021
1.1534512042999268,10.223962783813477,0.6984100937843323
1.0663347244262695,10.088339805603027,0.6898620128631592
0.990463137626648,10.04507827758789,0.6876488327980042
0.39285901188850403,4.296257972717285,0.29444214701652527
0.3607209026813507,4.271663188934326,0.29309752583503723
0.3304024040699005,4.266262531280518,0.293079137802124
0.3024353086948395,4.295663833618164,0.29524505138397217
0.2753048837184906,4.344326972961426,0.2987520396709442
0.24674998223781586,4.388957500457764,0.30200308561325073
0.21618986129760742,4.390548229217529,0.3023049831390381
0.1828220635652542,4.325735092163086,0.2980463206768036
0.1495261937379837,4.237310886383057,0.2921289801597595
0.09240930527448654,4.359766483306885,0.3005976378917694
0.06118391454219818,4.3057475090026855,0.296907901763916
0.031640082597732544,4.360620498657227,0.3007413148880005
0.0013420168543234468,4.434772968292236,0.30592063069343567
-0.028892412781715393,4.345046520233154,0.2997395396232605
-0.0555044561624527,4.044703960418701,0.2788907289505005
-0.08393389731645584,4.059814929962158,0.27981817722320557
-0.11505140364170074,4.164323806762695,0.28691768646240234
-0.14291107654571533,4.13227653503418,0.2846205532550812
-0.16612522304058075,3.9988083839416504,0.27535462379455566
-0.19276688992977142,3.974219560623169,0.2735098898410797
-0.19674623012542725,3.540879487991333,0.24344758689403534
-0.22172598540782928,3.547234535217285,0.24366052448749542
-0.25602149963378906,3.685594320297241,0.25294333696365356
-0.296481728553772,3.878039836883545,0.26593017578125
-0.32018402218818665,3.837073564529419,0.2629150152206421
-0.3398139476776123,3.7532477378845215,0.2568685710430145
-0.35434216260910034,3.634486436843872,0.24838213622570038
