X,Y,Z
-0.2913488745689392,4.297810077667236,-0.08904185146093369
-0.3086477518081665,5.075472354888916,-0.10525837540626526
-0.26972460746765137,5.011200428009033,-0.1039942130446434
-0.23360243439674377,4.989554405212402,-0.10357890278100967
-0.1987922191619873,5.00669527053833,-0.10397444665431976
-0.16363665461540222,5.000150680541992,-0.10388254374265671
-0.12822599709033966,4.9777421951293945,-0.10346575081348419
-0.09375791251659393,4.986322402954102,-0.10368001461029053
-0.05876152589917183,4.967329502105713,-0.10325124859809875
-0.02345508150756359,4.952000617980957,-0.10290341079235077
0.01097115222364664,4.928611755371094,-0.10239388048648834
0.04524006322026253,4.928416728973389,-0.10237131267786026
0.07925478368997574,4.9123640060424805,-0.10202432423830032
0.11273667961359024,4.884366512298584,-0.10135696828365326
0.1461338847875595,4.867855072021484,-0.10092209279537201
0.17964844405651093,4.843287467956543,-0.10032417625188828
0.2126302868127823,4.826317310333252,-0.09989059716463089
0.24498684704303741,4.8013224601745605,-0.09929642826318741
0.2778409421443939,4.791712284088135,-0.09898589551448822
0.31030550599098206,4.777982711791992,-0.09856152534484863
0.34228000044822693,4.752309322357178,-0.09789441525936127
0.37584421038627625,4.757611274719238,-0.0978727638721466
0.40619656443595886,4.723762035369873,-0.09705082327127457
0.4375370740890503,4.705277919769287,-0.09653371572494507
0.46920421719551086,4.694380760192871,-0.09612105786800385
0.5021324157714844,4.690978050231934,-0.09586357325315475
0.532792329788208,4.671876907348633,-0.09529320895671844
0.5629134774208069,4.648679733276367,-0.09464425593614578
0.5942699909210205,4.636905670166016,-0.09423324465751648
0.6251610517501831,4.624966621398926,-0.09375099092721939
0.6564845442771912,4.612741947174072,-0.09325896203517914
0.6859276294708252,4.592667579650879,-0.09261833131313324
0.7142091393470764,4.564644813537598,-0.09182165563106537
0.7440260648727417,4.548014163970947,-0.09126032888889313
0.7740721106529236,4.535080432891846,-0.0907316505908966
0.8065488934516907,4.537359237670898,-0.0904914066195488
0.713927686214447,3.8595566749572754,-0.07672911137342453
0.7252023816108704,3.7739765644073486,-0.07479357719421387
0.7514278888702393,3.7688493728637695,-0.074460469186306
0.9148851037025452,4.429092884063721,-0.0872027650475502
0.9500918388366699,4.445649147033691,-0.08719620853662491
0.9793781042098999,4.431299209594727,-0.08658051490783691
1.0117136240005493,4.432049751281738,-0.08626700192689896
1.0371373891830444,4.402107238769531,-0.08535923808813095
1.0675029754638672,4.3948516845703125,-0.08487416058778763
1.094667673110962,4.376097679138184,-0.08413578569889069
1.1230539083480835,4.360843181610107,-0.0834645926952362
1.1531304121017456,4.352996826171875,-0.08294172585010529
1.1813637018203735,4.337334632873535,-0.08227130025625229
1.2112659215927124,4.329089641571045,-0.08172062784433365
1.238580346107483,4.313238620758057,-0.08098503947257996
1.2662461996078491,4.297066688537598,-0.08024118095636368
1.2980847358703613,4.295727729797363,-0.07978083938360214
1.3255971670150757,4.2791523933410645,-0.079037606716156
1.3502562046051025,4.255059719085693,-0.07814043760299683
1.379058837890625,4.245824337005615,-0.07749402523040771
1.4009320735931396,4.2139811515808105,-0.07643242925405502
1.4274623394012451,4.1968302726745605,-0.07564432919025421
1.4591987133026123,4.19418478012085,-0.07511729747056961
1.4878647327423096,4.1841139793396,-0.0744311660528183
1.5134443044662476,4.166632175445557,-0.07360085844993591
1.5402140617370605,4.152657985687256,-0.07283724844455719
1.5667451620101929,4.13438081741333,-0.07197969406843185
1.58699369430542,4.101545810699463,-0.07088451832532883
1.6203805208206177,4.105284214019775,-0.07038643956184387
1.65379798412323,4.108795166015625,-0.06988164037466049
1.6817240715026855,4.097456932067871,-0.06911895424127579
1.6985859870910645,4.0566558837890625,-0.06784456968307495
1.963992714881897,4.6017374992370605,-0.0762932226061821
2.019650936126709,4.6458210945129395,-0.07632928341627121
2.055466413497925,4.642919063568115,-0.07558581978082657
2.079530715942383,4.610791206359863,-0.0743478387594223
2.116983652114868,4.606630325317383,-0.0735500380396843
2.1477019786834717,4.592404842376709,-0.07255210727453232
2.178291082382202,4.577990531921387,-0.07155520468950272
2.212876796722412,4.570069789886475,-0.07064439356327057
2.244528293609619,4.554624557495117,-0.06960609555244446
2.2755141258239746,4.539239406585693,-0.06853578239679337
2.3020029067993164,4.51711368560791,-0.06737488508224487
2.33969783782959,4.515324592590332,-0.06650184839963913
2.3710567951202393,4.498952388763428,-0.06539046764373779
1.7372792959213257,3.2434239387512207,-0.04649535194039345
1.7549352645874023,3.2250256538391113,-0.04558040201663971
1.7374237775802612,3.1410863399505615,-0.04372945427894592
1.7668765783309937,3.1425621509552,-0.04307637736201286
1.8282625675201416,3.2020692825317383,-0.04318863898515701
1.341862440109253,2.314793109893799,-0.030708247795701027
0.9573339819908142,1.6256599426269531,-0.021187325939536095
0.958634078502655,1.6021828651428223,-0.020492106676101685
0.9710919857025146,1.5992403030395508,-0.02006473019719124
0.9816592335700989,1.592781662940979,-0.01958741433918476
0.9906322956085205,1.5826162099838257,-0.019046548753976822
1.0030831098556519,1.5793893337249756,-0.018590332940220833
1.0218913555145264,1.585910677909851,-0.018237922340631485
1.0243010520935059,1.5657238960266113,-0.017555488273501396
1.0389927625656128,1.5654042959213257,-0.01709400676190853
1.0490081310272217,1.5587161779403687,-0.016560148447752
1.0596545934677124,1.551504135131836,-0.01599012315273285
2.560353994369507,3.6956851482391357,-0.036861781030893326
2.597130060195923,3.698622226715088,-0.03566804155707359
2.6182072162628174,3.6741576194763184,-0.03408699482679367
2.618528366088867,3.6258678436279297,-0.03231893852353096
2.6375744342803955,3.602372407913208,-0.030727244913578033
2.7009615898132324,3.638153314590454,-0.029531793668866158
2.6263794898986816,3.6779799461364746,0.027539599686861038
2.598109006881714,3.6979928016662598,0.029037144035100937
2.5833003520965576,3.732119560241699,0.030526872724294662
1.0618427991867065,1.5594940185546875,0.01325224433094263
1.0461480617523193,1.5606647729873657,0.013727792538702488
1.0305532217025757,1.561650037765503,0.014175931923091412
1.0184284448623657,1.5695793628692627,0.014684733003377914
1.0198765993118286,1.5965166091918945,0.015340946614742279
1.0000104904174805,1.590604305267334,0.0156736858189106
0.9880156517028809,1.5980781316757202,0.016132645308971405
0.9766172766685486,1.6050647497177124,0.016566814854741096
0.9609935283660889,1.6053649187088013,0.016927232965826988
0.988620400428772,1.6798083782196045,0.018070917576551437
1.3775309324264526,2.3799638748168945,0.026094792410731316
1.8017127513885498,3.1633424758911133,0.03530685231089592
1.7498865127563477,3.1253137588500977,0.03547223284840584
1.7470216751098633,3.176034688949585,0.03665049374103546
1.7599607706069946,3.2535064220428467,0.03811836615204811
1.7370829582214355,3.265770196914673,0.038823388516902924
2.362442970275879,4.521264553070068,0.05448407679796219
2.329193353652954,4.538471698760986,0.055426228791475296
2.2898671627044678,4.540937423706055,0.05616529658436775
2.2541959285736084,4.550022602081299,0.056964095681905746
2.2276158332824707,4.5804643630981445,0.05801185593008995
2.1973791122436523,4.603693008422852,0.058973778039216995
2.161990165710449,4.611780643463135,0.05971132218837738
2.129624366760254,4.626805305480957,0.06052900850772858
2.098517656326294,4.649558067321777,0.06141437962651253
2.0614778995513916,4.657546520233154,0.06209768354892731
2.0225412845611572,4.657547950744629,0.06265431642532349
1.749771237373352,4.107313632965088,0.05573872849345207
1.7081106901168823,4.090962886810303,0.05597307160496712
1.6779875755310059,4.103402137756348,0.05660507082939148
1.6486953496932983,4.115250110626221,0.057217810302972794
1.6228346824645996,4.133901596069336,0.05791867896914482
1.590762972831726,4.137972354888916,0.05840042978525162
1.560883641242981,4.149327278137207,0.05896110087633133
1.5357301235198975,4.175345420837402,0.059742532670497894
1.5091302394866943,4.193328857421875,0.060394223779439926
1.472151756286621,4.181608200073242,0.06061732769012451
1.447460651397705,4.206737995147705,0.06133723631501198
1.4222227334976196,4.231815814971924,0.06204971298575401
1.3937914371490479,4.249478816986084,0.06266392767429352
1.361798644065857,4.2516303062438965,0.0630367249250412
1.339167594909668,4.283365726470947,0.06385240703821182
1.3085466623306274,4.292812347412109,0.0642910748720169
1.280034065246582,4.309544086456299,0.06483951956033707
1.251501202583313,4.326042175292969,0.06538733094930649
1.2229506969451904,4.34230899810791,0.06593450903892517
1.19790518283844,4.369532108306885,0.06664745509624481
1.1647435426712036,4.37039852142334,0.06691508740186691
1.1335763931274414,4.378580093383789,0.06729687005281448
1.1043745279312134,4.39408540725708,0.06779409945011139
1.0750887393951416,4.409377574920654,0.06829167902469635
1.046159267425537,4.424352169036865,0.06878425925970078
1.0148075819015503,4.431643009185791,0.06910455971956253
0.9849900007247925,4.446362495422363,0.06953836232423782
0.9534198045730591,4.45323371887207,0.06985301524400711
0.8079959750175476,3.9090816974639893,0.061501674354076385
0.7532779574394226,3.776711940765381,0.05959619581699371
0.7295988202095032,3.7972640991210938,0.06007448583841324
0.8333417177200317,4.509018898010254,0.07150674611330032
0.8055365681648254,4.537867546081543,0.07214047014713287
0.7778074145317078,4.5704345703125,0.07284006476402283
0.7484996318817139,4.591151237487793,0.07335200905799866
0.717522144317627,4.603996753692627,0.07371331006288528
0.6850411295890808,4.608938217163086,0.07390818744897842
0.6547139286994934,4.629120349884033,0.07435153424739838
0.6237406730651855,4.649155139923096,0.07479855418205261
0.5929048657417297,4.664997100830078,0.07517916709184647
0.5614052414894104,4.676756858825684,0.07549666613340378
0.5294601917266846,4.688340663909912,0.07575847953557968
0.4982024133205414,4.707473278045654,0.07614639401435852
0.46593451499938965,4.718623638153076,0.07640933990478516
0.43321868777275085,4.729581356048584,0.07667404413223267
0.4022759199142456,4.75583028793335,0.07718943059444427
0.36960503458976746,4.7663140296936035,0.07741519808769226
0.3367595970630646,4.776576995849609,0.07761383801698685
0.3050253987312317,4.806102752685547,0.07812954485416412
0.27133092284202576,4.815945148468018,0.07832995057106018
0.23897777497768402,4.841121196746826,0.07878303527832031
0.20599162578582764,4.858272552490234,0.07910504937171936
0.17289714515209198,4.883011817932129,0.07951110601425171
0.13918153941631317,4.895811080932617,0.07972661405801773
0.10454998910427094,4.90448522567749,0.07987913489341736
0.07056015729904175,4.912903785705566,0.08003118634223938
0.03664204478263855,4.952332019805908,0.08069244772195816
0.002161493757739663,4.9602789878845215,0.08080369979143143
-0.03238234296441078,4.967986106872559,0.08088500052690506
-0.06781640648841858,4.987159729003906,0.08115597814321518
-0.10254266858100891,4.986567497253418,0.08110976964235306
-0.13769392669200897,5.001350402832031,0.0813174918293953
-0.17354066669940948,5.031500339508057,0.08177515119314194
-0.20814526081085205,5.0223708152771,0.08153314888477325
-0.24451971054077148,5.052016735076904,0.08192412555217743
-0.2834165394306183,5.1086626052856445,0.08275394141674042
-0.3152264356613159,5.048101425170898,0.08169054985046387
-0.2978353202342987,4.289895534515381,0.06935412436723709
-0.3239876925945282,4.240997314453125,0.06847403943538666
-0.3558422923088074,4.269801616668701,0.06882849335670471
-0.3844638466835022,4.251635551452637,0.06842663884162903
-0.4097113311290741,4.206114292144775,0.06759104877710342
-0.4348723888397217,4.1643218994140625,0.0668201670050621
-0.4564366042613983,4.095213413238525,0.06561508774757385
-0.48093944787979126,4.060948848724365,0.06491823494434357
-0.5050014853477478,4.022604942321777,0.0641590803861618
-0.5265200734138489,3.9725735187530518,0.06322205066680908
-0.5492171049118042,3.9340126514434814,0.06247228384017944
-0.5697773694992065,3.883725643157959,0.061541736125946045
-0.5894487500190735,3.833378791809082,0.060598451644182205
-0.6106387376785278,3.794463872909546,0.059825409203767776
-0.6315041184425354,3.7593700885772705,0.05912089720368385
-0.6513823866844177,3.7202987670898438,0.05835842713713646
-0.6715895533561707,3.684950590133667,0.05765895918011665
-0.6927268505096436,3.6571905612945557,0.057074327021837234
-0.7109500169754028,3.617877721786499,0.056268706917762756
-0.7329621911048889,3.597543716430664,0.05576050281524658
-0.7446925044059753,3.53129506111145,0.05455006659030914
-0.7601278424263,3.4840469360351562,0.05363793671131134
-0.7878282070159912,3.4939091205596924,0.053609058260917664
-0.7993423938751221,3.435178279876709,0.05250126123428345
-0.8213807940483093,3.4219470024108887,0.05208493024110794
-0.834435760974884,3.3745498657226562,0.05115765705704689
-0.8520010113716125,3.345984697341919,0.05051952973008156
-0.8732311129570007,3.3324365615844727,0.050111886113882065
-0.8899145722389221,3.303760528564453,0.04946103319525719
-0.905409574508667,3.2711923122406006,0.048739999532699585
-0.9233284592628479,3.249945878982544,0.04819674789905548
-0.9369410276412964,3.213517427444458,0.04743052273988724
-0.9547414779663086,3.191974639892578,0.04688771069049835
-0.9639800786972046,3.1442904472351074,0.0459534116089344
-0.9809038043022156,3.122684955596924,0.04538577422499657
-1.0019587278366089,3.1159980297088623,0.04504299536347389
-1.018484115600586,3.0941967964172363,0.044480323791503906
-1.0350215435028076,3.0722274780273438,0.043916668742895126
-1.0522656440734863,3.0539779663085938,0.04339837282896042
-1.065078616142273,3.0247037410736084,0.042713556438684464
-1.0726292133331299,2.9805610179901123,0.04182106629014015
-1.0877354145050049,2.9584457874298096,0.04124395549297333
-1.1068795919418335,2.947169780731201,0.04081932455301285
-1.1241405010223389,2.932269811630249,0.040332719683647156
-1.1153385639190674,2.8519132137298584,0.03894580528140068
-1.1463738679885864,2.873255968093872,0.038948699831962585
-1.1441864967346191,2.8109750747680664,0.0378180555999279
-1.1607282161712646,2.79573392868042,0.03732737526297569
-1.1475770473480225,2.712313175201416,0.03591827303171158
-1.147164225578308,2.6615281105041504,0.03495374694466591
-1.1513421535491943,2.6213786602020264,0.03413041681051254
-1.1902636289596558,2.6596717834472656,0.03432608023285866
-1.2052081823349,2.6443560123443604,0.03381979838013649
-1.2047091722488403,2.5973012447357178,0.032899919897317886
-1.2336257696151733,2.6139636039733887,0.032790713012218475
-1.2756171226501465,2.6545395851135254,0.03295605257153511
-1.283752202987671,2.624555826187134,0.03224622830748558
-1.2906975746154785,2.595004081726074,0.03153545781970024
-1.2778911590576172,2.527147054672241,0.030370905995368958
-1.2879010438919067,2.504509925842285,0.029751986265182495
-1.2944109439849854,2.474738597869873,0.029047004878520966
-1.3074756860733032,2.459022283554077,0.02849728986620903
-1.3217649459838867,2.4469377994537354,0.02799612656235695
-1.330786943435669,2.4242398738861084,0.027366671711206436
-1.3400133848190308,2.4012808799743652,0.02672952227294445
-1.348203182220459,2.3787548542022705,0.02608882077038288
-1.379623293876648,2.3968002796173096,0.025881800800561905
-1.37226140499115,2.3468871116638184,0.024935683235526085
-1.4044060707092285,2.3642194271087646,0.02469959855079651
-1.4237715005874634,2.3617401123046875,0.02424650825560093
-1.414640188217163,2.3124513626098633,0.0233195498585701
-1.42681884765625,2.295769691467285,0.022694658488035202
-1.4421005249023438,2.2862064838409424,0.022148828953504562
-1.4504989385604858,2.2669930458068848,0.021510589867830276
-1.4615403413772583,2.2505862712860107,0.020881278440356255
-1.4682468175888062,2.2275326251983643,0.020181434229016304
-1.4870578050613403,2.2244274616241455,0.01965414732694626
-1.4887090921401978,2.195066452026367,0.018886327743530273
-1.4770807027816772,2.146247148513794,0.017942223697900772
-1.4839415550231934,2.127242088317871,0.01725565642118454
-1.4891098737716675,2.104520797729492,0.016515884548425674
-1.498715877532959,2.0880870819091797,0.015801183879375458
-1.5071053504943848,2.072392702102661,0.015108217485249043
-1.5167558193206787,2.0556445121765137,0.014349017292261124
-1.5023881196975708,2.1047046184539795,-0.010997206903994083
-1.5160753726959229,2.1572341918945312,-0.011854756623506546
-1.5092213153839111,2.1810595989227295,-0.012536255642771721
-1.4924640655517578,2.192556858062744,-0.013145348988473415
-1.4815069437026978,2.2093844413757324,-0.01373935118317604
-1.4843003749847412,2.2497448921203613,-0.014477046206593513
-1.456665277481079,2.2444841861724854,-0.01491893082857132
-1.4494529962539673,2.2677109241485596,-0.015512843616306782
-1.4428560733795166,2.295013904571533,-0.016137409955263138
-1.4300380945205688,2.3122098445892334,-0.01668814942240715
-1.417993187904358,2.3287642002105713,-0.01721379905939102
-1.4125326871871948,2.3594348430633545,-0.017847184091806412
-1.4068570137023926,2.3900561332702637,-0.018478557467460632
-1.390140175819397,2.3998138904571533,-0.018928920850157738
-1.3612172603607178,2.389397382736206,-0.019209017977118492
-1.3511147499084473,2.413043975830078,-0.01975417323410511
-1.3334999084472656,2.422818899154663,-0.02018299326300621
-1.3258943557739258,2.4492180347442627,-0.02073831856250763
-1.3152406215667725,2.472663640975952,-0.02125651389360428
-1.3042621612548828,2.4961109161376953,-0.021779077127575874
-1.2903467416763306,2.512115240097046,-0.02222476713359356
-1.3093345165252686,2.5944924354553223,-0.02326839044690132
-1.2869229316711426,2.5969624519348145,-0.023583119735121727
-1.2782158851623535,2.6273436546325684,-0.024154145270586014
-1.2464423179626465,2.6079697608947754,-0.024254783987998962
-1.2247945070266724,2.6095752716064453,-0.02454526536166668
-1.2123510837554932,2.6325879096984863,-0.02502802200615406
-1.1992818117141724,2.655716896057129,-0.025521041825413704
-1.160146951675415,2.6175928115844727,-0.025408318266272545
-1.1777578592300415,2.707974910736084,-0.0265458095818758
-1.1627788543701172,2.7271809577941895,-0.02698255144059658
-1.161116600036621,2.778756618499756,-0.027746150270104408
-1.149976134300232,2.8087234497070312,-0.028300240635871887
-1.1361701488494873,2.8311758041381836,-0.028775593265891075
-1.1201881170272827,2.850128173828125,-0.02920064888894558
-1.1079875230789185,2.8800156116485596,-0.029733899980783463
-1.1106929779052734,2.9500324726104736,-0.030688082799315453
-1.092460036277771,2.9651565551757812,-0.031075380742549896
-1.0795937776565552,2.9947867393493652,-0.031608205288648605
-1.063275694847107,3.0171871185302734,-0.03204391524195671
-1.0492100715637207,3.0469019412994385,-0.03256162628531456
-1.036449909210205,3.0801258087158203,-0.033117685467004776
-1.0219509601593018,3.109642744064331,-0.03363962844014168
-0.9975764155387878,3.1093413829803467,-0.03382296487689018
-0.9800212383270264,3.131291627883911,-0.0342378094792366
-0.9644564986228943,3.1606290340423584,-0.0347374863922596
-0.5959666967391968,2.0029430389404297,-0.022124871611595154
-0.5885554552078247,2.0295448303222656,-0.02253168821334839
-0.5612198710441589,1.9886113405227661,-0.02217923477292061
-0.553253710269928,2.0151546001434326,-0.022573955357074738
-0.5429409742355347,2.0341312885284424,-0.022886786609888077
-0.5189727544784546,2.0000476837158203,-0.022600442171096802
-0.5165271759033203,2.0490527153015137,-0.02325434982776642
-0.4962120056152344,2.029947280883789,-0.023122567683458328
-0.48181918263435364,2.03341007232666,-0.023242952302098274
-0.7889050841331482,3.437764883041382,-0.03943382576107979
-0.7717055082321167,3.4736809730529785,-0.039984844624996185
-0.7557154297828674,3.5171542167663574,-0.0406273677945137
-0.7423043847084045,3.579864263534546,-0.04147327318787575
-0.7215402722358704,3.60800838470459,-0.04191442206501961
-0.7011205554008484,3.639878034591675,-0.042402707040309906
-0.6814939379692078,3.675386905670166,-0.042935069650411606
-0.6641823053359985,3.726172685623169,-0.0436503142118454
-0.6434946656227112,3.765467643737793,-0.044212304055690765
-0.620721161365509,3.793036699295044,-0.044626861810684204
-0.600644052028656,3.8397605419158936,-0.045270469039678574
-0.5795760154724121,3.8824925422668457,-0.045870501548051834
-0.5596970915794373,3.9367010593414307,-0.04661019518971443
-0.5369042158126831,3.979290008544922,-0.04719889163970947
-0.5128697156906128,4.0139617919921875,-0.04767530784010887
-0.488841712474823,4.0523681640625,-0.04819953814148903
-0.46753451228141785,4.117784023284912,-0.04904868081212044
-0.4426333010196686,4.155888080596924,-0.04957609996199608
-0.4198435842990875,4.221059799194336,-0.05042218789458275
-0.391513854265213,4.243393421173096,-0.05072928965091705
-0.362448126077652,4.253814697265625,-0.05089600756764412
-0.33055585622787476,4.2289862632751465,-0.0506432019174099
-0.3041764795780182,4.2740397453308105,-0.051229655742645264
-0.32451483607292175,5.055638790130615,-0.06065639108419418
-0.28882896900177,5.0617146492004395,-0.060746870934963226
-0.25206151604652405,5.03630256652832,-0.06045698747038841
-0.21621452271938324,5.022329807281494,-0.06030721589922905
-0.18095038831233978,5.01590633392334,-0.06025088205933571
-0.1453784555196762,4.993618011474609,-0.060006722807884216
-0.1096138134598732,4.978903293609619,-0.05982190743088722
-0.07474945485591888,4.967829704284668,-0.05965607985854149
-0.04020249843597412,4.976041793823242,-0.059724774211645126
-0.005492603871971369,4.9371418952941895,-0.05923106521368027
0.028810052201151848,4.929248809814453,-0.05911250784993172
0.0633964091539383,4.905488014221191,-0.05879957228899002
0.09719079732894897,4.889308452606201,-0.058552779257297516
0.13065852224826813,4.868992805480957,-0.05825965479016304
0.1639803647994995,4.852351665496826,-0.0580136738717556
0.1970318853855133,4.835486888885498,-0.05776815116405487
0.22948485612869263,4.810593605041504,-0.057429857552051544
0.2633191645145416,4.808861255645752,-0.057328470051288605
0.2956145703792572,4.791331768035889,-0.057032909244298935
0.3274126648902893,4.769690036773682,-0.056691743433475494
0.35994210839271545,4.759511947631836,-0.05648971349000931
0.39050471782684326,4.725749969482422,-0.05601092427968979
0.4238404333591461,4.7228779792785645,-0.05588502064347267
0.45500707626342773,4.704282283782959,-0.05555848404765129
0.48750483989715576,4.7010273933410645,-0.055416278541088104
0.517487645149231,4.674245357513428,-0.05499960109591484
0.5495361685752869,4.666654109954834,-0.05481158569455147
0.5824720859527588,4.662659645080566,-0.05466093495488167
0.6104543209075928,4.627564430236816,-0.0541028268635273
0.6412485837936401,4.615512847900391,-0.05381773039698601
0.6719058156013489,4.603257656097412,-0.05353328958153725
0.7003978490829468,4.575303077697754,-0.05306829512119293
0.7315081357955933,4.562523365020752,-0.05278066545724869
0.7616526484489441,4.549670219421387,-0.05246893689036369
0.7909120321273804,4.532782554626465,-0.05210747569799423
0.8206321001052856,4.519559860229492,-0.05179152265191078
0.7157824039459229,3.7921700477600098,-0.04331878572702408
0.7405856847763062,3.7794463634490967,-0.043038345873355865
0.7865332961082458,3.8698534965515137,-0.043909117579460144
0.9311731457710266,4.426273822784424,-0.05002975836396217
0.964767575263977,4.4350666999816895,-0.04993754252791405
0.9954169988632202,4.428291320800781,-0.04966973885893822
1.0297489166259766,4.436478137969971,-0.04957026615738869
1.0554227828979492,4.40634822845459,-0.049031563103199005
1.0836228132247925,4.391455173492432,-0.04865395277738571
1.1087839603424072,4.365025997161865,-0.04815206676721573
1.1408151388168335,4.364842414855957,-0.04794065281748772
1.1691464185714722,4.3492536544799805,-0.04756021127104759
1.197628140449524,4.333395957946777,-0.04716205596923828
1.2228481769561768,4.310111999511719,-0.04666208103299141
1.256540060043335,4.3166890144348145,-0.046487562358379364
1.2817351818084717,4.292975902557373,-0.04598654434084892
1.3092436790466309,4.276500701904297,-0.045564115047454834
1.3368284702301025,4.259775161743164,-0.045127708464860916
1.363290548324585,4.2431793212890625,-0.04468141496181488
1.3944337368011475,4.241274833679199,-0.044392213225364685
1.4161102771759033,4.209371089935303,-0.043787721544504166
1.441542148590088,4.188343048095703,-0.0432976558804512
1.4715690612792969,4.182032585144043,-0.042951785027980804
1.5002578496932983,4.171830654144287,-0.04255208745598793
1.528436541557312,4.161592960357666,-0.04215852543711662
1.555780291557312,4.147280693054199,-0.041719675064086914
1.581769585609436,4.129077434539795,-0.04124274104833603
1.6097582578659058,4.118250846862793,-0.040822602808475494
1.6407841444015503,4.114404201507568,-0.04046141356229782
1.668534517288208,4.103233337402344,-0.04003357142210007
1.6940191984176636,4.084325790405273,-0.03952346369624138
1.7328763008117676,4.0976996421813965,-0.03932303562760353
2.0013532638549805,4.645643711090088,-0.04419129341840744
2.0439159870147705,4.656956195831299,-0.04390102997422218
2.0821890830993652,4.657095432281494,-0.04350101202726364
2.108029842376709,4.628297328948975,-0.04282747209072113
2.132610559463501,4.599811553955078,-0.04213947802782059
2.169922351837158,4.599615097045898,-0.04170411080121994
2.194666624069214,4.5705389976501465,-0.04099656641483307
2.2298009395599365,4.562203407287598,-0.040472064167261124
2.260721206665039,4.546966552734375,-0.03988688439130783
2.287283420562744,4.5249152183532715,-0.0392427071928978
2.3209500312805176,4.5165300369262695,-0.03871641308069229
2.3631534576416016,4.521059513092041,-0.038279931992292404
1.7362715005874634,3.2663180828094482,-0.02729707956314087
1.7485028505325317,3.2376108169555664,-0.026695020496845245
1.734315276145935,3.1608376502990723,-0.02570386789739132
1.7410050630569458,3.1214282512664795,-0.02501281537115574
1.787030816078186,3.15381121635437,-0.024892207235097885
1.3384813070297241,2.3259012699127197,-0.0180676132440567
1.3264538049697876,2.269662618637085,-0.01734466664493084
0.9552972912788391,1.6088048219680786,-0.01208304613828659
0.9658657312393188,1.6024842262268066,-0.011819488368928432
0.9742427468299866,1.5928298234939575,-0.011531478725373745
0.987429141998291,1.5892918109893799,-0.011271977797150612
0.9981480240821838,1.5825837850570679,-0.010991433635354042
1.0167649984359741,1.5892701148986816,-0.010802420787513256
1.0189051628112793,1.56930410861969,-0.0104233268648386
1.0339502096176147,1.568799614906311,-0.010166929103434086
1.0441391468048096,1.5620386600494385,-0.009868205524981022
1.0500999689102173,1.5486094951629639,-0.00952379684895277
2.573042869567871,3.7392563819885254,-0.022334737703204155
2.576544761657715,3.6940667629241943,-0.02140619046986103
2.616942882537842,3.699108839035034,-0.02073422074317932
2.6213183403015137,3.6528289318084717,-0.01973767951130867
2.6302483081817627,3.6174702644348145,-0.01882532611489296
2.68306827545166,3.6368911266326904,-0.018113551661372185
2.612543821334839,3.687901258468628,0.012643697671592236
2.5858242511749268,3.7066829204559326,0.013350329361855984
1.0680571794509888,1.5552901029586792,0.0058538722805678844
1.0516533851623535,1.5570088624954224,0.006107992958277464
1.0407673120498657,1.5643054246902466,0.006359666120260954
1.0289281606674194,1.5721169710159302,0.0066069504246115685
1.0257264375686646,1.5928235054016113,0.006904180161654949
1.0062274932861328,1.5867403745651245,0.007073657587170601
0.9899008870124817,1.587776780128479,0.0072727203369140625
0.9781750440597534,1.5950263738632202,0.007492257747799158
0.9670702219009399,1.6017826795578003,0.007699255365878344
0.9592380523681641,1.6155766248703003,0.007934528402984142
1.3370912075042725,2.2906293869018555,0.011486189439892769
1.8362853527069092,3.1977250576019287,0.016347458586096764
1.786470651626587,3.1631596088409424,0.016468407586216927
1.7497429847717285,3.152384042739868,0.01670217700302601
1.7700239419937134,3.243770122528076,0.017475256696343422
1.7492284774780273,3.259463310241699,0.01783926598727703
2.386281967163086,4.526658058166504,0.025147899985313416
2.345738649368286,4.530209541320801,0.025528058409690857
2.310042142868042,4.539749622344971,0.025928428396582603
2.274928092956543,4.548710346221924,0.02631928212940693
2.238294839859009,4.5581440925598145,0.026698259636759758
2.200984477996826,4.567603588104248,0.02708238549530506
2.182033061981201,4.61128044128418,0.027656128630042076
2.1433284282684326,4.612171173095703,0.027970725670456886
2.109882116317749,4.627564430236816,0.02834995649755001
2.0761489868164062,4.642794132232666,0.028726380318403244
2.0525014400482178,4.678898811340332,0.029228204861283302
1.9715023040771484,4.582062244415283,0.028894241899251938
1.726222276687622,4.092135429382324,0.026024622842669487
1.6936099529266357,4.097285270690918,0.026266373693943024
1.6670080423355103,4.116608619689941,0.026599427685141563
1.6383174657821655,4.128109455108643,0.026876723393797874
1.606005311012268,4.132404327392578,0.027109965682029724
1.5719847679138184,4.132928371429443,0.02730744518339634
1.5462486743927002,4.155129909515381,0.027649356052279472
1.5155450105667114,4.162268161773682,0.02788877859711647
1.4905062913894653,4.183740615844727,0.02822303958237171
1.457768201828003,4.186986446380615,0.028420407325029373
1.4352459907531738,4.219521999359131,0.028801241889595985
1.407406210899353,4.237120628356934,0.029082724824547768
1.3778414726257324,4.246825218200684,0.029307179152965546
1.3553595542907715,4.278643608093262,0.029686104506254196
1.3221046924591064,4.280858516693115,0.02984926849603653
1.2937389612197876,4.29767370223999,0.0301093440502882
1.2674741744995117,4.321776866912842,0.030422408133745193
1.2330269813537598,4.315481662750244,0.030519824475049973
1.2071046829223633,4.339023113250732,0.030829740688204765
1.1782453060150146,4.355041027069092,0.031053859740495682
1.1495789289474487,4.37481164932251,0.03130384534597397
1.1184163093566895,4.382880687713623,0.03146985173225403
1.0897406339645386,4.398146152496338,0.03168695792555809
1.0591198205947876,4.405618667602539,0.03184949979186058
1.0332030057907104,4.435835361480713,0.03216312825679779
0.9977015256881714,4.427938938140869,0.03220093250274658
0.9662162661552429,4.434915065765381,0.03234665095806122
0.9353684186935425,4.441521644592285,0.03248920291662216
0.767480731010437,3.7742202281951904,0.0276892501860857
0.7408882975578308,3.7795298099517822,0.027794932946562767
0.7274597883224487,3.857687473297119,0.028433039784431458
0.819274365901947,4.519979476928711,0.03338899835944176
0.7937173843383789,4.560224533081055,0.033761970698833466
0.7606923580169678,4.557928562164307,0.033821772783994675
0.7337093353271484,4.593996524810791,0.034155383706092834
0.7019332051277161,4.606861114501953,0.03430401161313057
0.6716945767402649,4.627155303955078,0.03450905159115791
0.6403105854988098,4.639488697052002,0.034656405448913574
0.6100620627403259,4.65932035446167,0.03486129641532898
0.5780419111251831,4.667336463928223,0.03497606888413429
0.5452434420585632,4.671280860900879,0.03503698483109474
0.5134997367858887,4.690594673156738,0.03521566092967987
0.4821752607822418,4.709624290466309,0.03539351001381874
0.4509219229221344,4.728414535522461,0.03557118773460388
0.4180107116699219,4.7314372062683105,0.03563213348388672
0.38748595118522644,4.765387058258057,0.03591073304414749
0.35411936044692993,4.775816440582275,0.036008331924676895
0.32147783041000366,4.78986930847168,0.03613477572798729
0.28851398825645447,4.799793720245361,0.0362318754196167
0.25515010952949524,4.801682949066162,0.03627001494169235
0.2234913855791092,4.8423638343811035,0.036590270698070526
0.1899738311767578,4.867249011993408,0.03676297515630722
0.1565963178873062,4.8879780769348145,0.03690623492002487
0.12239829450845718,4.885046482086182,0.03687262162566185
0.08876615017652512,4.905307769775391,0.037015851587057114
0.054901521652936935,4.92924165725708,0.03718851879239082
0.020041268318891525,4.945131301879883,0.03727840632200241
-0.01445122342556715,4.968587875366211,0.037423018366098404
-0.049153655767440796,4.9800848960876465,0.03747913986444473
-0.08395110815763474,4.987433433532715,0.03750574216246605
-0.11899127066135406,5.002350330352783,0.037590980529785156
-0.15397317707538605,5.009211540222168,0.03760561719536781
-0.18957743048667908,5.015809059143066,0.03759801387786865
-0.22505663335323334,5.029983043670654,0.03764970228075981
-0.2607896029949188,5.043903350830078,0.03770089149475098
-0.2979190945625305,5.077062606811523,0.03789712116122246
-0.2832717299461365,4.314810752868652,0.03216508775949478
-0.3096924126148224,4.258166790008545,0.0316782183945179
-0.3385152816772461,4.248136043548584,0.03153861314058304
-0.3698713779449463,4.269046783447266,0.031630080193281174
-0.3958682715892792,4.227484703063965,0.03126007318496704
-0.42095431685447693,4.181878566741943,0.030862774699926376
-0.44411730766296387,4.120555400848389,0.030345462262630463
-0.46896132826805115,4.086349964141846,0.030023979023098946
-0.4924106299877167,4.044244289398193,0.02964705601334572
-0.51288241147995,3.982630729675293,0.029129961505532265
-0.5373688340187073,3.9557504653930664,0.02886938489973545
-0.5570405721664429,3.8938493728637695,0.028354352340102196
-0.5779871940612793,3.851301431655884,0.02796064130961895
-0.5989818572998047,3.8125102519989014,0.027597110718488693
-0.622634768486023,3.792886972427368,0.02737470343708992
-0.6377533078193665,3.723020076751709,0.026791822165250778
-0.6622599959373474,3.710803985595703,0.026626549661159515
-0.6797252893447876,3.659980535507202,0.026171423494815826
-0.7033036351203918,3.6475677490234375,0.02598750591278076
-0.7229148745536804,3.6158528327941895,0.025668177753686905
-0.7383606433868408,3.564875841140747,0.025214459747076035
-0.7524793744087219,3.5100059509277344,0.024736272171139717
-0.7754032015800476,3.4970123767852783,0.02454979531466961
-0.7957765460014343,3.4764065742492676,0.024304432794451714
-0.8077957630157471,3.4214789867401123,0.02382224053144455
-0.827567458152771,3.400672674179077,0.023579945787787437
-0.8473349213600159,3.3796963691711426,0.02333744615316391
-0.8652551770210266,3.3509535789489746,0.02303948439657688
-0.8769831657409668,3.3034677505493164,0.022602207958698273
-0.8932168483734131,3.274829626083374,0.022297220304608345
-0.9155669212341309,3.2686524391174316,0.02214624546468258
-0.9274791479110718,3.224667549133301,0.021739467978477478
-0.945843517780304,3.2030415534973145,0.021484166383743286
-0.9641542434692383,3.1853370666503906,0.021249299868941307
-0.9741966724395752,3.141407012939453,0.020842082798480988
-0.9908347725868225,3.119810104370117,0.020585613325238228
-1.0052335262298584,3.0905652046203613,0.02027873694896698
-1.027032732963562,3.083390951156616,0.0201160479336977
-1.0440362691879272,3.0652992725372314,0.019867639988660812
-1.056964635848999,3.0360605716705322,0.01954946294426918
-1.0671032667160034,2.9993650913238525,0.019185246899724007
-1.0826016664505005,2.977186679840088,0.018913714215159416
-1.097747564315796,2.95497465133667,0.018643276765942574
-1.1137950420379639,2.936434745788574,0.018390599638223648
-1.1081624031066895,2.8632984161376953,0.017802564427256584
-1.121953010559082,2.8411319255828857,0.017534034326672554
-1.1372483968734741,2.8224151134490967,0.017286796122789383
-1.1505752801895142,2.800124406814575,0.01701398752629757
-1.1635757684707642,2.777815818786621,0.016733409836888313
-1.1622052192687988,2.72326397895813,0.01626499928534031
-1.152928352355957,2.6507022380828857,0.015691207721829414
-1.16817307472229,2.635477304458618,0.015460277907550335
-1.1745840311050415,2.6026573181152344,0.015123073942959309
-1.2297292947769165,2.676265001296997,0.015398448333144188
-1.2246522903442383,2.618342638015747,0.014916236512362957
-1.2394804954528809,2.6027064323425293,0.014674757607281208
-1.2843939065933228,2.650467872619629,0.014786286279559135
-1.2881393432617188,2.613856792449951,0.014423621818423271
-1.2760876417160034,2.5456931591033936,0.013889303430914879
-1.2830994129180908,2.515886068344116,0.013566124252974987
-1.296695351600647,2.5001094341278076,0.013321071863174438
-1.3058855533599854,2.4776740074157715,0.013042580336332321
-1.3185244798660278,2.462113618850708,0.012802180834114552
-1.3299918174743652,2.4426043033599854,0.012534674257040024
-1.3356010913848877,2.4127888679504395,0.012211439199745655
-1.3514052629470825,2.4039735794067383,0.011993654072284698
-1.3749895095825195,2.408572196960449,0.011841308325529099
-1.3721290826797485,2.3651506900787354,0.011445349082350731
-1.3999416828155518,2.376039743423462,0.011319984681904316
-1.4076769351959229,2.3532776832580566,0.011037173680961132
-1.4072285890579224,2.31706166267395,0.010692868381738663
-1.4130306243896484,2.29061222076416,0.010391519404947758
-1.4299187660217285,2.2847182750701904,0.010175326839089394
-1.4446479082107544,2.275434732437134,0.009943452663719654
-1.45018470287323,2.2487058639526367,0.009618344716727734
-1.4608020782470703,2.2324936389923096,0.009343801066279411
-1.4837818145751953,2.2360639572143555,0.009151224046945572
-1.4597623348236084,2.167546272277832,0.008655618876218796
-1.469660997390747,2.151393413543701,0.008373399265110493
-1.476812720298767,2.1322519779205322,0.00807785615324974
-1.4913914203643799,2.1220815181732178,0.007803411688655615
-1.4960435628890991,2.099648952484131,0.007486862596124411
-1.5002278089523315,2.0774192810058594,0.007172456476837397
-1.5098918676376343,2.06072998046875,0.006857138592749834
-1.517944097518921,2.0450856685638428,0.0065433369018137455
-1.5152201652526855,2.1387453079223633,-0.0029735451098531485
-1.4859364032745361,2.130681037902832,-0.0031485033687204123
-1.5052613019943237,2.193309783935547,-0.003426919924095273
-1.4938973188400269,2.210500955581665,-0.0036281701177358627
-1.485648512840271,2.234840154647827,-0.003828343003988266
-1.4693955183029175,2.245558977127075,-0.003998580388724804
-1.459694743156433,2.265829563140869,-0.004179301671683788
-1.4425638914108276,2.2767739295959473,-0.0043401881121098995
-1.430057406425476,2.2938616275787354,-0.0045087626203894615
-1.4301562309265137,2.3305444717407227,-0.004710203502327204
-1.412761926651001,2.3411295413970947,-0.004856144543737173
-1.4037563800811768,2.3647286891937256,-0.005026549566537142
-1.3990944623947144,2.3946738243103027,-0.005207682028412819
-1.3810559511184692,2.4051218032836914,-0.005345054902136326
-1.3516814708709717,2.3948750495910645,-0.005433329846709967
-1.3463836908340454,2.424700975418091,-0.005605894140899181
-1.3290895223617554,2.4342234134674072,-0.005732052028179169
-1.3167052268981934,2.4542510509490967,-0.005882705096155405
-1.3059191703796387,2.4776833057403564,-0.00604285066947341
-1.2993972301483154,2.5075364112854004,-0.006215043365955353
-1.3078429698944092,2.569068670272827,-0.00646305363625288
-1.276738166809082,2.554133653640747,-0.006517341360449791
-1.2911700010299683,2.629810333251953,-0.006802240386605263
-1.275894045829773,2.6459312438964844,-0.006935270968824625
-1.2400814294815063,2.6197500228881836,-0.006945716682821512
-1.2111014127731323,2.607452392578125,-0.006988310720771551
-1.2021743059158325,2.637359619140625,-0.0071429177187383175
-1.1997575759887695,2.681312084197998,-0.007335567846894264
-1.1507912874221802,2.6218326091766357,-0.007241455372422934
-1.170009970664978,2.7199578285217285,-0.007582490798085928
-1.1671373844146729,2.7678840160369873,-0.0077854483388364315
-1.1568248271942139,2.797588586807251,-0.007936819456517696
-1.1621266603469849,2.867173433303833,-0.008201511576771736
-1.1270173788070679,2.8391690254211426,-0.008182213641703129
-1.1259846687316895,2.898327350616455,-0.008415893651545048
-1.1167341470718384,2.9353630542755127,-0.008584793657064438
-1.1003443002700806,2.954054355621338,-0.008700879290699959
-1.084598183631897,2.9765074253082275,-0.00881916843354702
-1.0710535049438477,3.0062997341156006,-0.00895732268691063
-1.054291844367981,3.0287680625915527,-0.00907536968588829
-1.0445356369018555,3.0693061351776123,-0.009246536530554295
-1.0280296802520752,3.0913443565368652,-0.009362399578094482
-1.010709524154663,3.1134819984436035,-0.009473420679569244
-0.9883804321289062,3.1206421852111816,-0.009539616294205189
-0.9774743318557739,3.1649813652038574,-0.00972059927880764
-0.961112380027771,3.190391778945923,-0.009843215346336365
-0.9376665353775024,3.1932897567749023,-0.009893028996884823
-0.9245874285697937,3.2336816787719727,-0.010051028802990913
-0.9036507606506348,3.24770450592041,-0.010127997025847435
-0.8828172087669373,3.261523723602295,-0.010204619728028774
-0.8636502623558044,3.2828104496002197,-0.01030560303479433
-0.8550509810447693,3.345571756362915,-0.010536267422139645
-0.8387492895126343,3.3819010257720947,-0.010683087632060051
-0.8219735026359558,3.418166399002075,-0.01083083264529705
-0.7988253831863403,3.4276609420776367,-0.010894205421209335
-0.7831374406814575,3.47133469581604,-0.011067421175539494
-0.7638533711433411,3.4996213912963867,-0.011187090538442135
-0.7495294809341431,3.554631233215332,-0.011383886449038982
-0.7305699586868286,3.5904719829559326,-0.011520341038703918
-0.7136263251304626,3.6376755237579346,-0.011694072745740414
-0.6922309398651123,3.665661573410034,-0.011807183735072613
-0.6736289262771606,3.7088334560394287,-0.011967730708420277
-0.6501340270042419,3.7288858890533447,-0.012046342715620995
-0.6309306621551514,3.77575421333313,-0.012212387286126614
-0.609283983707428,3.810957431793213,-0.012341577559709549
-0.5875853896141052,3.8499300479888916,-0.012483959086239338
-0.5697672367095947,3.915775775909424,-0.012714230455458164
-0.5459233522415161,3.946776866912842,-0.012818711809813976
-0.5232226252555847,3.989250421524048,-0.012960759922862053
-0.5003941655158997,4.035479545593262,-0.013115747831761837
-0.4787193238735199,4.093172550201416,-0.013308686204254627
-0.4544859230518341,4.139163494110107,-0.013464463874697685
-0.4303649663925171,4.188865661621094,-0.01362641341984272
-0.4058606028556824,4.242326259613037,-0.01379798911511898
-0.3782150447368622,4.2684102058410645,-0.013881162740290165
-0.3471686542034149,4.255370616912842,-0.01383778266608715
-0.317004919052124,4.257723808288574,-0.01384513359516859
-0.2928146421909332,4.341676712036133,-0.01411706954240799
-0.30763331055641174,5.092251777648926,-0.016553416848182678
-0.26884597539901733,5.035771369934082,-0.016366498544812202
-0.23290245234966278,5.0219197273254395,-0.01631898246705532
-0.19704721868038177,5.015635967254639,-0.01629684679210186
-0.1619071066379547,5.0090765953063965,-0.016274645924568176
-0.12659905850887299,4.9944634437561035,-0.0162014402449131
-0.09164029359817505,4.98741340637207,-0.01615157164633274
-0.056605372577905655,4.9684014320373535,-0.016063857823610306
-0.0214228555560112,4.960865497589111,-0.01601383648812771
0.01297389343380928,4.945269584655762,-0.015939174219965935
0.04704578220844269,4.913812160491943,-0.015810130164027214
0.08106409758329391,4.905555248260498,-0.015752628445625305
0.11451151967048645,4.877537250518799,-0.01563264988362789
0.14788395166397095,4.861007213592529,-0.015550549142062664
0.18250606954097748,4.867648601531982,-0.015542871318757534
0.21454070508480072,4.827241897583008,-0.015385722741484642
0.24797777831554413,4.825639724731445,-0.015345323830842972
0.2799927592277527,4.800411224365234,-0.015230744145810604
0.3119250535964966,4.77886962890625,-0.01512889564037323
0.3457450568675995,4.776541709899902,-0.015087984502315521
0.37777116894721985,4.758442401885986,-0.014998631551861763
0.4080337882041931,4.7245774269104,-0.014854295179247856
0.43995341658592224,4.713865756988525,-0.014780532568693161
0.4725683629512787,4.710708141326904,-0.01473117433488369
0.5041525363922119,4.691717624664307,-0.014632363803684711
0.5350108742713928,4.672572612762451,-0.01453461404889822
0.567000687122345,4.664864540100098,-0.01446600817143917
0.5961572527885437,4.637598514556885,-0.014319087378680706
0.6281134486198425,4.633378982543945,-0.014244318008422852
0.6573722958564758,4.605645179748535,-0.014097020961344242
0.6882479190826416,4.59323263168335,-0.013998378068208694
0.7213628888130188,4.596057415008545,-0.013946929015219212
0.7478628158569336,4.560155391693115,-0.013776364736258984
0.7778297066688538,4.547214508056641,-0.01367615070194006
0.8042704463005066,4.514841079711914,-0.013518521562218666
0.6994042992591858,3.771620750427246,-0.011241815984249115
0.7285777926445007,3.782007932662964,-0.011222528293728828
0.7530422806739807,3.7692463397979736,-0.011136626824736595
0.9181424975395203,4.437236785888672,-0.013055154122412205
0.9468737840652466,4.423205852508545,-0.012959381565451622
0.9813586473464966,4.431687831878662,-0.012928595766425133
1.0121649503707886,4.424753665924072,-0.01285391766577959
1.0426781177520752,4.417663097381592,-0.012781118974089622
1.070962905883789,4.4028520584106445,-0.012689011171460152
1.0990939140319824,4.387860298156738,-0.012597145512700081
1.1269077062606812,4.368698596954346,-0.012492801994085312
1.157243251800537,4.3607611656188965,-0.012421726249158382
1.1873667240142822,4.35265588760376,-0.012343036942183971
1.2127140760421753,4.329438209533691,-0.012203982099890709
1.2421550750732422,4.3210835456848145,-0.012107550166547298
1.2701120376586914,4.30480432510376,-0.011987674981355667
1.2977163791656494,4.2884016036987305,-0.01186875719577074
1.3273041248321533,4.279336929321289,-0.01177169568836689
1.351543664932251,4.25535249710083,-0.011636974290013313
1.3827295303344727,4.253537178039551,-0.011563622392714024
1.4025144577026367,4.214132785797119,-0.011386866681277752
1.4318209886550903,4.20426607131958,-0.011291137896478176
1.463322639465332,4.201679229736328,-0.01121175941079855
1.485108733177185,4.173303604125977,-0.011057917959988117
1.5146195888519287,4.166840553283691,-0.010962825268507004
1.5432283878326416,4.156330108642578,-0.010856200940907001
1.562914490699768,4.119736194610596,-0.010680124163627625
1.6008256673812866,4.134488582611084,-0.01063161063939333
1.6243007183074951,4.112726211547852,-0.010483910329639912
1.654852032661438,4.108952045440674,-0.01038262341171503
1.6833029985427856,4.097379207611084,-0.010259142145514488
1.7167855501174927,4.09617280960083,-0.010159929282963276
1.9651328325271606,4.601869106292725,-0.011319134384393692
2.0317113399505615,4.671006679534912,-0.01139325462281704
2.0570828914642334,4.642805099487305,-0.011227535083889961
2.0893335342407227,4.628381729125977,-0.011093681678175926
2.1181254386901855,4.606679439544678,-0.010937846265733242
2.1521031856536865,4.599531173706055,-0.010815185494720936
2.179363489151001,4.578027248382568,-0.010659247636795044
2.2111055850982666,4.562780857086182,-0.010514144785702229
2.2493550777435303,4.561474800109863,-0.010403390042483807
2.273024082183838,4.532254219055176,-0.010236507281661034
2.306544542312622,4.524057865142822,-0.010119389742612839
2.348445415496826,4.528868198394775,-0.010027251206338406
