X,Y,Z
2.387375593185425,3.987550735473633,0.0885956808924675
2.3593924045562744,4.004126071929932,0.09061625599861145
2.3426427841186523,4.041011810302734,0.09308468550443649
2.308608055114746,4.051517963409424,0.09490791708230972
2.2715065479278564,4.054493427276611,0.09651151299476624
2.255965232849121,4.094356536865234,0.09896280616521835
2.2263376712799072,4.110497951507568,0.10079076886177063
2.1996262073516846,4.133658409118652,0.10277397185564041
2.180924415588379,4.169972896575928,0.10505318641662598
2.155409574508667,4.191958904266357,0.10695197433233261
2.127939224243164,4.214677810668945,0.10884421318769455
2.10038685798645,4.237152099609375,0.1106928363442421
2.0667264461517334,4.244944095611572,0.11212548613548279
2.040524959564209,4.266218662261963,0.11389045417308807
2.003246545791626,4.2665581703186035,0.11505696922540665
1.9818274974822998,4.302318572998047,0.11715744435787201
1.9535603523254395,4.323757171630859,0.11888164281845093
1.9139052629470825,4.315797805786133,0.11974680423736572
1.9036967754364014,4.375687599182129,0.12248080223798752
1.868815302848816,4.3821702003479,0.12366586923599243
1.8700405359268188,4.474863052368164,0.12730799615383148
1.8485182523727417,4.513309478759766,0.12941545248031616
1.8344807624816895,4.569526195526123,0.1320333629846573
1.8017133474349976,4.582507133483887,0.13333801925182343
1.762880563735962,4.580816268920898,0.13419301807880402
1.7328104972839355,4.600584506988525,0.13567166030406952
1.3220750093460083,3.586841344833374,0.10647178441286087
1.3023585081100464,3.6106269359588623,0.10786686092615128
1.276364803314209,3.61987042427063,0.10876438021659851
1.6127643585205078,4.6810712814331055,0.1414574235677719
1.5894813537597656,4.7219648361206055,0.14349940419197083
1.5791538953781128,4.803549766540527,0.14680133759975433
1.5479768514633179,4.821855545043945,0.1481603980064392
1.5378546714782715,4.911051273345947,0.15161120891571045
1.4923295974731445,4.888313293457031,0.15162065625190735
1.4421221017837524,4.846323490142822,0.15101836621761322
1.412719488143921,4.871208190917969,0.15249046683311462
1.3866592645645142,4.911123275756836,0.1544518917798996
1.335077166557312,4.860612869262695,0.15345613658428192
1.2832348346710205,4.805859088897705,0.1523197591304779
1.2511345148086548,4.8223557472229,0.1534377783536911
1.227076530456543,4.868780612945557,0.15551108121871948
1.1962357759475708,4.892500400543213,0.15688446164131165
1.1624099016189575,4.904634475708008,0.1577742099761963
1.1326912641525269,4.935596942901611,0.15926341712474823
1.0992984771728516,4.95111608505249,0.16026407480239868
1.0680816173553467,4.9738945960998535,0.16149994730949402
1.04158616065979,5.0233540534973145,0.163624107837677
1.0008876323699951,5.003730773925781,0.16343356668949127
0.9669289588928223,5.018335819244385,0.16431160271167755
2.1324498653411865,11.504982948303223,0.377634733915329
2.0176265239715576,11.327396392822266,0.372732937335968
1.9117745161056519,11.191255569458008,0.36919525265693665
1.8047858476638794,11.027020454406738,0.3646710515022278
1.7076538801193237,10.916007995605469,0.36163845658302307
1.609297513961792,10.784875869750977,0.3579414188861847
1.5113335847854614,10.641295433044434,0.35383012890815735
1.4162111282348633,10.504658699035645,0.34995123744010925
1.32381010055542,10.363189697265625,0.34589865803718567
1.2395435571670532,10.275276184082031,0.343475878238678
1.1497600078582764,10.128534317016602,0.3389829099178314
1.0690232515335083,10.047054290771484,0.3366813659667969
0.9914239645004272,9.980445861816406,0.33488529920578003
0.3989051878452301,4.326875686645508,0.14538297057151794
0.36181411147117615,4.2478485107421875,0.14292539656162262
0.33141234517097473,4.242491245269775,0.14282990992069244
0.3022105395793915,4.252493381500244,0.14325857162475586
0.2748802602291107,4.293463230133057,0.1447385847568512
0.24407070875167847,4.287498474121094,0.14464512467384338
0.21717794239521027,4.347573757171631,0.14678624272346497
0.1840534508228302,4.282668590545654,0.14467279613018036
0.15092779695987701,4.194112777709961,0.14169350266456604
0.12078619003295898,4.16384220123291,0.14068980515003204
0.09190914034843445,4.195817470550537,0.1417967528104782
0.01655558869242668,2.069063901901245,0.0699593722820282
0.0021231684368103743,2.0222811698913574,0.06836195290088654
-0.012696168385446072,2.151078701019287,0.07268450409173965
-0.05271248146891594,4.059843063354492,0.13712778687477112
-0.08093525469303131,4.059380054473877,0.13706636428833008
-0.11066433787345886,4.113357067108154,0.138849139213562
-0.07174273580312729,2.1186740398406982,0.07150011509656906
-0.08674738556146622,2.125929832458496,0.0716807171702385
-0.17935597896575928,3.755310297012329,0.12651140987873077
-0.19603481888771057,3.5746383666992188,0.12032647430896759
-0.21771639585494995,3.5225400924682617,0.11848317831754684
-0.24327316880226135,3.536525011062622,0.11886917799711227
-0.279009610414505,3.6826887130737305,0.12366508692502975
-0.29474693536758423,3.5639617443084717,0.11950009316205978
-0.5781053900718689,6.439258098602295,0.21559152007102966
-0.628329336643219,6.493403434753418,0.21709862351417542
-0.3683776557445526,3.5492794513702393,0.11850331723690033
-0.378864049911499,3.418588399887085,0.11398877203464508
-0.40521883964538574,3.439162015914917,0.11447162926197052
-0.4205861985683441,3.3665177822113037,0.11182859539985657
-0.4422641694545746,3.351935863494873,0.11112847179174423
-0.4622137248516083,3.3256049156188965,0.11004576086997986
-0.48078787326812744,3.291419267654419,0.1087108924984932
-0.5024077892303467,3.2802999019622803,0.1081409826874733
-0.5227872729301453,3.2613117694854736,0.10723254829645157
-0.540619969367981,3.2307097911834717,0.1059555932879448
-0.5587286353111267,3.2038636207580566,0.10481097549200058
-0.5767998099327087,3.1768670082092285,0.10366655141115189
-0.5959712266921997,3.157447576522827,0.10277753323316574
-0.6222221255302429,3.176267623901367,0.10310095548629761
-0.6458601951599121,3.1795289516448975,0.10287977010011673
-0.6571329832077026,3.125385284423828,0.10081591457128525
-0.6828336119651794,3.139866828918457,0.10097053647041321
-0.6969277262687683,3.1007778644561768,0.0994066596031189
-0.7096399068832397,3.05784010887146,0.09772763401269913
-0.7344407439231873,3.068056583404541,0.09767293184995651
-0.6870940923690796,2.7862651348114014,0.08836435526609421
-0.7022784352302551,2.7663817405700684,0.08740063011646271
-0.7185150980949402,2.750119686126709,0.08655327558517456
-0.7386125922203064,2.7488489151000977,0.08618283271789551
-0.7525291442871094,2.7248404026031494,0.08505871891975403
-0.7805705666542053,2.7535006999969482,0.08556884527206421
-0.8199635744094849,2.819389581680298,0.08722469955682755
-0.9410514235496521,3.154144763946533,0.09713704884052277
-0.9606707096099854,3.1400790214538574,0.0962628498673439
-0.9930882453918457,3.166846990585327,0.09660317748785019
-1.021604299545288,3.182399034500122,0.09656757861375809
-1.0455290079116821,3.1828620433807373,0.09607306867837906
-1.0749019384384155,3.197810649871826,0.09600561112165451
-1.0971088409423828,3.1902828216552734,0.09525971114635468
-1.1359037160873413,3.2305572032928467,0.09591631591320038
-1.168576717376709,3.2521204948425293,0.09595432132482529
-1.1985180377960205,3.2661972045898438,0.09577688574790955
-1.230545997619629,3.283496618270874,0.09567693620920181
-1.2701274156570435,3.318636178970337,0.09608098864555359
-1.2985557317733765,3.324416399002075,0.09560677409172058
-1.3255308866500854,3.3263938426971436,0.09497153013944626
-2.2620601654052734,5.56766939163208,0.15782269835472107
-2.31687068939209,5.591654300689697,0.15732724964618683
-2.3557231426239014,5.575443267822266,0.1556902378797531
-2.3889265060424805,5.5485920906066895,0.15371067821979523
-2.4312801361083984,5.5430073738098145,0.15226440131664276
-2.50822377204895,5.615758895874023,0.1529703438282013
-2.5391199588775635,5.580462455749512,0.1506769359111786
-2.554868698120117,5.513118743896484,0.14754162728786469
-2.576472520828247,5.464272975921631,0.1448376625776291
-3.1251556873321533,6.513630390167236,0.1709529310464859
-2.6332547664642334,5.393812656402588,0.1401389241218567
-2.6672260761260986,5.3684258460998535,0.13803096115589142
-2.6999285221099854,5.343353748321533,0.13590112328529358
-2.389031410217285,4.651520729064941,0.11698120087385178
-2.427363872528076,4.649306297302246,0.1155795231461525
-2.4473791122436523,4.60791540145874,0.11313675343990326
-2.4602015018463135,4.556793212890625,0.11047913879156113
-2.4863054752349854,4.533741474151611,0.10848203301429749
-1.1897536516189575,2.1357665061950684,0.050416119396686554
-2.5188701152801514,4.448620796203613,0.10350356996059418
-2.537886381149292,4.410830020904541,0.10107840597629547
-2.5508596897125244,4.367238998413086,0.09854099899530411
-2.5659377574920654,4.326686382293701,0.09606315195560455
-1.2334754467010498,2.047347068786621,0.04468034207820892
-1.2470598220825195,2.0391221046447754,0.04371095076203346
-2.0513224601745605,3.305178642272949,0.06952778995037079
-1.2679932117462158,2.012378454208374,0.04149487614631653
-2.654085397720337,4.148751258850098,0.08377021551132202
-2.672100782394409,4.118603229522705,0.08135686814785004
-2.1923954486846924,3.3310141563415527,0.06428910791873932
-2.7520086765289307,4.117510795593262,0.0774463564157486
-2.758690118789673,4.070685863494873,0.07456565648317337
-2.7806084156036377,4.046314239501953,0.07207351922988892
-2.813075065612793,4.033382892608643,0.06964556127786636
-2.8002336025238037,3.961308479309082,0.06621796637773514
-2.5374672412872314,3.5395071506500244,0.057079415768384933
-2.6143572330474854,3.594834089279175,0.05573064461350441
-2.6991193294525146,3.663522481918335,0.054482292383909225
-2.9495511054992676,4.128576278686523,-0.051982440054416656
-2.4455883502960205,3.475555658340454,-0.04592539370059967
-2.7565810680389404,3.9824795722961426,-0.055070385336875916
-2.7837579250335693,4.082247257232666,-0.058694660663604736
-2.7534544467926025,4.102711200714111,-0.061200857162475586
-2.1804893016815186,3.3016610145568848,-0.0509721077978611
-2.1612801551818848,3.3235599994659424,-0.052951544523239136
-2.658298969268799,4.155616283416748,-0.06817954778671265
-2.6464574337005615,4.2047247886657715,-0.07091020047664642
-1.2632843255996704,2.038472890853882,-0.0352574847638607
-1.2684699296951294,2.081112861633301,-0.036870624870061874
-2.019779682159424,3.3703410625457764,-0.06112048402428627
-1.9883348941802979,3.3708324432373047,-0.06242883577942848
-2.5166287422180176,4.337782382965088,-0.08197657018899918
-2.4805824756622314,4.349467754364014,-0.08381542563438416
-1.1962411403656006,2.1323251724243164,-0.041843052953481674
-2.435626268386841,4.414916038513184,-0.08818259090185165
-2.4217002391815186,4.467010498046875,-0.09069959819316864
-2.3891067504882812,4.484489917755127,-0.0925152450799942
-2.3650479316711426,4.514832019805908,-0.09454244375228882
-2.34367299079895,4.552300930023193,-0.09671051055192947
-2.3062045574188232,4.562609672546387,-0.09829777479171753
-2.2733404636383057,4.579036235809326,-0.09997369349002838
-2.241487503051758,4.594676971435547,-0.10159237682819366
-2.215553045272827,4.624531269073486,-0.10350894927978516
-2.1818716526031494,4.640481948852539,-0.10509344190359116
-2.1452808380126953,4.648873805999756,-0.10649306327104568
-2.1155364513397217,4.671024799346924,-0.10819842666387558
-2.0935864448547363,4.710801124572754,-0.11027383804321289
-2.0500895977020264,4.704309463500977,-0.11121650040149689
-2.014575719833374,4.715346813201904,-0.11257009953260422
-2.0133674144744873,4.804874420166016,-0.11578226834535599
-1.5889220237731934,3.868969678878784,-0.09410533308982849
-1.558007836341858,3.8730783462524414,-0.09500919282436371
-1.5385674238204956,3.9060096740722656,-0.0966280922293663
-1.5181666612625122,3.93489408493042,-0.09813599288463593
-1.4962749481201172,3.959947109222412,-0.09955345839262009
-1.4730697870254517,3.985269784927368,-0.10094927996397018
-1.4497796297073364,4.010390281677246,-0.10230790078639984
-1.421196460723877,4.020583152770996,-0.10328865051269531
-1.3982689380645752,4.0451202392578125,-0.10462991148233414
-1.372537612915039,4.062143325805664,-0.10578310489654541
-1.3478374481201172,4.0868330001831055,-0.10708913207054138
-1.316153883934021,4.088918209075928,-0.10779894143342972
-0.9701787829399109,3.0884475708007812,-0.08191142976284027
-0.9555862545967102,3.117490530014038,-0.08316972106695175
-0.9192051291465759,3.075446844100952,-0.08251023292541504
-0.7979650497436523,2.7407102584838867,-0.07389917224645615
-0.766406774520874,2.7050695419311523,-0.07331125438213348
-0.7557492852210999,2.740471839904785,-0.07463878393173218
-0.7366571426391602,2.7456517219543457,-0.07514859735965729
-0.7133811116218567,2.7356390953063965,-0.07521915435791016
-0.7044581174850464,2.7822682857513428,-0.07682186365127563
-1.4775177240371704,6.018255710601807,-0.16688384115695953
-1.4562933444976807,6.115759372711182,-0.17029115557670593
-1.4304845333099365,6.197985649108887,-0.17329616844654083
-1.4176589250564575,6.3450236320495605,-0.178082674741745
-1.3603851795196533,6.297614574432373,-0.1773601621389389
-1.3079109191894531,6.272801876068115,-0.1772841215133667
-1.2639663219451904,6.281779766082764,-0.17815229296684265
-1.2126930952072144,6.252083778381348,-0.1779262274503708
-1.1630698442459106,6.229708194732666,-0.17784476280212402
-1.1113401651382446,6.195490837097168,-0.17733855545520782
-1.033621907234192,6.010900974273682,-0.17252667248249054
-0.9383006691932678,5.6943230628967285,-0.16388067603111267
-0.9473164677619934,6.009255886077881,-0.1734147071838379
-0.7014392018318176,4.66042423248291,-0.13482767343521118
-0.6697507500648499,4.672961711883545,-0.13545216619968414
-0.6526265740394592,4.7975592613220215,-0.13934360444545746
-0.4428466856479645,3.4349725246429443,-0.09996796399354935
-0.42182472348213196,3.4612112045288086,-0.10093657672405243
-0.39821839332580566,3.467928171157837,-0.10133692622184753
-0.37807130813598633,3.5094504356384277,-0.10268381983041763
-0.3609132170677185,3.5858206748962402,-0.10505956411361694
-0.33757418394088745,3.611616849899292,-0.10596495866775513
-0.3144568204879761,3.637211799621582,-0.10686828941106796
-0.29134267568588257,3.666548490524292,-0.10788866132497787
-0.25671976804733276,3.5438690185546875,-0.10436283051967621
-0.22991442680358887,3.5144026279449463,-0.10356469452381134
-0.20629383623600006,3.5393319129943848,-0.10437580198049545
-0.195828378200531,3.8175392150878906,-0.1126665323972702
-0.17029531300067902,3.842210292816162,-0.11348683387041092
-0.1451164335012436,3.886221408843994,-0.11484073847532272
-0.1177501454949379,3.8793327808380127,-0.1146506741642952
-0.09243170917034149,3.9776580333709717,-0.11757657676935196
-0.06464936584234238,3.970395088195801,-0.11738712340593338
-0.03755528852343559,4.02540922164917,-0.1190449446439743
-0.009726549498736858,4.076330661773682,-0.1205717995762825
0.01865500956773758,4.091919898986816,-0.12097632139921188
0.06391412764787674,5.493323802947998,-0.16233906149864197
0.10090311616659164,5.430287837982178,-0.16041675209999084
0.1067647933959961,4.180408954620361,-0.1234540343284607
0.17565850913524628,5.404949188232422,-0.1595727503299713
0.21296024322509766,5.39970588684082,-0.15926645696163177
0.24787932634353638,5.343499660491943,-0.1574418693780899
0.2251332551240921,4.210914611816406,-0.1239435151219368
0.26030614972114563,4.30668830871582,-0.12663990259170532
0.2868007719516754,4.25413703918457,-0.12497961521148682
0.3139911890029907,4.220901012420654,-0.12384259700775146
0.34319087862968445,4.218635559082031,-0.1235676035284996
0.3735295534133911,4.223905086517334,-0.12351567298173904
0.49036553502082825,5.138538360595703,-0.15002073347568512
0.5176969170570374,5.053447723388672,-0.14730629324913025
0.4967033267021179,4.53739070892334,-0.13204342126846313
0.5338363647460938,4.584290981292725,-0.1331038922071457
0.5750638842582703,4.6540751457214355,-0.1348218023777008
0.6238977313041687,4.777770519256592,-0.1380992829799652
0.690667986869812,5.017022132873535,-0.14469794929027557
0.7221506834030151,4.988929271697998,-0.14357945322990417
0.7547013759613037,4.972277641296387,-0.14269854128360748
0.7845839858055115,4.936038494110107,-0.14124692976474762
0.8172557950019836,4.922834396362305,-0.14047135412693024
0.8487622737884521,4.901665687561035,-0.13947343826293945
0.877979576587677,4.86876106262207,-0.13815118372440338
0.9114711284637451,4.862619876861572,-0.1375274807214737
0.9403378963470459,4.833273410797119,-0.13622057437896729
0.9724934697151184,4.818957805633545,-0.13533884286880493
1.0011271238327026,4.789176940917969,-0.13403472304344177
1.0294371843338013,4.759222030639648,-0.13273608684539795
1.0605154037475586,4.744410991668701,-0.13181906938552856
1.090288519859314,4.725656986236572,-0.1307506263256073
1.121338963508606,4.710378646850586,-0.1297769695520401
1.150202989578247,4.687353610992432,-0.128601536154747
1.1789665222167969,4.664113998413086,-0.12742716073989868
1.2072007656097412,4.6407694816589355,-0.12621982395648956
1.2327789068222046,4.60981559753418,-0.12475930899381638
1.2616485357284546,4.58987283706665,-0.12359639257192612
1.2933658361434937,4.581059455871582,-0.12274294346570969
1.3164821863174438,4.541976451873779,-0.12108532339334488
1.349989652633667,4.540302276611328,-0.12039624899625778
1.3762489557266235,4.516109466552734,-0.1190660372376442
1.4051380157470703,4.499048233032227,-0.11792009323835373
1.4314771890640259,4.474364757537842,-0.116583451628685
1.4552607536315918,4.442060947418213,-0.11505626887083054
1.4856810569763184,4.432004928588867,-0.1140749454498291
1.5143773555755615,4.418179988861084,-0.11296707391738892
1.258895754814148,3.593360424041748,-0.09126725047826767
1.2869099378585815,3.5917422771453857,-0.0905902087688446
1.3172664642333984,3.597381353378296,-0.09010636806488037
1.611130952835083,4.308962345123291,-0.1071331650018692
1.6401784420013428,4.298016548156738,-0.10605153441429138
1.6637217998504639,4.272225379943848,-0.104604572057724
1.6895145177841187,4.249513626098633,-0.10321260988712311
1.7159446477890015,4.230509281158447,-0.10192487388849258
1.750266432762146,4.233362197875977,-0.10111172497272491
1.7786056995391846,4.221561431884766,-0.09995114803314209
1.804527759552002,4.202075481414795,-0.09859156608581543
1.8280010223388672,4.174898147583008,-0.09703391790390015
1.8563332557678223,4.162405967712402,-0.09580490738153458
1.8809157609939575,4.142807483673096,-0.09439825266599655
1.8990700244903564,4.108745574951172,-0.09266235679388046
1.9342341423034668,4.109610080718994,-0.09169384092092514
1.9594851732254028,4.089000225067139,-0.09021607041358948
1.9763535261154175,4.0548505783081055,-0.08843280375003815
2.0033187866210938,4.041624546051025,-0.08711296319961548
2.0278468132019043,4.020657062530518,-0.08558715134859085
2.059156656265259,4.013522624969482,-0.08435379713773727
2.0820634365081787,3.9929096698760986,-0.08281058073043823
2.103440046310425,3.9684629440307617,-0.0811760351061821
2.130964756011963,3.9537806510925293,-0.07971297204494476
2.1581597328186035,3.9390318393707275,-0.07824473828077316
2.1840550899505615,3.924762725830078,-0.07675885409116745
2.210005521774292,3.9102377891540527,-0.07526430487632751
2.2298407554626465,3.880983591079712,-0.07341128587722778
2.256096601486206,3.8658087253570557,-0.07184965908527374
2.2773234844207764,3.844294548034668,-0.07016663998365402
2.2990996837615967,3.8222270011901855,-0.06844336539506912
2.3256442546844482,3.806164026260376,-0.06678706407546997
2.3510265350341797,3.790567398071289,-0.06509730219841003
2.3839707374572754,3.788435697555542,-0.0636545941233635
2.397587537765503,3.752080202102661,-0.061549216508865356
2.4268081188201904,3.7425899505615234,-0.059881288558244705
2.446507453918457,3.7204246520996094,-0.05800018087029457
2.4680538177490234,3.6968066692352295,-0.0559735931456089
2.4928300380706787,3.680173873901367,-0.05406104773283005
2.5162317752838135,3.664240837097168,-0.052162934094667435
2.5412981510162354,3.6469297409057617,-0.05012054368853569
2.5607643127441406,3.623753547668457,-0.04797867313027382
2.5796446800231934,3.6007590293884277,-0.04579587280750275
2.609166383743286,3.589115619659424,-0.04362545162439346
2.191311836242676,2.975281238555908,-0.03447725996375084
2.552328109741211,3.601069688796997,0.04317887872457504
2.5222373008728027,3.612661123275757,0.04513898119330406
2.5030999183654785,3.644890546798706,0.04734798148274422
2.467994451522827,3.649881362915039,0.04908693954348564
2.4498846530914307,3.680819511413574,0.051097624003887177
2.417562484741211,3.6927695274353027,0.0528264045715332
2.404510974884033,3.729173183441162,0.05478118360042572
2.368792772293091,3.733448028564453,0.056259967386722565
2.3566038608551025,3.7780067920684814,0.05837085098028183
2.3179337978363037,3.774355888366699,0.05961214005947113
2.3028383255004883,3.8109683990478516,0.06146742030978203
2.2861971855163574,3.848234176635742,0.06331681460142136
2.268536329269409,3.881284713745117,0.06505285948514938
2.268286943435669,3.944610834121704,0.06730874627828598
2.256281614303589,3.991894245147705,0.06926348805427551
2.253333568572998,4.056201457977295,0.07153341919183731
2.228700637817383,4.078668594360352,0.07302328199148178
2.212614059448242,4.118454933166504,0.07481701672077179
2.181516170501709,4.134986877441406,0.07617899030447006
2.165785312652588,4.17844820022583,0.0780104547739029
2.1402668952941895,4.200322151184082,0.07940535992383957
2.110440969467163,4.215363025665283,0.08065580576658249
2.082977771759033,4.237683296203613,0.08202004432678223
2.055142879486084,4.259902477264404,0.0833946019411087
2.0220561027526855,4.2670416831970215,0.08442879468202591
1.9985233545303345,4.295328140258789,0.08586931228637695
1.9606211185455322,4.295570373535156,0.08670619875192642
1.9323967695236206,4.316878318786621,0.08797153830528259
1.9086247682571411,4.344488143920898,0.08933377265930176
1.8778358697891235,4.3578619956970215,0.09042460471391678
1.8569564819335938,4.3964715003967285,0.09197121858596802
1.822062611579895,4.402573108673096,0.09283973276615143
1.7937281131744385,4.422601699829102,0.09399095922708511
1.7715476751327515,4.4567389488220215,0.09543801844120026
1.7395373582839966,4.469308853149414,0.0964163988828659
1.709993600845337,4.489035129547119,0.09749768674373627
1.6693824529647827,4.47927713394165,0.09794078022241592
1.318168044090271,3.613940477371216,0.07953362166881561
1.2903518676757812,3.6156575679779053,0.08008412271738052
1.270612359046936,3.643312931060791,0.08118366450071335
1.570586085319519,4.609787464141846,0.10329971462488174
1.554734706878662,4.672797203063965,0.10530087351799011
1.53305184841156,4.716909408569336,0.10687419027090073
1.5049235820770264,4.742331504821777,0.1080351397395134
1.4706394672393799,4.75305700302124,0.10881513357162476
1.4715431928634644,4.879350662231445,0.11222926527261734
1.4135555028915405,4.811028957366943,0.11117541044950485
1.406907081604004,4.914594650268555,0.11408764123916626
1.357987403869629,4.871583938598633,0.1136070266366005
1.3060907125473022,4.8169846534729,0.11278853565454483
1.265119194984436,4.8036651611328125,0.11291579902172089
1.2385714054107666,4.842817783355713,0.11427521705627441
1.2142605781555176,4.8892035484313965,0.11580634117126465
1.1802148818969727,4.897518157958984,0.11644469946622849
1.1484489440917969,4.9170823097229,0.11730345338582993
1.1162890195846558,4.940485000610352,0.11821963638067245
1.0828789472579956,4.955897331237793,0.11894533783197403
1.0546122789382935,4.993911266326904,0.12021743506193161
1.019858956336975,5.0011115074157715,0.12075337022542953
0.9804039001464844,4.985105514526367,0.12071305513381958
0.965512752532959,5.103304386138916,0.12386803328990936
0.9321931004524231,5.125361919403076,0.12469758093357086
0.8974618315696716,5.139475345611572,0.12533976137638092
1.8510640859603882,11.053762435913086,0.2702226936817169
1.753708839416504,10.939107894897461,0.26807186007499695
1.6564239263534546,10.827840805053711,0.2658328115940094
1.5579397678375244,10.688545227050781,0.262861967086792
1.4610729217529297,10.544525146484375,0.25977444648742676
1.369354486465454,10.415033340454102,0.25703856348991394
1.2849119901657104,10.327398300170898,0.25533702969551086
1.1946806907653809,10.180951118469238,0.2521100342273712
1.1078078746795654,10.061121940612793,0.2494095116853714
1.0323699712753296,10.02202320098877,0.24871329963207245
0.9659348726272583,10.067863464355469,0.25013622641563416
0.3815116584300995,4.290342807769775,0.10671955347061157
0.346861332654953,4.234508991241455,0.10545995831489563
0.317307710647583,4.244654655456543,0.1057899221777916
0.2886125147342682,4.262354850769043,0.10629717260599136
0.2601577341556549,4.287657260894775,0.10699983686208725
0.23132221400737762,4.308859825134277,0.10760574042797089
0.19823774695396423,4.244049072265625,0.10606782138347626
0.16787517070770264,4.237539768218994,0.10597134381532669
0.06876587867736816,2.107595205307007,0.052701957523822784
0.10680782049894333,4.165297985076904,0.10415299981832504
0.07693278789520264,4.122993469238281,0.10309691727161407
0.04827672615647316,4.1234283447265625,0.10311449319124222
0.009509525261819363,2.054023265838623,0.05137086659669876
-0.004943094681948423,2.120425224304199,0.05301806703209877
-0.02004615217447281,2.159389019012451,0.05396518483757973
-0.06584344804286957,4.052888870239258,0.10123947262763977
-0.09356369823217392,4.0328145027160645,0.1006971076130867
-0.11473187804222107,3.8056800365448,0.09499169886112213
-0.07726103812456131,2.0760421752929688,0.05180276930332184
-0.09093761444091797,2.05985426902771,0.05134796351194382
-0.1834815889596939,3.5918610095977783,0.08944934606552124
-0.20451940596103668,3.5242316722869873,0.08768245577812195
-0.2295098900794983,3.530522108078003,0.08776003122329712
-0.2581731081008911,3.579444408416748,0.08889887481927872
-0.2814834713935852,3.5581040382385254,0.08827539533376694
-0.3040634095668793,3.5327341556549072,0.0875082015991211
-0.3277531862258911,3.522775888442993,0.0871281549334526
-0.3505766987800598,3.5048844814300537,0.08655676245689392
-0.3699660301208496,3.45184326171875,0.08512109518051147
-0.3930667042732239,3.4414327144622803,0.08474519103765488
-0.4092969596385956,3.376615524291992,0.08298952877521515
-0.43349260091781616,3.381474733352661,0.08293411880731583
-0.4546676576137543,3.3629367351531982,0.08230894058942795
-0.47839054465293884,3.3596503734588623,0.08205756545066833
-0.4988469183444977,3.3369388580322266,0.0813392624258995
-0.5262140035629272,3.360410451889038,0.08174141496419907
-0.5517685413360596,3.3721461296081543,0.08180931955575943
-0.5709069967269897,3.3451991081237793,0.08094339072704315
-0.5938975214958191,3.3412015438079834,0.08063715696334839
-0.6068673729896545,3.279323101043701,0.07893557101488113
-0.6141700744628906,3.194498300552368,0.07669774442911148
-0.6300178170204163,3.1595683097839355,0.07562828809022903
-0.6500590443611145,3.1475393772125244,0.07509185373783112
-0.6903356313705444,3.230865955352783,0.07682795077562332
-0.7037756443023682,3.183993339538574,0.07546098530292511
-0.7023887634277344,3.076245069503784,0.07266953587532043
-0.7254124283790588,3.078930616378784,0.07248526811599731
-0.7306684851646423,3.0094213485717773,0.07057034969329834
-0.6961789131164551,2.784651517868042,0.06504399329423904
-0.7029259204864502,2.730571746826172,0.06352598965167999
-0.7289012670516968,2.7520503997802734,0.06377174705266953
-0.7470003366470337,2.743154287338257,0.06331462413072586
-0.7635481357574463,2.730494260787964,0.06273682415485382
-0.7917730212211609,2.7590384483337402,0.06310262531042099
-0.900226354598999,3.056943893432617,0.06959042698144913
-0.9519231915473938,3.15156888961792,0.07141000777482986
-0.9737874865531921,3.144892692565918,0.0709269717335701
-1.0353063344955444,3.2647745609283447,0.073243148624897
-1.0874683856964111,3.3505873680114746,0.07475442439317703
-1.1129378080368042,3.3504583835601807,0.0743318572640419
-1.146260380744934,3.3722336292266846,0.07438936829566956
-1.17227303981781,3.371563196182251,0.0739501491189003
-1.1991544961929321,3.374546766281128,0.07356297969818115
-1.2072218656539917,3.326016902923584,0.07204499840736389
-1.2431910037994385,3.354436159133911,0.07219763100147247
-1.2668505907058716,3.3455870151519775,0.07152454555034637
-1.2914619445800781,3.340365409851074,0.0709400549530983
-1.322590708732605,3.3533802032470703,0.07070908695459366
-1.3479382991790771,3.3517072200775146,0.07015462964773178
-2.2935426235198975,5.593822956085205,0.11621324717998505
-2.3481192588806152,5.613518238067627,0.1157054752111435
-2.370181083679199,5.557589054107666,0.11366192996501923
-2.4041285514831543,5.534499168395996,0.11224035918712616
-2.437849521636963,5.511214256286621,0.11082136631011963
-2.5603716373443604,5.683229446411133,0.11328272521495819
-3.0421125888824463,6.626900672912598,0.13088315725326538
-3.0972037315368652,6.627240180969238,0.12966862320899963
-2.5844247341156006,5.435477256774902,0.10530929267406464
-3.132390260696411,6.476512908935547,0.12423573434352875
-2.615043878555298,5.312248706817627,0.10083359479904175
-2.6752564907073975,5.339061260223389,0.10024558007717133
-2.3772215843200684,4.667001247406006,0.0866350531578064
-2.399043560028076,4.633865833282471,0.08503209799528122
-2.4271633625030518,4.610396862030029,0.0835774838924408
-2.4370944499969482,4.552083969116211,0.08149125427007675
-2.4634928703308105,4.528985977172852,0.08001742511987686
-1.1675150394439697,2.112640619277954,0.03681780397891998
-1.1972253322601318,2.131868600845337,0.036626771092414856
-2.511141300201416,4.399670124053955,0.07448015362024307
-2.183526039123535,3.768073320388794,0.06280945986509323
-2.215968132019043,3.7672436237335205,0.061808522790670395
-2.2222821712493896,3.7181127071380615,0.05994953587651253
-1.2566478252410889,2.070081949234009,0.03279045224189758
-1.2536406517028809,2.035306215286255,0.031649403274059296
-1.2877362966537476,2.0601282119750977,0.03142368420958519
-2.6187245845794678,4.125349044799805,0.061624716967344284
-2.6759321689605713,4.1536970138549805,0.06068896874785423
-2.176973581314087,3.332064151763916,0.0475987009704113
-2.2171695232391357,3.343034029006958,0.04657669737935066
-2.7497262954711914,4.086471080780029,0.055470775812864304
-2.775644063949585,4.068934917449951,0.05376335605978966
-2.7681946754455566,3.998246669769287,0.05124348774552345
-2.8215134143829346,4.0182342529296875,0.04988347366452217
-2.577112913131714,3.621795415878296,0.04348660260438919
-2.57242488861084,3.5627012252807617,0.04115638881921768
-2.6643073558807373,3.6408023834228516,0.040381330996751785
-2.7251076698303223,3.6736559867858887,0.03895909711718559
-2.492521286010742,3.5142955780029297,-0.03229580819606781
-2.7765183448791504,3.9783337116241455,-0.038318850100040436
-2.7760777473449707,4.040386199951172,-0.040589310228824615
-2.759702444076538,4.079895973205566,-0.0426030158996582
-2.204878330230713,3.3138129711151123,-0.03587159141898155
-2.1686601638793945,3.30962872505188,-0.03698552027344704
-2.6740245819091797,4.145800590515137,-0.04773528873920441
-1.2889840602874756,2.031743049621582,-0.024068547412753105
-2.639855146408081,4.227590084075928,-0.05141010135412216
-1.259673833847046,2.0500261783599854,-0.02554892748594284
-1.2402416467666626,2.0527098178863525,-0.026192275807261467
-2.000187873840332,3.3641059398651123,-0.04386499151587486
-2.4223616123199463,4.139944076538086,-0.055101849138736725
-2.3794496059417725,4.137725353240967,-0.05617435649037361
-1.195846676826477,2.1148228645324707,-0.0292504895478487
-1.188687801361084,2.1367428302764893,-0.030074434354901314
-2.265855312347412,4.143171310424805,-0.05929543450474739
-2.242657423019409,4.173501491546631,-0.06069924682378769
-2.208923578262329,4.18260383605957,-0.06177627295255661
-2.190586566925049,4.218643665313721,-0.06322560459375381
-2.156250476837158,4.227512836456299,-0.06424090266227722
-2.1322999000549316,4.257107257843018,-0.06557220220565796
-2.117894411087036,4.303489685058594,-0.06713974475860596
-2.0975358486175537,4.339476108551025,-0.06856744736433029
-2.0625264644622803,4.347563743591309,-0.06949038058519363
-2.0472731590270996,4.397871494293213,-0.071096271276474
-2.030985116958618,4.444079875946045,-0.07262156158685684
-2.003190040588379,4.465224266052246,-0.07374192029237747
-1.9804273843765259,4.500965118408203,-0.07506854832172394
-1.953371524810791,4.529775619506836,-0.07629503309726715
-1.9319621324539185,4.568631172180176,-0.07766995579004288
-1.892712116241455,4.563880443572998,-0.07829596847295761
-1.5779567956924438,3.882451057434082,-0.06717889755964279
-1.5499731302261353,3.8936944007873535,-0.06792375445365906
-1.5301071405410767,3.926692247390747,-0.06906086951494217
-1.509678840637207,3.9554879665374756,-0.07010923326015472
-1.4874969720840454,3.9805521965026855,-0.07109630852937698
-1.4615201950073242,3.9984688758850098,-0.07191910594701767
-1.4379910230636597,4.02357292175293,-0.0728776603937149
-1.4168522357940674,4.055883407592773,-0.0739734098315239
-1.3860979080200195,4.058230876922607,-0.07451298832893372
-1.3624112606048584,4.082705020904541,-0.07543636858463287
-1.3331553936004639,4.092339992523193,-0.07605604082345963
-1.3073809146881104,4.112931728363037,-0.0768844485282898
-0.9704983234405518,3.129800796508789,-0.05884384363889694
-0.946447491645813,3.1289889812469482,-0.05916089564561844
-0.8249164819717407,2.7984328269958496,-0.053182005882263184
-0.7920475602149963,2.7591779232025146,-0.052691198885440826
-0.7650340795516968,2.7384073734283447,-0.052549440413713455
-0.7439274191856384,2.7361159324645996,-0.052755847573280334
-0.7265263795852661,2.7488608360290527,-0.053259484469890594
-0.708034336566925,2.7577083110809326,-0.05365300551056862
-0.6874726414680481,2.7588751316070557,-0.05388982221484184
-1.3413467407226562,5.550112724304199,-0.10884485393762589
-1.2857731580734253,5.487049579620361,-0.10803259909152985
-1.3315709829330444,5.869259834289551,-0.11602414399385452
-1.2901502847671509,5.87849235534668,-0.11660631746053696
-1.2501133680343628,5.895110130310059,-0.1173216849565506
-0.646094560623169,3.1565966606140137,-0.06302988529205322
-0.6271511912345886,3.1763339042663574,-0.06363312155008316
-0.6119669079780579,3.2190513610839844,-0.06470700353384018
-0.5935669541358948,3.2463138103485107,-0.06543055921792984
-0.5679769515991211,3.2350244522094727,-0.0653577372431755
-0.5535658001899719,3.289012908935547,-0.06660891324281693
-0.535618782043457,3.323629140853882,-0.06747288256883621
-0.5156604051589966,3.350489854812622,-0.06818799674510956
-0.4950547516345978,3.3733296394348145,-0.06880085170269012
-0.475624144077301,3.4076693058013916,-0.06962662190198898
-0.4546775817871094,3.434162139892578,-0.07029770314693451
-0.43509361147880554,3.472120761871338,-0.07120777666568756
-0.4146084189414978,3.5060856342315674,-0.0720415860414505
-0.39065006375312805,3.516690969467163,-0.07239136099815369
-0.3712258040904999,3.5698397159576416,-0.07357378304004669
-0.3443276286125183,3.5529134273529053,-0.07331620901823044
-0.3240092396736145,3.6057991981506348,-0.07450354844331741
-0.3014916777610779,3.6391000747680664,-0.07529154419898987
-0.27627819776535034,3.6489310264587402,-0.07560065388679504
-0.2413882464170456,3.514404058456421,-0.07285845279693604
-0.2177516371011734,3.531597375869751,-0.07325592637062073
-0.1991785764694214,3.6461234092712402,-0.07567762583494186
-0.1812673956155777,3.803457498550415,-0.07899467647075653
-0.15496063232421875,3.8202528953552246,-0.07940010726451874
-0.12977421283721924,3.8641743659973145,-0.08033710718154907
-0.10409179329872131,3.911832809448242,-0.08132437616586685
-0.07763762027025223,3.9554150104522705,-0.0822308138012886
-0.05040804296731949,3.9792897701263428,-0.08273155242204666
-0.022573653608560562,4.034221172332764,-0.08388230949640274
0.005462306085973978,4.034280300140381,-0.08388564735651016
0.03379214555025101,4.069293975830078,-0.08456215262413025
0.06231105700135231,4.08458137512207,-0.08483221381902695
0.09321180731058121,4.197279930114746,-0.08712810277938843
0.12211349606513977,4.188725471496582,-0.08691010624170303
0.14929069578647614,4.121411323547363,-0.08547718822956085
0.22936339676380157,5.314225673675537,-0.11010288447141647
0.21299107372760773,4.2515716552734375,-0.08798215538263321
0.24241389334201813,4.249998569488525,-0.08784966915845871
0.27144548296928406,4.240418910980225,-0.08755569905042648
0.30091044306755066,4.230601787567139,-0.08725973218679428
0.3296336829662323,4.220629692077637,-0.08694083243608475
0.3608187139034271,4.241600036621094,-0.0872204527258873
0.47029444575309753,5.110145092010498,-0.10490194708108902
0.5038161873817444,5.087331771850586,-0.10426001250743866
0.47956305742263794,4.516641139984131,-0.0924115851521492
0.5184370875358582,4.579171657562256,-0.09354102611541748
0.5565361380577087,4.629777908325195,-0.09435085207223892
0.5948216319084167,4.676205635070801,-0.09507527947425842
0.645290195941925,4.807467460632324,-0.09751977026462555
0.697873592376709,4.934267520904541,-0.09986065328121185
0.7390509247779846,4.975659370422363,-0.10047359019517899
0.7721083760261536,4.962739944458008,-0.09993123263120651
0.8011929392814636,4.926484107971191,-0.09889981895685196
0.8311226963996887,4.897765159606934,-0.09802766889333725
0.8650872111320496,4.891888618469238,-0.097616046667099
0.8968057036399841,4.870297431945801,-0.09689118713140488
0.9267838597297668,4.844810485839844,-0.09607190638780594
0.9568962454795837,4.823037147521973,-0.0952971875667572
0.9867539405822754,4.801078796386719,-0.09452544152736664
1.0166999101638794,4.778864860534668,-0.09375178813934326
1.0471134185791016,4.756308078765869,-0.09297074377536774
1.078302264213562,4.741333484649658,-0.09233437478542328
1.1062226295471191,4.7148518562316895,-0.09143103659152985
1.1347497701644897,4.692006587982178,-0.09060531854629517
1.1651525497436523,4.676509857177734,-0.08992466330528259
1.1962611675262451,4.660595893859863,-0.08923136442899704
1.2245535850524902,4.637096405029297,-0.08839771151542664
1.251994013786316,4.613589286804199,-0.08751101046800613
1.2791712284088135,4.58992338180542,-0.08662822842597961
1.3052868843078613,4.562268257141113,-0.08567355573177338
1.3353283405303955,4.545436859130859,-0.08491574227809906
1.3646115064620972,4.528585433959961,-0.0841650441288948
1.3907020092010498,4.504305362701416,-0.08323658257722855
1.4212743043899536,4.494764804840088,-0.08258529752492905
1.4448657035827637,4.462623596191406,-0.08152028918266296
1.4763951301574707,4.452304363250732,-0.08084564656019211
1.5021401643753052,4.427202224731445,-0.07990449666976929
1.5179287195205688,4.376378536224365,-0.07846089452505112
1.2826144695281982,3.6187217235565186,-0.06444262713193893
1.3047815561294556,3.602492094039917,-0.06371481716632843
1.6049680709838867,4.336923599243164,-0.07617062330245972
1.6297029256820679,4.311004161834717,-0.07516075670719147
1.655893325805664,4.292654037475586,-0.07427583634853363
1.6876312494277954,4.288684844970703,-0.07364311814308167
1.7085667848587036,4.255157947540283,-0.07249229401350021
1.7366224527359009,4.239577770233154,-0.07165214419364929
1.7702690362930298,4.238353729248047,-0.07100909948348999
1.790995717048645,4.20843505859375,-0.06988794356584549
1.8226308822631836,4.203360557556152,-0.06917630881071091
1.8455486297607422,4.176287651062012,-0.06809071451425552
1.874284267425537,4.163484573364258,-0.06723262369632721
1.8960641622543335,4.13644552230835,-0.06610886007547379
1.9204107522964478,4.116593837738037,-0.06511768698692322
1.9455128908157349,4.096158027648926,-0.06409960985183716
1.9671142101287842,4.068495750427246,-0.06297291815280914
1.990692138671875,4.048322677612305,-0.06194497272372246
2.0180039405822754,4.034791469573975,-0.061008501797914505
2.0456199645996094,4.020875453948975,-0.060058366507291794
2.073479413986206,4.006594181060791,-0.059096504002809525
2.100152015686035,3.9926917552948,-0.058122530579566956
2.126469373703003,3.9787518978118896,-0.057145942002534866
2.140545129776001,3.9401233196258545,-0.05579545348882675
2.1683812141418457,3.9248876571655273,-0.05475488305091858
2.1943306922912598,3.9104533195495605,-0.05372486636042595
2.2199831008911133,3.8959615230560303,-0.052693743258714676
2.246718645095825,3.880620002746582,-0.05161497741937637
2.2694931030273438,3.8582987785339355,-0.05043385922908783
2.2950356006622314,3.843174934387207,-0.04930559918284416
2.3203859329223633,3.827936887741089,-0.04818137735128403
2.342829704284668,3.8050851821899414,-0.04691755026578903
2.372264862060547,3.7960336208343506,-0.04582839459180832
2.3800272941589355,3.7542383670806885,-0.04435268044471741
2.4103801250457764,3.7441320419311523,-0.043181754648685455
2.43579363822937,3.727663516998291,-0.04193511977791786
2.4597089290618896,3.711940050125122,-0.04069128260016441
2.4890120029449463,3.701786994934082,-0.03945736959576607
2.505255937576294,3.6719274520874023,-0.03798520937561989
2.5288360118865967,3.6557419300079346,-0.03664107620716095
2.5489747524261475,3.632202625274658,-0.035168927162885666
2.5730364322662354,3.615211248397827,-0.03372432664036751
2.595641613006592,3.5990288257598877,-0.032280296087265015
2.6205496788024902,3.5809473991394043,-0.030681513249874115
2.1798999309539795,2.9401025772094727,-0.024017242714762688
2.593536376953125,3.6294357776641846,0.026978304609656334
2.561453342437744,3.6425914764404297,0.02838747948408127
2.531334400177002,3.6540753841400146,0.02967466413974762
2.507509231567383,3.679912567138672,0.03105871006846428
2.4897208213806152,3.7107908725738525,0.03241376578807831
2.454352378845215,3.7155559062957764,0.03350606933236122
2.4255499839782715,3.7344107627868652,0.034737687557935715
2.3991658687591553,3.7514050006866455,0.03586048632860184
2.3637843132019043,3.7553391456604004,0.0368301123380661
2.331310272216797,3.766389846801758,0.03784489259123802
2.3085949420928955,3.7894959449768066,0.038930002599954605
2.281381845474243,3.8059303760528564,0.03994198516011238
2.252967596054077,3.8228089809417725,0.04092336818575859
2.2290470600128174,3.845828056335449,0.041954442858695984
2.2021350860595703,3.861290693283081,0.042876098304986954
2.1777331829071045,3.884054183959961,0.04386026784777641
2.144535779953003,3.893555164337158,0.044701069593429565
2.135655403137207,3.9429032802581787,0.04595654830336571
2.1081950664520264,3.957643747329712,0.04680773988366127
2.0826668739318848,3.9799461364746094,0.04772527515888214
2.05513858795166,3.998612403869629,0.048603497445583344
2.033726692199707,4.0270466804504395,0.049583714455366135
2.0125272274017334,4.0551228523254395,0.050550676882267
1.9999325275421143,4.104833602905273,0.0517609678208828
1.981662631034851,4.144002914428711,0.05284968763589859
1.9692150354385376,4.193115711212158,0.05405089631676674
1.958001732826233,4.245715618133545,0.05530614033341408
1.942780613899231,4.295598030090332,0.056510649621486664
1.9209867715835571,4.331028938293457,0.05752153694629669
1.8965129852294922,4.3588361740112305,0.05842399224638939
1.8661543130874634,4.371910095214844,0.05912422388792038
1.8395639657974243,4.3958611488342285,0.05994817242026329
1.8101264238357544,4.41649866104126,0.060716163367033005
1.7841498851776123,4.443887233734131,0.06157127767801285
1.7503076791763306,4.448923587799072,0.0621054545044899
1.7277189493179321,4.482860565185547,0.0630476176738739
1.6981364488601685,4.502490997314453,0.06374786794185638
1.3325709104537964,3.6133275032043457,0.05150594934821129
1.3029766082763672,3.611643075942993,0.05181749537587166
1.275227665901184,3.6132445335388184,0.05217105150222778
1.5823465585708618,4.585782051086426,0.06661954522132874
1.5494110584259033,4.5970072746276855,0.06714984029531479
1.519458293914795,4.619323253631592,0.06785324215888977
1.4917430877685547,4.644752502441406,0.0685935840010643
1.4616917371749878,4.662476539611816,0.06922207027673721
1.4333999156951904,4.687583923339844,0.06994744390249252
1.4042737483978271,4.71268892288208,0.07065044343471527
1.3748613595962524,4.737616539001465,0.07135649025440216
1.3463951349258423,4.766074180603027,0.0721200630068779
1.315297245979309,4.7828450202941895,0.07270421087741852
1.2837871313095093,4.7994794845581055,0.07326526194810867
1.2515572309494019,4.816050052642822,0.07378584146499634
1.2287551164627075,4.870264530181885,0.07488951832056046
1.1957813501358032,4.886501312255859,0.07541739195585251
1.1617724895477295,4.8946919441223145,0.0758177861571312
1.1319481134414673,4.92171049118042,0.07650311291217804
1.1037530899047852,4.96012020111084,0.07732649147510529
1.0701875686645508,4.975455284118652,0.07779546827077866
1.032913088798523,4.975343704223633,0.07802929729223251
1.004432201385498,5.013037204742432,0.07885392755270004
0.9680233001708984,5.012234210968018,0.07907819002866745
0.955405056476593,5.1418280601501465,0.08130063861608505
0.9217920303344727,5.163825988769531,0.08182532340288162
0.8820090889930725,5.154916286468506,0.08186746388673782
1.807300329208374,11.023323059082031,0.1754530519247055
1.7020677328109741,10.854276657104492,0.17315132915973663
1.6144423484802246,10.788667678833008,0.172420471906662
1.5092211961746216,10.594827651977539,0.1695813089609146
1.4170262813568115,10.48537826538086,0.16809804737567902
1.326380968093872,10.359419822692871,0.16634507477283478
1.2402044534683228,10.252066612243652,0.16489125788211823
1.1516284942626953,10.109092712402344,0.16285017132759094
1.0710617303848267,10.027603149414062,0.16168780624866486
0.9998351335525513,10.027100563049316,0.16183780133724213
0.40191325545310974,4.3441643714904785,0.07018796354532242
0.36336877942085266,4.249564170837402,0.06873243302106857
0.3325793743133545,4.236412048339844,0.06859561800956726
0.3046228885650635,4.262007236480713,0.06905645877122879
0.2767947316169739,4.295214653015137,0.06962266564369202
0.24484209716320038,4.273681163787842,0.06930558383464813
0.21387173235416412,4.251878261566162,0.06898646801710129
0.18177764117717743,4.194729804992676,0.06809642910957336
0.15062621235847473,4.141246795654297,0.06726544350385666
0.06252120435237885,2.1277074813842773,0.03455477952957153
0.09191954880952835,4.12343168258667,0.06695931404829025
0.06403151899576187,4.182552337646484,0.0679159089922905
0.03463064879179001,4.143840312957764,0.06728716939687729
0.002844342729076743,2.0231685638427734,0.03285348787903786
-0.011626020073890686,2.0934417247772217,0.03398316353559494
-0.027570439502596855,2.1831326484680176,0.03541111201047897
-0.07676033675670624,3.9206085205078125,0.06354722380638123
-0.10203059017658234,3.8457987308502197,0.062292229384183884
-0.12721708416938782,3.798153877258301,0.061481501907110214
-0.15186691284179688,3.75425124168396,0.06073525920510292
-0.17676082253456116,3.7297022342681885,0.060270555317401886
-0.19413286447525024,3.5645663738250732,0.05753437802195549
-0.21689586341381073,3.5319509506225586,0.0569448284804821
-0.24354799091815948,3.5615341663360596,0.0573606863617897
-0.2720888555049896,3.6103897094726562,0.05808832868933678
-0.29518023133277893,3.5850634574890137,0.05760955810546875
-0.3196551203727722,3.5751235485076904,0.05734319984912872
