X,Y,Z
1.1149473190307617,2.627580165863037,-0.0800984799861908
1.136028528213501,2.627074956893921,-0.0793379470705986
1.1511151790618896,2.611997604370117,-0.07813039422035217
1.1625683307647705,2.589838743209839,-0.07670128345489502
1.1769160032272339,2.574796438217163,-0.07545054703950882
1.1893348693847656,2.556199073791504,-0.07411067187786102
1.1836656332015991,2.4984967708587646,-0.07163648307323456
1.1941092014312744,2.476222038269043,-0.07019629329442978
1.2105598449707031,2.4682514667510986,-0.06913638114929199
1.2150803804397583,2.435548782348633,-0.06737863272428513
1.2249183654785156,2.4131412506103516,-0.0659015029668808
1.2380424737930298,2.397677421569824,-0.06462311744689941
1.2429919242858887,2.368715286254883,-0.06296975910663605
1.2513185739517212,2.346667766571045,-0.06151400879025459
1.262026309967041,2.3276379108428955,-0.06010651960968971
1.278334140777588,2.318751573562622,-0.05894739553332329
1.2821316719055176,2.289865016937256,-0.05727921798825264
1.3108731508255005,2.3050646781921387,-0.056704118847846985
1.317095160484314,2.2790191173553467,-0.055072858929634094
1.328552484512329,2.263335943222046,-0.053700175136327744
1.3435746431350708,2.2544796466827393,-0.05247127264738083
1.346724033355713,2.225283145904541,-0.050758808851242065
1.3539807796478271,2.2025868892669678,-0.049188338220119476
1.3724578619003296,2.2003610134124756,-0.048062559217214584
1.3785630464553833,2.178102493286133,-0.04648756608366966
1.3896836042404175,2.161773204803467,-0.044972583651542664
1.399664044380188,2.1460320949554443,-0.0434940904378891
1.3983670473098755,2.114201545715332,-0.0417017862200737
1.4130243062973022,2.104461431503296,-0.04026800021529198
1.4093223810195923,2.0692715644836426,-0.03835844621062279
1.4317090511322021,2.0728886127471924,-0.03713926300406456
1.4550302028656006,2.0757219791412354,-0.03581255301833153
1.4276323318481445,2.0090322494506836,-0.033317599445581436
1.4681718349456787,2.0376839637756348,-0.032358624041080475
1.4635765552520752,2.002436399459839,-0.030289946123957634
1.4713276624679565,1.987060308456421,-0.028547797352075577
3.1773016452789307,4.445682048797607,0.07197393476963043
3.15488600730896,4.480682849884033,0.0755961611866951
2.611872911453247,3.7688956260681152,0.06608574837446213
2.5969841480255127,3.8075222969055176,0.06915877014398575
3.1564531326293945,4.697490215301514,0.08806274831295013
3.120692491531372,4.721263408660889,0.0912012830376625
3.1006767749786377,4.767021656036377,0.09470236301422119
3.0924384593963623,4.828063488006592,0.09839919209480286
1.6298967599868774,2.587568998336792,0.054027166217565536
1.6152197122573853,2.605919361114502,0.055645786225795746
1.5930311679840088,2.610365390777588,0.056918125599622726
2.865365982055664,4.775643825531006,0.10623729974031448
2.738795757293701,4.641849517822266,0.10522236675024033
2.731895685195923,4.704665184020996,0.10851424932479858
2.7020339965820312,4.730822563171387,0.11096128821372986
2.4871015548706055,4.430599689483643,0.10560403019189835
2.4264838695526123,4.397246360778809,0.10643848776817322
2.419985294342041,4.458629131317139,0.10949990153312683
2.3764867782592773,4.455378532409668,0.11093413829803467
2.4177968502044678,4.6146039962768555,0.116441510617733
2.4674718379974365,4.791182994842529,0.12241864949464798
2.4017415046691895,4.745765209197998,0.12276790291070938
2.3377182483673096,4.70355749130249,0.12307249754667282
1.2089606523513794,2.477830648422241,0.06555906683206558
1.188063383102417,2.479235887527466,0.0662931352853775
1.1940361261367798,2.536898374557495,0.06853766739368439
1.1823632717132568,2.559551477432251,0.0698290467262268
1.168151617050171,2.5789098739624023,0.0710364356637001
1.1624168157577515,2.61569881439209,0.07271063327789307
1.1441833972930908,2.623701810836792,0.07357954233884811
1.1087933778762817,2.5921735763549805,0.0733177438378334
2.0274202823638916,4.836533546447754,0.1378764510154724
2.012425422668457,4.9018964767456055,0.14085209369659424
1.9884721040725708,4.941096305847168,0.14303629100322723
1.9740982055664062,5.005626678466797,0.14597700536251068
2.0184755325317383,5.227186679840088,0.15348275005817413
1.980684757232666,5.241580486297607,0.15492220222949982
1.9561511278152466,5.292391777038574,0.15745805203914642
1.9311444759368896,5.338912010192871,0.15984779596328735
1.909490942955017,5.39638090133667,0.16258767247200012
1.8553404808044434,5.3656439781188965,0.16256029903888702
1.8553580045700073,5.493514060974121,0.1673545092344284
1.912367343902588,5.799633979797363,0.17765481770038605
1.912691354751587,5.939113140106201,0.18289609253406525
1.8807177543640137,5.982024669647217,0.18518994748592377
1.352654218673706,4.412473201751709,0.1372155398130417
1.318814754486084,4.41452693939209,0.13789938390254974
1.2876336574554443,4.423694133758545,0.13880276679992676
1.2583986520767212,4.440187931060791,0.1399463713169098
1.2212468385696411,4.426224231719971,0.14012368023395538
1.7045855522155762,6.354269981384277,0.20191244781017303
1.6739948987960815,6.4229021072387695,0.20485633611679077
0.8257753849029541,3.262688636779785,0.10445026308298111
1.5754755735397339,6.4155449867248535,0.2061566859483719
0.7988773584365845,3.353685140609741,0.1081673726439476
1.466854453086853,6.357063293457031,0.2056795209646225
1.4004054069519043,6.272027015686035,0.20353302359580994
1.3493009805679321,6.251238822937012,0.20346876978874207
1.308122158050537,6.275909423828125,0.2048928439617157
1.2397680282592773,6.162350654602051,0.20179207623004913
1.1994307041168213,6.1862101554870605,0.20312140882015228
0.819084107875824,4.3906660079956055,0.14449791610240936
0.7851763367652893,4.380974292755127,0.14451740682125092
0.7579778432846069,4.409514904022217,0.1458069533109665
0.7247872948646545,4.399248123168945,0.14581306278705597
0.6954176425933838,4.411874294281006,0.1465827077627182
0.913452684879303,6.072892665863037,0.20209863781929016
0.8557164669036865,5.9748101234436035,0.19916771352291107
0.818238377571106,6.019442081451416,0.20100568234920502
0.7678691148757935,5.959144115447998,0.19933857023715973
0.7187934517860413,5.902323246002197,0.19779033958911896
0.5796476006507874,5.053884983062744,0.16960306465625763
0.555349588394165,5.162632942199707,0.1734437495470047
0.5217956304550171,5.1935882568359375,0.17468416690826416
0.38624075055122375,4.139841079711914,0.13941015303134918
0.35306593775749207,4.091854572296143,0.13796362280845642
0.33195292949676514,4.187610149383545,0.14137248694896698
0.30123382806777954,4.170356273651123,0.14087319374084473
0.2725357115268707,4.180149555206299,0.14128528535366058
0.24435141682624817,4.209260940551758,0.14235951006412506
0.3973037898540497,7.778380870819092,0.26324477791786194
0.34382855892181396,7.796550273895264,0.26404860615730286
0.2876809537410736,7.748029708862305,0.26254376769065857
0.2326875776052475,7.7186279296875,0.2615499198436737
0.17695105075836182,7.68105411529541,0.2602921724319458
0.12333220988512039,7.670386791229248,0.25995853543281555
0.06969647109508514,7.632017612457275,0.2586982846260071
0.01663382537662983,7.608891487121582,0.25796687602996826
-0.0361374132335186,7.593209743499756,0.2573767900466919
-0.08935524523258209,7.557636260986328,0.25605231523513794
-0.14132604002952576,7.533419132232666,0.25512802600860596
-0.19291286170482635,7.501036167144775,0.25393998622894287
-0.24469369649887085,7.487812042236328,0.25341328978538513
-0.29614531993865967,7.470329284667969,0.25275498628616333
-0.34827160835266113,7.4759087562561035,0.25268644094467163
-0.290149450302124,5.407112121582031,0.18257452547550201
-0.32855406403541565,5.420567512512207,0.18285413086414337
-0.365159809589386,5.402581691741943,0.182081401348114
-0.3814985454082489,5.115715503692627,0.1722642481327057
-0.40617239475250244,4.980658054351807,0.1675400286912918
-0.43840572237968445,4.946582317352295,0.16613394021987915
-0.44318073987960815,4.636428356170654,0.15548528730869293
-0.47485509514808655,4.629378795623779,0.1550237238407135
-0.5053125619888306,4.610454559326172,0.15417198836803436
-0.5354852080345154,4.591336727142334,0.15332293510437012
-0.2843268811702728,2.297614336013794,0.0765814334154129
-0.5951488018035889,4.552516937255859,0.15142613649368286
-0.3126727342605591,2.2702999114990234,0.07536203414201736
-0.6540347337722778,4.516847610473633,0.14963513612747192
-0.6842270493507385,4.504490375518799,0.14893223345279694
-0.7147531509399414,4.491856098175049,0.14821240305900574
-0.7442306280136108,4.4791693687438965,0.14741250872612
-0.7722352743148804,4.458595275878906,0.14636191725730896
-0.8015055060386658,4.445510387420654,0.14556445181369781
-0.8252150416374207,4.4014716148376465,0.14376011490821838
-0.850589394569397,4.36881685256958,0.14233990013599396
-0.7428231239318848,3.6777377128601074,0.11946863681077957
-0.7679440379142761,3.6725919246673584,0.11891801655292511
-0.7913788557052612,3.6596429347991943,0.11812103539705276
-0.9674164056777954,4.328523635864258,0.13926339149475098
-0.9921583533287048,4.29890251159668,0.13787057995796204
-1.0223829746246338,4.291836738586426,0.13718657195568085
-1.053392767906189,4.29239559173584,0.13668064773082733
-1.0720254182815552,4.2435197830200195,0.13461104035377502
-1.0991528034210205,4.228530406951904,0.13362374901771545
-1.1355104446411133,4.2472333908081055,0.13369977474212646
-1.162378191947937,4.227836608886719,0.13257165253162384
-1.192161202430725,4.223618507385254,0.13185012340545654
-1.2174395322799683,4.204235076904297,0.13064630329608917
-1.2393254041671753,4.173429489135742,0.12909521162509918
-1.2706173658370972,4.1722002029418945,0.12845318019390106
-1.290798306465149,4.133315086364746,0.1266513168811798
-1.3261686563491821,4.146734237670898,0.1264161616563797
-1.3517330884933472,4.130284309387207,0.12524360418319702
-1.379686713218689,4.121059417724609,0.12429538369178772
-1.4056915044784546,4.104036808013916,0.12310361117124557
-1.4341082572937012,4.0942230224609375,0.12213516980409622
-1.451913833618164,4.054808139801025,0.12023625522851944
-1.4790529012680054,4.045018672943115,0.11920276284217834
-1.5034629106521606,4.027704238891602,0.11795239895582199
-1.5314693450927734,4.017170429229736,0.11688052862882614
-1.5551527738571167,3.9955248832702637,0.11549311131238937
-1.5871154069900513,3.9955766201019287,0.11467787623405457
-1.6168214082717896,3.9921083450317383,0.1137508898973465
-1.6273729801177979,3.9414191246032715,0.11148431897163391
-1.6638010740280151,3.9516475200653076,0.11092701554298401
-1.6850464344024658,3.925675392150879,0.10935729742050171
-1.7023932933807373,3.8926591873168945,0.10752157866954803
-1.7314660549163818,3.888399362564087,0.10649663209915161
-1.754711389541626,3.8694252967834473,0.10505232214927673
-1.7750135660171509,3.842989206314087,0.10339760780334473
-1.8012995719909668,3.830773115158081,0.10211843252182007
-1.8136566877365112,3.7903692722320557,0.1000492051243782
-1.8422775268554688,3.7852635383605957,0.09893599152565002
-1.8685405254364014,3.7724037170410156,0.0975801944732666
-1.894741415977478,3.7593469619750977,0.09622292965650558
-1.9159904718399048,3.739824056625366,0.0946442112326622
-1.9442156553268433,3.734072208404541,0.09341499209403992
-1.6870394945144653,3.185452461242676,0.07870423048734665
-1.688825249671936,3.1358284950256348,0.07651002705097198
-1.698408842086792,3.1039950847625732,0.07474304735660553
-1.7225821018218994,3.099614381790161,0.07363773882389069
-1.7360734939575195,3.0741817951202393,0.07199736684560776
-0.7874763011932373,1.3717516660690308,0.031647518277168274
-0.7787501811981201,1.3362071514129639,0.030352573841810226
-0.7794609069824219,1.3176871538162231,0.029459115117788315
-0.8489294052124023,1.4126931428909302,0.03103933110833168
-0.8952618837356567,1.4668351411819458,0.03165746480226517
-0.8966972827911377,1.4476286172866821,0.030655892565846443
-0.889678418636322,1.4151942729949951,0.029387161135673523
-0.8763893842697144,1.3727703094482422,0.02791191264986992
-2.4188408851623535,3.5743837356567383,0.06595605611801147
-1.3743512630462646,2.0033087730407715,0.035960130393505096
-1.3970919847488403,2.006606101989746,0.034918446093797684
-1.2956485748291016,1.8393504619598389,-0.024185730144381523
-1.3526631593704224,1.951974868774414,-0.02686101570725441
-1.2927515506744385,1.8936114311218262,-0.02710101753473282
-1.3092910051345825,1.9484376907348633,-0.02893982268869877
-1.3400269746780396,2.0265088081359863,-0.031159253790974617
-1.1913673877716064,1.8297218084335327,-0.02903912216424942
-0.8751183748245239,1.433484435081482,-0.025305379182100296
-0.8482750058174133,1.4131962060928345,-0.025538364425301552
-0.8006799817085266,1.3551570177078247,-0.02501235157251358
-0.7948544025421143,1.3676131963729858,-0.02576020359992981
-0.80409836769104,1.407352089881897,-0.027032887563109398
-0.9070561528205872,1.613857626914978,-0.03156983479857445
-1.6059767007827759,2.905506134033203,-0.05786220356822014
-1.6348650455474854,3.009897232055664,-0.06093776598572731
-1.594521403312683,2.9872376918792725,-0.06145203113555908
-1.609993815422058,3.0674026012420654,-0.06405238807201385
-1.618693232536316,3.1376965045928955,-0.06648162752389908
-1.591740369796753,3.1426758766174316,-0.06754706799983978
-1.5726416110992432,3.160978078842163,-0.06886645406484604
-1.550642490386963,3.1718029975891113,-0.0699995756149292
-1.524776816368103,3.175631284713745,-0.07095587253570557
-1.5049974918365479,3.193665027618408,-0.07220074534416199
-1.4854116439819336,3.211405038833618,-0.07343288511037827
-1.469042420387268,3.23606538772583,-0.07482652366161346
-1.4461413621902466,3.246340036392212,-0.07586396485567093
-1.4225538969039917,3.256721258163452,-0.0768745169043541
-1.396040439605713,3.259655714035034,-0.07770438492298126
-1.376451015472412,3.2764265537261963,-0.07884057611227036
-1.3562185764312744,3.2932777404785156,-0.07999548316001892
-1.3296022415161133,3.295670509338379,-0.08073034137487411
-1.3058916330337524,3.305114984512329,-0.08164060860872269
-1.2869946956634521,3.3250629901885986,-0.08279802650213242
-1.2666035890579224,3.3412156105041504,-0.08386559784412384
-1.2397323846817017,3.342928171157837,-0.08454961329698563
-1.2183775901794434,3.359058380126953,-0.08556855469942093
-1.1997123956680298,3.3823275566101074,-0.08677146583795547
-1.1761560440063477,3.3905699253082275,-0.08758324384689331
-1.1524921655654907,3.398665189743042,-0.0883939191699028
-1.1301859617233276,3.414355754852295,-0.08935409784317017
-1.1081414222717285,3.429762840270996,-0.09030437469482422
-1.074677586555481,3.407632827758789,-0.090256467461586
-1.064748764038086,3.4597880840301514,-0.09217840433120728
-1.2447726726531982,4.147852897644043,-0.11113393306732178
-1.2173755168914795,4.164092063903809,-0.11214065551757812
-1.1850714683532715,4.165259838104248,-0.1127561628818512
-1.1622207164764404,4.195988655090332,-0.11415889114141464
-1.1421191692352295,4.237891674041748,-0.11587749421596527
-1.1113322973251343,4.242012023925781,-0.11652569472789764
-1.0898159742355347,4.283843517303467,-0.1181698590517044
-1.0662970542907715,4.321920394897461,-0.119732566177845
-1.038084864616394,4.336794376373291,-0.12064247578382492
-1.0140924453735352,4.37051248550415,-0.12208697944879532
-0.9808679223060608,4.36606502532959,-0.12242130935192108
-0.9557923078536987,4.399580955505371,-0.12378296256065369
-0.925733208656311,4.413965225219727,-0.12462342530488968
-0.8949888348579407,4.420284748077393,-0.12522907555103302
-0.8657371401786804,4.434047222137451,-0.1260518580675125
-0.8390020132064819,4.463008403778076,-0.1272667944431305
-0.8074617981910706,4.468808174133301,-0.12777824699878693
-0.7753575444221497,4.474474906921387,-0.12829817831516266
-0.7467010021209717,4.49516487121582,-0.1292460858821869
-0.7184473872184753,4.519522666931152,-0.13030800223350525
-0.6880002617835999,4.532142639160156,-0.13099898397922516
-0.6549466252326965,4.529135227203369,-0.13117334246635437
-0.6277652978897095,4.572386741638184,-0.13270075619220734
-0.5958395004272461,4.576645374298096,-0.1330980360507965
-0.5658766031265259,4.596171855926514,-0.13394604623317719
-0.535622239112854,4.615508079528809,-0.13477730751037598
-0.5044774413108826,4.630790710449219,-0.13540761172771454
-0.47279152274131775,4.641973972320557,-0.1359252631664276
-0.45048314332962036,4.757935523986816,-0.13952547311782837
-0.4330642819404602,4.939869403839111,-0.14507552981376648
-0.39685624837875366,4.919397830963135,-0.1446947455406189
-0.36650142073631287,4.976560592651367,-0.14648157358169556
-0.3340553939342499,5.014058589935303,-0.1476896107196808
-0.2940497398376465,4.942242622375488,-0.14568588137626648
-0.25866812467575073,4.924665451049805,-0.14528366923332214
-0.22412365674972534,4.918536186218262,-0.1452253758907318
-0.1884014904499054,4.880956649780273,-0.1441722810268402
-0.1543634980916977,4.882150173187256,-0.14423106610774994
-0.11996617168188095,4.890925884246826,-0.14452148973941803
-0.08451053500175476,4.809658050537109,-0.14215707778930664
-0.05151735618710518,4.853074550628662,-0.14348460733890533
-0.017918363213539124,4.884551048278809,-0.144426167011261
0.015972569584846497,4.853323459625244,-0.14343921840190887
0.05041458085179329,4.860899448394775,-0.14360547065734863
0.08237103372812271,4.755026340484619,-0.14042913913726807
0.11565054953098297,4.762146472930908,-0.14059755206108093
0.15118257701396942,4.839282989501953,-0.14283780753612518
0.18383988738059998,4.814713478088379,-0.14195765554904938
0.21726453304290771,4.813326358795166,-0.14176839590072632
0.22153045237064362,4.242386341094971,-0.1248253881931305
0.24759776890277863,4.18228006362915,-0.12293945997953415
0.2772231101989746,4.188251972198486,-0.12300329655408859
0.30884191393852234,4.221282005310059,-0.12380211800336838
0.34272268414497375,4.277433395385742,-0.1252536028623581
0.4126039445400238,4.730024337768555,-0.1382928490638733
0.45424750447273254,4.82034969329834,-0.14072592556476593
0.47985929250717163,4.739390850067139,-0.13816452026367188
0.5109908580780029,4.720436096191406,-0.13737189769744873
0.5453094840049744,4.73232889175415,-0.13741110265254974
0.5880107283592224,4.805909633636475,-0.13923652470111847
0.6288648247718811,4.859811305999756,-0.1404935121536255
0.6695288419723511,4.9056243896484375,-0.14151592552661896
0.6847729086875916,4.769449710845947,-0.1372843235731125
0.7094577550888062,4.710580348968506,-0.13520649075508118
0.7253922820091248,4.597516059875488,-0.13158634305000305
0.7864208817481995,4.769622802734375,-0.13613355159759521
0.8368038535118103,4.864102840423584,-0.1384478509426117
0.8760964870452881,4.8889336585998535,-0.13877661526203156
0.9167864918708801,4.921210289001465,-0.13921645283699036
0.9505589008331299,4.9148173332214355,-0.1385570466518402
0.9849879741668701,4.908051490783691,-0.13788393139839172
1.0373899936676025,4.9890289306640625,-0.13967770338058472
1.086035966873169,5.046606540679932,-0.14080843329429626
1.1062577962875366,4.974251747131348,-0.138241708278656
1.149878978729248,5.008451461791992,-0.13862267136573792
1.1812670230865479,4.98511266708374,-0.13740234076976776
1.2344530820846558,5.0526628494262695,-0.1386898159980774
1.2695727348327637,5.043974876403809,-0.13788270950317383
1.2023742198944092,4.6420207023620605,-0.12630495429039001
1.2068902254104614,4.531848430633545,-0.12270700186491013
1.2250440120697021,4.474386215209961,-0.12054934352636337
1.261412262916565,4.484578609466553,-0.12022583186626434
0.8841004967689514,3.0613484382629395,-0.08166494220495224
0.8894669413566589,3.0028345584869385,-0.07966875284910202
0.8996428847312927,2.9631075859069824,-0.07817113399505615
0.9225529432296753,2.964251756668091,-0.07774893194437027
0.9336833953857422,2.9280073642730713,-0.07635269314050674
0.9467786550521851,2.899177074432373,-0.0751614049077034
0.9739341735839844,2.9148988723754883,-0.07508708536624908
0.9734840393066406,2.8491158485412598,-0.07291487604379654
1.0007036924362183,2.8645179271698,-0.07282531261444092
1.003875494003296,2.809572458267212,-0.07093920558691025
1.0206713676452637,2.795217514038086,-0.07009565085172653
1.0367909669876099,2.7809622287750244,-0.0692141205072403
1.0444097518920898,2.7447257041931152,-0.06779614835977554
1.0633305311203003,2.7374684810638428,-0.0670904666185379
1.0769201517105103,2.7153708934783936,-0.06601385027170181
1.079393744468689,2.668121337890625,-0.06433191895484924
1.091353178024292,2.6463797092437744,-0.06325836479663849
1.1092232465744019,2.6389570236206055,-0.06252980977296829
1.1337019205093384,2.645555019378662,-0.062117673456668854
1.1492905616760254,2.630316734313965,-0.06118365377187729
1.1541906595230103,2.594028949737549,-0.05974908545613289
1.1683212518692017,2.5791406631469727,-0.05881645157933235
1.174580454826355,2.546238660812378,-0.05746754631400108
1.185591697692871,2.5238988399505615,-0.056363191455602646
1.1827178001403809,2.473416328430176,-0.05461569502949715
1.1974353790283203,2.4619998931884766,-0.053744204342365265
1.2106863260269165,2.446816921234131,-0.05278172343969345
1.2241483926773071,2.4313855171203613,-0.051806192845106125
1.2442032098770142,2.4299802780151367,-0.051122069358825684
1.2386431694030762,2.3801252841949463,-0.04941845312714577
1.265941858291626,2.3922812938690186,-0.04898544028401375
1.2714357376098633,2.3628058433532715,-0.047694917768239975
1.2799031734466553,2.34045672416687,-0.04655177891254425
1.2877020835876465,2.3183372020721436,-0.04541470482945442
1.3225799798965454,2.3435888290405273,-0.045180801302194595
1.3099372386932373,2.2833950519561768,-0.04327739030122757
1.3250731229782104,2.2746620178222656,-0.04236885905265808
1.3239959478378296,2.2390811443328857,-0.040966521948575974
1.3353742361068726,2.2232236862182617,-0.039897117763757706
1.34656822681427,2.2073330879211426,-0.03882533311843872
1.3446770906448364,2.1718363761901855,-0.03739510849118233
1.3570677042007446,2.1595206260681152,-0.03636854514479637
1.367844820022583,2.1434662342071533,-0.03525080904364586
1.3860700130462646,2.14105486869812,-0.034350041300058365
1.40216064453125,2.135242462158203,-0.033378005027770996
1.4106993675231934,2.115557909011841,-0.03212178125977516
1.4201250076293945,2.099834442138672,-0.030949298292398453
1.44474196434021,2.1067140102386475,-0.030090099200606346
1.4258897304534912,2.048542022705078,-0.028248224407434464
3.146042585372925,4.4584856033325195,-0.059270795434713364
3.1667566299438477,4.424631595611572,-0.056476201862096786
3.1966941356658936,4.403084754943848,-0.053758714348077774
3.200810670852661,4.351731300354004,-0.050671882927417755
3.172057867050171,4.4688591957092285,0.053675152361392975
3.1207730770111084,4.466724395751953,0.05595185235142708
2.6160268783569336,3.8042569160461426,0.04950963333249092
2.5758166313171387,3.8032987117767334,0.051244210451841354
3.1292836666107178,4.697237491607666,0.06536266207695007
3.099681854248047,4.726138114929199,0.06771823018789291
3.089453935623169,4.7840256690979,0.07044278085231781
1.6270751953125,2.561893939971924,0.03870971128344536
1.6290510892868042,2.6067957878112793,0.04034774377942085
1.606709599494934,2.611440896987915,0.04132942855358124
2.9680075645446777,4.905884265899658,0.07930206507444382
1.5560123920440674,2.614694118499756,0.04311981424689293
1.4923579692840576,2.5479369163513184,0.0428115613758564
1.485138177871704,2.5792133808135986,0.0441276915371418
1.4389674663543701,2.542590856552124,0.044253747910261154
1.4287540912628174,2.5662245750427246,0.04537515342235565
1.4296236038208008,2.6103453636169434,0.046867452561855316
1.402940034866333,2.607039451599121,0.047486983239650726
1.3689197301864624,2.589756488800049,0.047849468886852264
2.4711668491363525,4.754819393157959,0.08901233226060867
2.4305551052093506,4.758143424987793,0.09021914005279541
2.3780179023742676,4.740934371948242,0.09097807854413986
1.1993446350097656,2.4351003170013428,0.04727964475750923
1.175260305404663,2.4294586181640625,0.047703418880701065
1.1548738479614258,2.4305567741394043,0.04824364185333252
1.1915427446365356,2.5557315349578857,0.051238708198070526
1.1761033535003662,2.571451187133789,0.05206624045968056
1.151792049407959,2.5653035640716553,0.052428148686885834
1.154396653175354,2.6196999549865723,0.054036062210798264
1.1320717334747314,2.6209049224853516,0.05453278124332428
1.0932297706604004,2.582282781600952,0.05417881906032562
1.0853989124298096,2.6151959896087646,0.05531379207968712
2.0047686100006104,4.927027225494385,0.10503546893596649
1.981562614440918,4.970033168792725,0.10675594955682755
2.0215859413146973,5.180930137634277,0.11208093911409378
1.9938383102416992,5.220921993255615,0.11373420059680939
1.9574847221374512,5.234637260437012,0.11479469388723373
1.9344170093536377,5.2847900390625,0.11666607111692429
1.9099122285842896,5.335172176361084,0.11850534379482269
1.8824220895767212,5.382160663604736,0.12026925384998322
1.838906168937683,5.380655288696289,0.12094050645828247
1.894220232963562,5.671111583709717,0.12819597125053406
1.938308596611023,5.940304756164551,0.13504552841186523
1.8911765813827515,5.93906307220459,0.13568612933158875
1.3684748411178589,4.408565998077393,0.10121263563632965
1.332642674446106,4.403194427490234,0.10157085955142975
1.3019599914550781,4.41234827041626,0.10225849598646164
1.2734118700027466,4.428783893585205,0.10312003642320633
1.2418955564498901,4.437710285186768,0.10375004261732101
1.715794563293457,6.304159164428711,0.14797289669513702
1.6932510137557983,6.4031829833984375,0.15090470016002655
1.6505465507507324,6.422367572784424,0.15195071697235107
0.8133147358894348,3.258516311645508,0.07739879935979843
1.5409809350967407,6.365147113800049,0.15170980989933014
0.7875044345855713,3.357156991958618,0.08027572184801102
1.4244935512542725,6.276109218597412,0.1505717635154724
1.382449746131897,6.293483734130859,0.15147647261619568
1.3280638456344604,6.253276824951172,0.15099932253360748
1.284155011177063,6.262425422668457,0.1516636610031128
1.2261850833892822,6.202381610870361,0.15059012174606323
1.178534984588623,6.195696830749512,0.15082179009914398
0.806237518787384,4.406020164489746,0.10753202438354492
0.7722060680389404,4.39227819442749,0.10747507214546204
0.7376717925071716,4.3744401931762695,0.10731185972690582
0.7105290293693542,4.402658939361572,0.10819776356220245
0.6842142939567566,4.442380905151367,0.10937818139791489
0.8850809335708618,6.027297496795654,0.14867852628231049
0.8339889645576477,5.9675445556640625,0.14748303592205048
0.7971245050430298,6.008025169372559,0.14877046644687653
0.7477661967277527,5.955327033996582,0.1476897895336151
0.48546096682548523,4.09900426864624,0.10178755223751068
0.4652031660079956,4.183868885040283,0.10403904318809509
0.43483293056488037,4.175350189208984,0.10397220402956009
0.3996974229812622,4.116084098815918,0.10264409333467484
0.3671727776527405,4.075979709625244,0.10178425908088684
0.3401728570461273,4.097911834716797,0.10240668803453445
0.3150586187839508,4.154745101928711,0.10390915721654892
0.27766451239585876,4.036074161529541,0.10102447122335434
0.2486434429883957,4.022313117980957,0.10076718777418137
0.22068245708942413,4.023940086364746,0.10089997202157974
0.19417844712734222,4.056580066680908,0.10176385194063187
0.3160676062107086,7.756749629974365,0.19460631906986237
0.2608729600906372,7.727541923522949,0.19390223920345306
0.20667046308517456,7.7135539054870605,0.19358918070793152
0.15259575843811035,7.691376209259033,0.19307966530323029
0.09876324981451035,7.657105922698975,0.19227541983127594
0.044337306171655655,7.6263747215271,0.19144117832183838
-0.008674261160194874,7.5874505043029785,0.19040679931640625
-0.061226099729537964,7.567683696746826,0.18986289203166962
-0.11363644152879715,7.55145788192749,0.18941713869571686
-0.16523486375808716,7.511446475982666,0.18838419020175934
-0.2169170081615448,7.494507789611816,0.1878858059644699
-0.2693769633769989,7.481088161468506,0.18737775087356567
-0.3212122321128845,7.4790472984313965,0.18716713786125183
-0.3752461075782776,7.519545555114746,0.18802902102470398
-0.308920681476593,5.430935382843018,0.13569922745227814
-0.3466542363166809,5.428660869598389,0.1355457454919815
-0.37689095735549927,5.313126564025879,0.13249358534812927
-0.3927246034145355,5.041762828826904,0.12554936110973358
-0.421943336725235,4.972786903381348,0.12366289645433426
-0.4303703010082245,4.68587064743042,0.11637353897094727
-0.4571610987186432,4.624480247497559,0.11470174789428711
-0.4897841215133667,4.621145248413086,0.11446195095777512
-0.5189311504364014,4.594391345977783,0.11357752233743668
-0.5487075448036194,4.575206279754639,0.11288709193468094
-0.578288197517395,4.555824279785156,0.11219832301139832
-0.6078898906707764,4.536217212677002,0.11150908470153809
-0.6388610601425171,4.524078845977783,0.11100660264492035
-0.667178213596344,4.500260353088379,0.11017904430627823
-0.6980810165405273,4.495580196380615,0.1097928062081337
-0.7239029407501221,4.4598565101623535,0.10865580290555954
-0.7548235654830933,4.454737186431885,0.10826849937438965
-0.7857928276062012,4.44938850402832,0.1078801304101944
-0.8101183772087097,4.405332565307617,0.10654747486114502
-0.8365951776504517,4.3805155754089355,0.1056133508682251
-0.7307368516921997,3.688995838165283,0.08866319805383682
-0.7529374361038208,3.668593406677246,0.08789890259504318
-0.7783780097961426,3.6632895469665527,0.08749909698963165
-0.9417986869812012,4.283213138580322,0.10198542475700378
-0.9840847849845886,4.333798408508301,0.10282713174819946
-1.0100032091140747,4.311801910400391,0.10192593187093735
-1.0357072353363037,4.289644718170166,0.10102780908346176
-1.0588375329971313,4.255842208862305,0.09985732287168503
-1.0791443586349487,4.210448741912842,0.09841904789209366
-1.1180460453033447,4.24069881439209,0.09873682260513306
-1.1498743295669556,4.244332790374756,0.09839224070310593
-1.1786249876022339,4.236452579498291,0.09778468310832977
-1.1981613636016846,4.194441795349121,0.0963900163769722
-1.2277756929397583,4.185883522033691,0.09576176106929779
-1.2589837312698364,4.184774398803711,0.09530492126941681
-1.282673954963684,4.161245822906494,0.09428149461746216
-1.3107699155807495,4.152496337890625,0.09359963983297348
-1.329632043838501,4.113689422607422,0.0922405868768692
-1.3660616874694824,4.126441955566406,0.0920281857252121
-1.3846046924591064,4.087298393249512,0.09066947549581528
-1.4095739126205444,4.070506572723389,0.08975544571876526
-1.4447675943374634,4.083029747009277,0.0894906222820282
-1.464709758758545,4.051027297973633,0.0882451981306076
-1.4901044368743896,4.033445835113525,0.08731400966644287
-1.5212124586105347,4.0301833152771,0.08668113499879837
-1.54537832736969,4.012627601623535,0.08570313453674316
-1.569409966468811,3.9949159622192383,0.08472712337970734
-1.5997045040130615,3.991316080093384,0.08404041826725006
-1.61704683303833,3.9548192024230957,0.08266057819128036
-1.6385785341262817,3.929044008255005,0.08148841559886932
-1.6617369651794434,3.9108383655548096,0.08045648038387299
-1.6940335035324097,3.914004325866699,0.07986661791801453
-1.711702823638916,3.8807296752929688,0.07851270586252213
-1.72902250289917,3.847385883331299,0.07716787606477737
-1.7553844451904297,3.835448741912842,0.07621792703866959
-1.7775951623916626,3.8166091442108154,0.07513529062271118
-1.8034369945526123,3.804485321044922,0.07417672127485275
-1.8366438150405884,3.805939197540283,0.07346522063016891
-1.5459463596343994,3.148203134536743,0.06014510616660118
-1.5531489849090576,3.1097850799560547,0.05875491350889206
-1.5844186544418335,3.1202914714813232,0.05830095708370209
-1.928763508796692,3.7338154315948486,0.0689450204372406
-1.9764235019683838,3.7618532180786133,0.06863284856081009
-1.6590774059295654,3.1078829765319824,0.05599214881658554
-1.6869885921478271,3.1106226444244385,0.05532890558242798
-1.7088810205459595,3.0986666679382324,0.05435439944267273
-1.6633936166763306,2.9675629138946533,0.051333218812942505
-0.8268724083900452,1.4528710842132568,0.02476528473198414
-0.7621239423751831,1.3189157247543335,0.022145919501781464
-0.7752583026885986,1.3203126192092896,0.02180994115769863
-0.798445999622345,1.3383668661117554,0.021733129397034645
-0.8738975524902344,1.443408727645874,0.023032834753394127
-0.8958218693733215,1.4574941396713257,0.022833220660686493
-0.8935312628746033,1.4313541650772095,0.02198837883770466
-0.8945717811584473,1.4122519493103027,0.021258492022752762
-1.24834144115448,1.805684208869934,0.023344600573182106
-1.2641791105270386,1.8041894435882568,0.02262127585709095
-1.4910703897476196,2.0114150047302246,0.021556776016950607
-1.6824839115142822,2.407824754714966,-0.023107312619686127
-1.3972231149673462,2.030470371246338,-0.020319879055023193
-1.4624571800231934,2.160914421081543,-0.02250400185585022
-1.2480419874191284,1.872026801109314,-0.02017366886138916
-1.1806730031967163,1.799498200416565,-0.020037101581692696
-0.8780859708786011,1.4042218923568726,-0.01702839881181717
-0.8717694878578186,1.417325496673584,-0.017619408667087555
-0.878062903881073,1.4500861167907715,-0.01844022423028946
-0.8135988712310791,1.3657763004302979,-0.01775243878364563
-0.7580047249794006,1.2942694425582886,-0.01718265563249588
-0.764360785484314,1.3267087936401367,-0.017964081838726997
-0.8359730839729309,1.474726915359497,-0.020343586802482605
-1.6483080387115479,2.9582462310791016,-0.041527122259140015
-1.660650610923767,3.0317373275756836,-0.043279264122247696
-1.5968520641326904,2.9641470909118652,-0.04299085959792137
-1.5879732370376587,2.9998717308044434,-0.04419151321053505
-1.6289074420928955,3.132761240005493,-0.04683391749858856
-1.6066174507141113,3.144238233566284,-0.047665853053331375
-1.5847454071044922,3.155306577682495,-0.04847926273941994
-1.5621024370193481,3.16656494140625,-0.049279846251010895
-1.5385940074920654,3.178041458129883,-0.05008770897984505
-1.5127506256103516,3.1817638874053955,-0.05074533447623253
-1.4971448183059692,3.2063755989074707,-0.05173197388648987
-1.4741837978363037,3.2169852256774902,-0.05247081071138382
-1.4507800340652466,3.227595329284668,-0.05319617688655853
-1.4278357028961182,3.2377991676330566,-0.053905025124549866
-1.407969355583191,3.254988193511963,-0.054732922464609146
-1.387995958328247,3.272030830383301,-0.055539075285196304
-1.3613102436065674,3.2747535705566406,-0.056084271520376205
-1.340755820274353,3.291647434234619,-0.05687076598405838
-1.3178558349609375,3.3008713722229004,-0.057513490319252014
-1.2973097562789917,3.317377805709839,-0.05829489976167679
-1.2706531286239624,3.319305658340454,-0.05877010151743889
-1.250859260559082,3.3393197059631348,-0.059569552540779114
-1.2301223278045654,3.3553247451782227,-0.06029139459133148
-1.2067749500274658,3.363781690597534,-0.06087799370288849
-1.1852144002914429,3.3797073364257812,-0.06158894672989845
-1.160984754562378,3.388097047805786,-0.062133513391017914
-1.1392598152160645,3.4036922454833984,-0.06281288713216782
-1.1203960180282593,3.4263784885406494,-0.06361912935972214
-1.0941718816757202,3.4266340732574463,-0.0640123263001442
-1.076383113861084,3.4568052291870117,-0.06493555754423141
-1.049401044845581,3.4569201469421387,-0.06528037786483765
-1.0293563604354858,3.479227304458618,-0.06604504585266113
-1.007243275642395,3.493814468383789,-0.06666363775730133
-0.9871180653572083,3.5157740116119385,-0.06742792576551437
-0.9621074795722961,3.5226919651031494,-0.06785966455936432
-0.9365492463111877,3.529564380645752,-0.06829588860273361
-0.9097319841384888,3.5284974575042725,-0.0685725137591362
-0.8918535709381104,3.5612401962280273,-0.06950706988573074
-0.8652619123458862,3.5597479343414307,-0.06977836787700653
-0.8436017632484436,3.5809879302978516,-0.07044564932584763
-0.8177888989448547,3.586963176727295,-0.07082073390483856
-0.7959701418876648,3.6078600883483887,-0.07148836553096771
-0.7708967924118042,3.613293409347534,-0.07185155153274536
-0.7457863092422485,3.6185524463653564,-0.07221473753452301
-0.720259964466095,3.623713493347168,-0.07252634316682816
-0.6971799731254578,3.644124746322632,-0.07314738631248474
-0.6701653599739075,3.6412415504455566,-0.07330038398504257
-0.6516179442405701,3.68426775932312,-0.0743810310959816
-0.6279301047325134,3.7002570629119873,-0.0749223530292511
-0.6000271439552307,3.693009376525879,-0.07494824379682541
-0.5723143219947815,3.6894960403442383,-0.07504302263259888
-0.5515093207359314,3.728193521499634,-0.07599793374538422
-0.5255624651908875,3.7319345474243164,-0.07624377310276031
-0.49959027767181396,3.7354953289031982,-0.07648961991071701
-0.575984001159668,4.548665523529053,-0.0933048203587532
-0.53980553150177,4.517699241638184,-0.09280123561620712
-0.5175341963768005,4.610701084136963,-0.09485265612602234
-0.48052892088890076,4.567578315734863,-0.09410600364208221
-0.45334964990615845,4.6174445152282715,-0.09527958929538727
-0.45165881514549255,4.9549665451049805,-0.10238136351108551
-0.4208756387233734,5.004705429077148,-0.10349729657173157
-0.4016861915588379,5.221738815307617,-0.10808450728654861
-0.37832877039909363,5.41141414642334,-0.11211638152599335
-0.3421980142593384,5.437294006347656,-0.11276382207870483
-0.30398011207580566,5.431738376617432,-0.11276503652334213
-0.30084744095802307,6.1436591148376465,-0.12757891416549683
-0.25619766116142273,6.122228145599365,-0.12717357277870178
-0.21253031492233276,6.096543788909912,-0.1266850233078003
-0.16809311509132385,6.027605056762695,-0.12530295550823212
-0.12740358710289001,6.091100692749023,-0.12668006122112274
-0.08335068076848984,5.97859525680542,-0.1243358701467514
-0.04123498871922493,6.025900363922119,-0.12528342008590698
0.0007905783713795245,5.936217784881592,-0.1233898177742958
0.0425056591629982,5.994648456573486,-0.12458114326000214
0.08382582664489746,5.9707794189453125,-0.1240679994225502
0.12480201572179794,5.946626663208008,-0.12352669984102249
0.164210706949234,5.879254341125488,-0.12202200293540955
0.20454442501068115,5.8428215980529785,-0.12116532772779465
0.2527792453765869,6.024657249450684,-0.12484041601419449
0.2068956196308136,4.2284111976623535,-0.08755619078874588
0.23670828342437744,4.2346720695495605,-0.0876268520951271
0.2628258466720581,4.182264804840088,-0.08641776442527771
0.29362115263938904,4.199794292449951,-0.08664984256029129
0.3257017731666565,4.236602306365967,-0.08728418499231339
0.48410317301750183,5.771484375,-0.11874091625213623
0.5079739093780518,5.5890703201293945,-0.11483306437730789
0.5166328549385071,5.278359413146973,-0.1082582175731659
0.5272138118743896,5.022138595581055,-0.10278536379337311
0.5510753393173218,4.921347141265869,-0.10051701962947845
0.5801184177398682,4.874753952026367,-0.0993657112121582
0.5621856451034546,4.459885120391846,-0.09073033183813095
0.5894657969474792,4.428789138793945,-0.08990969508886337
0.6215564012527466,4.43229341506958,-0.0897459089756012
0.6474668383598328,4.397010326385498,-0.08880649507045746
0.6802694797515869,4.407869338989258,-0.08880256116390228
0.5472006797790527,3.389026403427124,-0.06810694932937622
0.5746349096298218,3.4082534313201904,-0.06832590699195862
0.5899443030357361,3.3580691814422607,-0.06709872931241989
0.6148359775543213,3.3615481853485107,-0.06694305688142776
0.645272970199585,3.395606517791748,-0.06740004569292068
0.6658443212509155,3.3757174015045166,-0.06678590923547745
0.689300000667572,3.3710124492645264,-0.06647641211748123
0.7011260390281677,3.3127105236053467,-0.06508361548185349
0.7258629202842712,3.3153815269470215,-0.06487929821014404
0.746841549873352,3.302717924118042,-0.06438221037387848
0.7582941055297852,3.247997999191284,-0.06306851655244827
0.7809082865715027,3.2426419258117676,-0.06272018700838089
0.79567551612854,3.2068748474121094,-0.06176106631755829
0.8112069964408875,3.174778699874878,-0.060856763273477554
0.8269391655921936,3.1465017795562744,-0.06003795191645622
0.8427039384841919,3.118055582046509,-0.05921785533428192
0.8601765036582947,3.0970776081085205,-0.05854613706469536
0.8760865330696106,3.0723206996917725,-0.05778808519244194
0.8885596394538879,3.0362024307250977,-0.056802332401275635
0.9069513082504272,3.022613048553467,-0.05624976381659508
0.9187962412834167,2.9863662719726562,-0.05527487397193909
0.9348532557487488,2.965009927749634,-0.05458313226699829
0.9539371728897095,2.954829216003418,-0.0540744811296463
0.9645102024078369,2.9185142517089844,-0.05307045951485634
0.9743399024009705,2.8822922706604004,-0.0520823635160923
0.9866771101951599,2.853316068649292,-0.05122679844498634
1.0025651454925537,2.835355520248413,-0.050575338304042816
1.0164809226989746,2.8137996196746826,-0.04984358698129654
1.0273226499557495,2.7849032878875732,-0.04898257926106453
1.0383776426315308,2.75577974319458,-0.048115018755197525
1.0547102689743042,2.741210460662842,-0.04750724881887436
1.0665574073791504,2.71566104888916,-0.04671267420053482
1.0760992765426636,2.6866745948791504,-0.045841656625270844
1.0911847352981567,2.6721553802490234,-0.04522402957081795
1.0979011058807373,2.635594606399536,-0.044224340468645096
1.1131577491760254,2.620710611343384,-0.04359915107488632
1.1403323411941528,2.6345653533935547,-0.04343568533658981
1.151648759841919,2.6125824451446533,-0.04266863688826561
1.1596981287002563,2.5833613872528076,-0.041786786168813705
1.1730667352676392,2.5644476413726807,-0.04106032848358154
1.187464952468872,2.549206018447876,-0.04040226712822914
1.1843479871749878,2.4988930225372314,-0.03918350487947464
1.1941843032836914,2.4768826961517334,-0.03841982036828995
1.2147760391235352,2.47556209564209,-0.03796277195215225
1.2200188636779785,2.4424664974212646,-0.03701531141996384
1.2256114482879639,2.413418769836426,-0.0361243337392807
1.2415608167648315,2.405261278152466,-0.03554963320493698
1.2435907125473022,2.368985891342163,-0.034547608345746994
1.260023593902588,2.360295295715332,-0.033951252698898315
1.2719337940216064,2.3450236320495605,-0.03325635567307472
1.2800898551940918,2.3227665424346924,-0.0324585996568203
1.2865601778030396,2.2968382835388184,-0.03160301223397255
1.319858193397522,2.3184144496917725,-0.03139582276344299
1.3135137557983398,2.272529363632202,-0.03026420809328556
1.3166468143463135,2.2435920238494873,-0.029367797076702118
1.3284766674041748,2.227525472640991,-0.02861185371875763
1.3475652933120728,2.2251763343811035,-0.028039487078785896
1.3701732158660889,2.2296946048736572,-0.0275462307035923
1.3645908832550049,2.1872174739837646,-0.026454541832208633
1.3713711500167847,2.1645073890686035,-0.025602344423532486
1.3813012838363647,2.1489109992980957,-0.024828968569636345
1.4082673788070679,2.159379005432129,-0.02434937097132206
1.3994773626327515,2.113750457763672,-0.023213788866996765
1.4239997863769531,2.1208815574645996,-0.022659970447421074
1.4224274158477783,2.0889463424682617,-0.021674834191799164
1.4504503011703491,2.0981502532958984,-0.021066321060061455
3.147240161895752,4.4912519454956055,-0.043592311441898346
3.1745967864990234,4.4671831130981445,-0.041779011487960815
3.182040214538574,4.4138360023498535,-0.03962443768978119
3.2094714641571045,4.393946647644043,-0.037778306752443314
2.579216241836548,3.4804208278656006,-0.028447728604078293
3.1839427947998047,4.450996398925781,0.033246710896492004
3.15745210647583,4.484153747558594,0.03509152680635452
2.62553071975708,3.7883996963500977,0.030919121578335762
2.603367567062378,3.8131158351898193,0.03230467438697815
3.1250898838043213,4.653324127197266,0.040851421654224396
3.1499085426330566,4.763509273529053,0.043174032121896744
3.123852252960205,4.799276828765869,0.04482552409172058
3.0916736125946045,4.829333305358887,0.04637378826737404
1.630739688873291,2.5874764919281006,0.025477828457951546
1.620629906654358,2.6122186183929443,0.026342717930674553
1.5806587934494019,2.5909411907196045,0.02673586644232273
1.5898290872573853,2.649301290512085,0.027939625084400177
1.5673699378967285,2.653573513031006,0.028555506840348244
1.5319894552230835,2.6380746364593506,0.028920048847794533
1.500897765159607,2.6289265155792236,0.029337069019675255
1.4825937747955322,2.6392855644226074,0.029940109699964523
1.4634891748428345,2.6499199867248535,0.030551033094525337
1.4513548612594604,2.6743686199188232,0.031307343393564224
1.4394899606704712,2.6984879970550537,0.0320531502366066
1.4170043468475342,2.701537847518921,0.032538775354623795
2.465859889984131,4.784432888031006,0.058395255357027054
2.4053075313568115,4.753941059112549,0.0587797611951828
1.1909431219100952,2.395946741104126,0.02998569793999195
1.1811187267303467,2.418199300765991,0.030619625002145767
1.1807055473327637,2.4617879390716553,0.03152014687657356
1.1843422651290894,2.5162720680236816,0.03256351500749588
1.1794811487197876,2.553011417388916,0.033381178975105286
1.1694530248641968,2.579073429107666,0.03406454622745514
1.1575638055801392,2.6015357971191406,0.034690648317337036
1.1417652368545532,2.617027997970581,0.035209812223911285
1.113638162612915,2.6036441326141357,0.03533858433365822
1.087927222251892,2.593320608139038,0.03549528121948242
1.0888481140136719,2.6479148864746094,0.036550719290971756
1.9876482486724854,4.93459939956665,0.06863497942686081
1.960500717163086,4.970638751983643,0.06965742260217667
2.033764600753784,5.264884948730469,0.07431990653276443
2.3066296577453613,6.097231864929199,0.08668654412031174
2.239802122116089,6.05133056640625,0.08663613349199295
2.1775336265563965,6.01588249206543,0.08667699247598648
1.9895128011703491,5.622682571411133,0.08152581006288528
1.8545860052108765,5.359530448913574,0.07818444818258286
1.903597354888916,5.627593517303467,0.08259502053260803
1.8520451784133911,5.607750415802002,0.08277295529842377
1.8801406621932983,5.83275842666626,0.08654709160327911
1.375632882118225,4.374265670776367,0.06524598598480225
1.3474411964416504,4.3911967277526855,0.06583340466022491
1.3168022632598877,4.4004740715026855,0.06631026417016983
1.2856111526489258,4.40968132019043,0.06675098836421967
1.249257206916809,4.403873443603516,0.06695163249969482
1.732258677482605,6.276350498199463,0.09582459181547165
1.6966582536697388,6.318417549133301,0.09686937928199768
1.6733254194259644,6.409435749053955,0.0986768901348114
1.6319438219070435,6.436207294464111,0.09945690631866455
1.5797135829925537,6.425086975097656,0.09962938725948334
1.518589973449707,6.371561527252197,0.09913866221904755
1.4636852741241455,6.336294651031494,0.09892366081476212
1.4178134202957153,6.338705062866211,0.09929929673671722
1.3708618879318237,6.337028980255127,0.09958420693874359
1.3139142990112305,6.293224811553955,0.09917251765727997
1.2577143907546997,6.244937896728516,0.0986853763461113
1.2081108093261719,6.222890377044678,0.09860990196466446
1.158332347869873,6.196584224700928,0.09846776723861694
0.6418787240982056,3.5712342262268066,0.05690345540642738
0.7574851512908936,4.395595073699951,0.07018344849348068
0.7251935005187988,4.3931169509887695,0.07028906792402267
0.6955769658088684,4.405807971954346,0.07064009457826614
0.6602464318275452,4.379641056060791,0.07036951929330826
0.8652211427688599,6.02333927154541,0.09698866307735443
0.8221085667610168,6.0293707847595215,0.09723866730928421
0.7766368389129639,6.0117645263671875,0.097088523209095
0.7300347089767456,5.982187271118164,0.09674855321645737
0.46935397386550903,4.081948280334473,0.06611227244138718
0.4409557580947876,4.085110664367676,0.06626248359680176
0.40701165795326233,4.0336761474609375,0.06551378220319748
