X,Y,Z
1.1393924951553345,6.131453037261963,0.4117887616157532
1.0849111080169678,6.0739312171936035,0.40885332226753235
1.0405094623565674,6.073687553405762,0.40979713201522827
1.0088437795639038,6.146086692810059,0.4156382083892822
0.9551341533660889,6.087524890899658,0.4123493432998657
0.8953796625137329,5.982260704040527,0.40589770674705505
0.8509624004364014,5.97291898727417,0.4059590995311737
0.8117665648460388,6.001894474029541,0.40864917635917664
0.6436594128608704,5.021562099456787,0.34250906109809875
0.6249238848686218,5.1613006591796875,0.3525826036930084
0.5952308773994446,5.223604202270508,0.3572365641593933
0.5567735433578491,5.212118625640869,0.35686561465263367
0.5203177332878113,5.215837478637695,0.3575490117073059
0.37846559286117554,4.086219310760498,0.2804661989212036
0.3527531325817108,4.119774341583252,0.2831321656703949
0.3303905427455902,4.203697681427002,0.28913888335227966
0.2993205487728119,4.182560443878174,0.2878449857234955
0.26977482438087463,4.180643558502197,0.2878871262073517
0.2416747361421585,4.209664821624756,0.29007747769355774
0.23812265694141388,4.721083164215088,0.3255445659160614
0.20778939127922058,4.781002521514893,0.3299218714237213
0.17469117045402527,4.790114402770996,0.330620676279068
0.14214028418064117,4.8223724365234375,0.33288413286209106
0.17135712504386902,7.659542083740234,0.5288175344467163
0.11777573823928833,7.641053676605225,0.5276508927345276
0.06443870067596436,7.610500812530518,0.5256757140159607
0.011466139927506447,7.587370872497559,0.5242377519607544
-0.04114479199051857,7.5716938972473145,0.5229605436325073
-0.0943942591547966,7.543951988220215,0.5208523869514465
-0.14633099734783173,7.519752025604248,0.5190190076828003
-0.1977304071187973,7.487404823303223,0.5166493654251099
-0.24889367818832397,7.458599090576172,0.5145497918128967
-0.30035874247550964,7.448921203613281,0.5137611627578735
-0.0767073929309845,1.6232496500015259,0.11185801029205322
-0.09088419377803802,1.6732655763626099,0.11520582437515259
-0.1029546856880188,1.6803845167160034,0.11560387909412384
-0.11408410221338272,1.6718628406524658,0.11493133753538132
-0.12745578587055206,1.6943559646606445,0.11639555543661118
-0.13410018384456635,1.63129723072052,0.11196926981210709
-0.14832009375095367,1.661385178565979,0.11387181282043457
-0.156417578458786,1.6254242658615112,0.11125583201646805
-0.16364209353923798,1.5855534076690674,0.10838405042886734
-0.17638038098812103,1.5998862981796265,0.10922382771968842
-0.18840175867080688,1.6063786745071411,0.10953177511692047
-0.21076960861682892,1.6939841508865356,0.11532963067293167
-0.5925804972648621,4.509513854980469,0.30644458532333374
-0.626234233379364,4.524694442749023,0.30691614747047424
-0.6558180451393127,4.508743762969971,0.3052864372730255
-0.685933530330658,4.496432304382324,0.3039178252220154
-0.7164473533630371,4.483835697174072,0.3025374710559845
-0.7473000884056091,4.4788641929626465,0.3015437722206116
-0.775249719619751,4.4583587646484375,0.29944655299186707
-0.801565945148468,4.430009365081787,0.29684266448020935
-0.8336849808692932,4.432081699371338,0.2962847054004669
-0.8503110408782959,4.35355806350708,0.29036036133766174
-0.7440579533576965,3.671309232711792,0.24428951740264893
-0.770691454410553,3.673847198486328,0.24374009668827057
-0.9370714426040649,4.319996356964111,0.28576940298080444
-0.9717127680778503,4.336390972137451,0.2860213816165924
-1.005368947982788,4.3448028564453125,0.2857389748096466
-1.030595302581787,4.314929962158203,0.282941609621048
-1.0603233575820923,4.307810306549072,0.2815838158130646
-1.0818819999694824,4.270377159118652,0.2781333327293396
-1.106913685798645,4.2479400634765625,0.2756829559803009
-1.1421793699264526,4.262911796569824,0.2756578028202057
-1.1640126705169678,4.224757671356201,0.27218538522720337
-1.192321538925171,4.212900638580322,0.2704446315765381
-1.221962809562683,4.2085652351379395,0.26902735233306885
-1.2426273822784424,4.174148082733154,0.26568740606307983
-1.2732372283935547,4.173173427581787,0.26448875665664673
-1.3050029277801514,4.171630382537842,0.26321831345558167
-1.3315519094467163,4.155151844024658,0.26103800535202026
-1.350158929824829,4.116438388824463,0.25738778710365295
-1.3827624320983887,4.1221723556518555,0.2564575970172882
-1.4079504013061523,4.105508804321289,0.25414153933525085
-1.4209091663360596,4.051602363586426,0.24950946867465973
-1.4521907567977905,4.048901557922363,0.2480282485485077
-1.4826818704605103,4.046263217926025,0.24651654064655304
-1.5071096420288086,4.029026508331299,0.24401448667049408
-1.5341544151306152,4.0189313888549805,0.24195857346057892
-1.5590236186981201,4.001105785369873,0.23941242694854736
-1.5902061462402344,3.997340440750122,0.23768073320388794
-1.6146937608718872,3.9792237281799316,0.2350788116455078
-1.6382994651794434,3.9612557888031006,0.2323983758687973
-1.663251280784607,3.9467432498931885,0.22993549704551697
-1.6920392513275146,3.938868284225464,0.2278161644935608
-1.7198823690414429,3.9269282817840576,0.2254316657781601
-1.7465378046035767,3.915283679962158,0.22302791476249695
-1.7644559144973755,3.8859691619873047,0.2195618450641632
-1.7936694622039795,3.881307601928711,0.2174926996231079
-1.8140039443969727,3.8547492027282715,0.21413548290729523
-1.8379416465759277,3.8348872661590576,0.2111351042985916
-1.877128005027771,3.8507583141326904,0.21001984179019928
-1.8783549070358276,3.7894346714019775,0.20469625294208527
-1.897118091583252,3.762751579284668,0.20123010873794556
-1.926766037940979,3.7565765380859375,0.19883595407009125
-1.9449883699417114,3.7297277450561523,0.19530950486660004
-1.9698638916015625,3.716799736022949,0.1924327313899994
-1.9983530044555664,3.710575819015503,0.18990756571292877
-2.042945623397827,3.730919361114502,0.18862704932689667
-1.7155451774597168,3.0826845169067383,0.1539052575826645
-1.7395519018173218,3.078298330307007,0.15166756510734558
-0.8354737162590027,1.4554492235183716,0.07072118669748306
-0.8574128746986389,1.4698718786239624,0.07038632035255432
-0.8594688773155212,1.4506163597106934,0.06842388957738876
-0.8689048290252686,1.4450465440750122,0.06709140539169312
-0.8866897821426392,1.452589511871338,0.06633178889751434
-0.9010715484619141,1.4529728889465332,0.06516756117343903
-0.8982015252113342,1.4272143840789795,0.06284485757350922
-0.8947677612304688,1.401723027229309,0.06055871769785881
-0.9171527028083801,1.4152392148971558,0.059875957667827606
-0.909669041633606,1.3828916549682617,0.057241279631853104
-0.953316330909729,1.4289681911468506,0.05778534337878227
-2.422520875930786,3.5791513919830322,0.1411917507648468
-1.2423884868621826,1.8086018562316895,0.06947539746761322
-1.3541288375854492,1.945029854774475,0.07265868782997131
-1.3580386638641357,1.9233068227767944,0.0696776881814003
-1.3983962535858154,1.9861948490142822,-0.0538480319082737
-1.3756002187728882,1.9829914569854736,-0.05627204477787018
-1.21100652217865,1.8301515579223633,-0.058360688388347626
-1.288433313369751,1.980092167854309,-0.06536336243152618
-1.1734745502471924,1.83114755153656,-0.062289126217365265
-1.1789888143539429,1.8692103624343872,-0.06544014066457748
-0.784153163433075,1.3051930665969849,-0.04936244711279869
-0.8372664451599121,1.463950276374817,-0.059080857783555984
-2.1254398822784424,3.780548572540283,-0.1555686891078949
-1.706710696220398,3.088702917098999,-0.12953442335128784
-2.056116819381714,3.782895565032959,-0.1614513397216797
-2.0290091037750244,3.7973592281341553,-0.1648300290107727
-2.0047521591186523,3.818892478942871,-0.16849550604820251
-1.9776818752288818,3.8328371047973633,-0.17174547910690308
-1.9381319284439087,3.822232723236084,-0.17388983070850372
-1.8896517753601074,3.794037342071533,-0.1750735193490982
-1.8791382312774658,3.8426053524017334,-0.17978720366954803
-1.8740901947021484,3.9012913703918457,-0.1849466860294342
-1.8368338346481323,3.892951726913452,-0.1869385987520218
-1.6086077690124512,3.4739511013031006,-0.16884921491146088
-1.5635604858398438,3.4429638385772705,-0.1693732738494873
-1.5982164144515991,3.5855720043182373,-0.17838874459266663
-1.446552038192749,3.306903839111328,-0.16635623574256897
-1.3935997486114502,3.2489333152770996,-0.16515547037124634
-1.3988502025604248,3.327134370803833,-0.1708688586950302
-1.3601391315460205,3.300870180130005,-0.1712285727262497
-1.3663560152053833,3.3824987411499023,-0.17716479301452637
-1.36387038230896,3.4464077949523926,-0.182172492146492
-1.3574105501174927,3.50329327583313,-0.1868162602186203
-1.3255993127822876,3.4944849014282227,-0.18796052038669586
-1.307559609413147,3.52197527885437,-0.19106675684452057
-1.25753915309906,3.461273193359375,-0.18931347131729126
-1.2301018238067627,3.462735176086426,-0.190830260515213
-1.1758655309677124,3.386585235595703,-0.1880398392677307
-1.128404974937439,3.3244168758392334,-0.18593552708625793
-1.1097400188446045,3.3470346927642822,-0.18858179450035095
-1.0787869691848755,3.3324525356292725,-0.18901477754116058
-1.034995198249817,3.276746988296509,-0.1870572715997696
-1.0095717906951904,3.2764155864715576,-0.18822930753231049
-0.9755444526672363,3.2459118366241455,-0.18764446675777435
-0.9529116153717041,3.2525389194488525,-0.18918803334236145
-0.9176284074783325,3.217996835708618,-0.1882183849811554
-0.884334921836853,3.186767578125,-0.18740883469581604
-0.8620120286941528,3.1927976608276367,-0.18877345323562622
-0.835846483707428,3.1835415363311768,-0.18923145532608032
-0.8067842721939087,3.1627886295318604,-0.1889493465423584
-0.7764652371406555,3.138166904449463,-0.18835248053073883
-0.750578761100769,3.1283485889434814,-0.18862566351890564
-0.7208239436149597,3.0992469787597656,-0.18771742284297943
-0.7009369730949402,3.1117300987243652,-0.18932977318763733
-0.6724550724029541,3.0860249996185303,-0.1885366588830948
-0.6438314914703369,3.0601916313171387,-0.18767619132995605
-0.6206611394882202,3.056957483291626,-0.1881893426179886
-0.5926133394241333,3.0267086029052734,-0.18702930212020874
-0.5765776634216309,3.057523488998413,-0.18964996933937073
-0.5502207279205322,3.0345892906188965,-0.18883763253688812
-0.5244250893592834,3.0153610706329346,-0.18821054697036743
-0.5019157528877258,3.011234998703003,-0.18851864337921143
-0.4785240888595581,2.9992010593414307,-0.18832947313785553
-0.4588227868080139,3.0101168155670166,-0.18958981335163116
-0.4332667589187622,2.982346534729004,-0.1883058100938797
-0.410361111164093,2.9737389087677,-0.18819455802440643
-0.38445115089416504,2.937847375869751,-0.18635070323944092
-0.1997109353542328,1.613359808921814,-0.10257492959499359
-0.34259095788002014,2.9350972175598145,-0.1870499849319458
-0.3194928765296936,2.9141407012939453,-0.18605059385299683
-0.2970567047595978,2.8968920707702637,-0.1852409541606903
-0.2734363079071045,2.8678629398345947,-0.18368683755397797
-0.2527811825275421,2.861903190612793,-0.18360817432403564
-0.23161569237709045,2.848022937774658,-0.18302732706069946
-0.2105659395456314,2.834000587463379,-0.18234208226203918
-0.19180281460285187,2.8509442806243896,-0.18359613418579102
-0.1710512340068817,2.844437599182129,-0.18335255980491638
-0.1512964963912964,2.8455405235290527,-0.18360379338264465
-0.1318945586681366,2.8542943000793457,-0.18435804545879364
-0.11295973509550095,2.878502130508423,-0.1860409528017044
-0.09291234612464905,2.8792121410369873,-0.18614152073860168
-0.07213333249092102,2.864203929901123,-0.18523567914962769
-0.05218658596277237,2.8646302223205566,-0.18533572554588318
-0.032175224274396896,2.857121467590332,-0.18493103981018066
-0.012335699051618576,2.865070343017578,-0.1854686290025711
0.007579756435006857,2.849498987197876,-0.18439319729804993
0.027758991345763206,2.8493781089782715,-0.18432603776454926
0.04771040380001068,2.8569154739379883,-0.18476416170597076
0.06755808740854263,2.8565194606781006,-0.18469807505607605
0.08789633214473724,2.871572494506836,-0.1855953186750412
0.10608308762311935,2.824162721633911,-0.18235239386558533
0.1263895481824875,2.838949203491211,-0.1831362247467041
0.1464342176914215,2.838000535964966,-0.1829102486371994
0.16750997304916382,2.860278367996216,-0.18419161438941956
0.1853206753730774,2.827943801879883,-0.18194007873535156
0.20403200387954712,2.8149547576904297,-0.18080654740333557
0.22226381301879883,2.7979564666748047,-0.17942698299884796
0.24133816361427307,2.7885749340057373,-0.17854121327400208
0.2632877230644226,2.814021587371826,-0.17989613115787506
0.28286629915237427,2.812145948410034,-0.17950375378131866
0.3064577877521515,2.84891939163208,-0.18144333362579346
0.32615864276885986,2.8467652797698975,-0.1809062957763672
0.34998971223831177,2.875389337539673,-0.18232204020023346
0.3679828643798828,2.857454538345337,-0.18079774081707
0.3878428041934967,2.85486102104187,-0.1802549958229065
0.4097011685371399,2.867603302001953,-0.18054018914699554
0.43466266989707947,2.8994555473327637,-0.1820220947265625
0.4550727605819702,2.8963675498962402,-0.18130186200141907
0.4752073585987091,2.893176555633545,-0.18059058487415314
0.49531957507133484,2.889845848083496,-0.179879292845726
0.5234220027923584,2.932480573654175,-0.18188388645648956
0.5435783863067627,2.928865671157837,-0.18100592494010925
0.5689768195152283,2.9518930912017822,-0.18177387118339539
0.592939555644989,2.963137149810791,-0.18179936707019806
0.6198959946632385,2.989535331726074,-0.18276482820510864
0.6371651887893677,2.970015048980713,-0.1808038204908371
0.6609038710594177,2.9808642864227295,-0.1806921362876892
0.6849745512008667,2.991492748260498,-0.18056200444698334
0.707916259765625,2.9942264556884766,-0.1799401491880417
0.7352140545845032,3.0158095359802246,-0.1804625391960144
0.7634264826774597,3.0410399436950684,-0.18105654418468475
0.7822896838188171,3.028259754180908,-0.17938798666000366
0.8091771006584167,3.0454766750335693,-0.17949369549751282
0.8410438299179077,3.077354669570923,-0.1804284155368805
0.8697571158409119,3.097804307937622,-0.18067969381809235
0.8973799347877502,3.1143577098846436,-0.18058106303215027
0.9274799823760986,3.1381590366363525,-0.180893212556839
0.952576756477356,3.142944097518921,-0.18008959293365479
0.9818016886711121,3.158538818359375,-0.17987558245658875
1.0059517621994019,3.1592044830322266,-0.1787806898355484
0.9948073625564575,3.0522360801696777,-0.17156152427196503
0.9637675285339355,2.890049457550049,-0.16134284436702728
1.0077813863754272,2.953505039215088,-0.16373877227306366
1.0167561769485474,2.913351535797119,-0.160382941365242
1.2047678232192993,3.376608371734619,-0.18447130918502808
1.218265414237976,3.3428125381469727,-0.181216761469841
1.2425336837768555,3.338132381439209,-0.17954038083553314
1.2851840257644653,3.3805460929870605,-0.18035906553268433
1.3171072006225586,3.393463611602783,-0.17956097424030304
1.3562569618225098,3.4243216514587402,-0.17956680059432983
1.4130336046218872,3.4983718395233154,-0.18181505799293518
1.4402328729629517,3.495816469192505,-0.18000949919223785
1.4766120910644531,3.5146021842956543,-0.17928874492645264
1.1134068965911865,2.6006674766540527,-0.13136060535907745
1.1405447721481323,2.6145317554473877,-0.1307005137205124
1.1473416090011597,2.581779718399048,-0.1277165412902832
1.1669011116027832,2.5773696899414062,-0.1261301189661026
1.1829050779342651,2.56585431098938,-0.12417159229516983
1.2017273902893066,2.5614914894104004,-0.12252992391586304
1.2429157495498657,2.6025331020355225,-0.12299299985170364
1.941846251487732,3.994405746459961,-0.1864415556192398
1.9657946825027466,3.9741058349609375,-0.18314017355442047
1.234643816947937,2.4547290802001953,-0.11162272095680237
1.2209640741348267,2.3873531818389893,-0.1070794016122818
1.251922369003296,2.406604528427124,-0.10640226304531097
1.2722887992858887,2.4048221111297607,-0.10473523288965225
1.2771018743515015,2.3757970333099365,-0.10188986361026764
1.2893450260162354,2.3603670597076416,-0.09962265938520432
1.2906131744384766,2.324101209640503,-0.09644905477762222
1.3005821704864502,2.305183172225952,-0.09400897473096848
1.3082871437072754,2.28292179107666,-0.09140517562627792
1.3081578016281128,2.247011184692383,-0.08826024830341339
1.331721544265747,2.2513718605041504,-0.08668073266744614
1.338485598564148,2.2292416095733643,-0.08405958861112595
1.3491274118423462,2.213757038116455,-0.08169068396091461
1.3565521240234375,2.1909501552581787,-0.0789441168308258
1.3712613582611084,2.1818530559539795,-0.07673077285289764
1.377010703086853,2.1598057746887207,-0.07407006621360779
1.391858696937561,2.150346279144287,-0.07174132019281387
1.406457781791687,2.1409034729003906,-0.0693911463022232
1.413968801498413,2.1219635009765625,-0.06669813394546509
1.4196912050247192,2.0993857383728027,-0.0638277605175972
1.4426970481872559,2.102689266204834,-0.061705268919467926
1.442703366279602,2.0742788314819336,-0.058656223118305206
1.452459454536438,2.05798077583313,-0.05580192431807518
1.457073450088501,2.0356082916259766,-0.05274159088730812
1.4518821239471436,2.0009069442749023,-0.049379851669073105
1.4586594104766846,1.981510877609253,-0.046261016279459
3.1599624156951904,4.456482410430908,0.13754470646381378
3.119345188140869,4.465785980224609,0.14290975034236908
2.5971996784210205,3.777531623840332,0.12503774464130402
3.180640697479248,4.702823638916016,0.16069839894771576
3.1370761394500732,4.708371639251709,0.16541244089603424
3.121023416519165,4.760914325714111,0.17173145711421967
3.0941643714904785,4.796821594238281,0.1773620992898941
1.639138102531433,2.580444812774658,0.09759862720966339
1.6319750547409058,2.612541437149048,0.10099771618843079
1.596024990081787,2.5979726314544678,0.10251224786043167
2.9456937313079834,4.87043571472168,0.1957796812057495
2.8068106174468994,4.716850280761719,0.19302614033222198
2.80299973487854,4.791446208953857,0.1994740217924118
2.7778258323669434,4.828441619873047,0.2043229192495346
2.6940393447875977,4.759232044219971,0.20451189577579498
2.4500434398651123,4.40363073348999,0.19197982549667358
2.460175037384033,4.5004119873046875,0.19897811114788055
2.493438959121704,4.637626647949219,0.20770898461341858
2.456841230392456,4.648133754730225,0.21087928116321564
2.460259437561035,4.7387189865112305,0.21756146848201752
2.4181859493255615,4.742652893066406,0.22030647099018097
2.369257688522339,4.727879047393799,0.22203746438026428
2.315481424331665,4.702149868011475,0.22322741150856018
1.230995774269104,2.547571897506714,0.12218143790960312
1.212193250656128,2.556492805480957,0.12382465600967407
1.1925718784332275,2.5613245964050293,0.12521719932556152
1.1795910596847534,2.5801308155059814,0.12729200720787048
1.1531130075454712,2.5706286430358887,0.12791331112384796
1.145342230796814,2.6038951873779297,0.13063763082027435
2.0718941688537598,4.804974555969238,0.24303875863552094
2.047459602355957,4.840734481811523,0.24674943089485168
2.0254883766174316,4.883645534515381,0.250839501619339
2.0031585693359375,4.930643558502197,0.25500068068504333
1.9816938638687134,4.981195449829102,0.2593834698200226
2.0266294479370117,5.202378749847412,0.272727906703949
2.0070009231567383,5.2599921226501465,0.2775469422340393
1.9820805788040161,5.306800365447998,0.281767338514328
1.9596799612045288,5.3648552894592285,0.2865030765533447
1.9260928630828857,5.393449783325195,0.2896965444087982
1.890239953994751,5.4142560958862305,0.2924671173095703
1.8865022659301758,5.526849746704102,0.3002077639102936
1.8511110544204712,5.5510172843933105,0.303097665309906
1.8944554328918457,5.820014476776123,0.3193191885948181
1.891515851020813,5.956052303314209,0.3283621668815613
1.866489291191101,6.02509880065918,0.33375582098960876
1.8448433876037598,6.1050214767456055,0.3397682011127472
1.8074315786361694,6.136412620544434,0.34302863478660583
1.7828985452651978,6.216544151306152,0.3488738536834717
1.7499136924743652,6.270349025726318,0.3532852232456207
1.7182128429412842,6.327507019042969,0.3578931987285614
1.686316728591919,6.3884196281433105,0.36276692152023315
1.6514290571212769,6.437684535980225,0.36696845293045044
0.8188044428825378,3.288925886154175,0.18806526064872742
1.5449310541152954,6.399684906005859,0.3670991361141205
0.782730758190155,3.3456757068634033,0.192521333694458
1.4309221506118774,6.3180084228515625,0.3647252023220062
1.3827153444290161,6.308672904968262,0.36534279584884644
1.3211201429367065,6.238077163696289,0.3622305989265442
1.27678644657135,6.247218608856201,0.36367011070251465
1.213485836982727,6.160398006439209,0.35952886939048767
1.1683142185211182,6.161102294921875,0.36049601435661316
1.1169734001159668,6.122972011566162,0.3591839373111725
1.0667691230773926,6.088294506072998,0.3580265939235687
1.0198386907577515,6.072542667388916,0.35775795578956604
0.9793109893798828,6.094944953918457,0.35975518822669983
0.9321233034133911,6.0786051750183105,0.3594905436038971
0.8847833871841431,6.050145149230957,0.3584999144077301
0.8297637104988098,5.96339750289917,0.3540588915348053
0.6706286668777466,5.079840183258057,0.3020688593387604
0.6397109031677246,5.123087406158447,0.3050214946269989
0.6113572716712952,5.193263053894043,0.3096010386943817
0.5787321925163269,5.23619270324707,0.3125835061073303
0.538290798664093,5.201265335083008,0.3109244108200073
0.39647793769836426,4.110316753387451,0.24605756998062134
0.3652392029762268,4.085784912109375,0.24478550255298615
0.3442522883415222,4.181494235992432,0.25070974230766296
0.31495243310928345,4.191603183746338,0.2515225410461426
0.2852274775505066,4.185893535614014,0.25139328837394714
0.2554014325141907,4.176079273223877,0.25102829933166504
0.23262745141983032,4.294544696807861,0.2583672106266022
0.22173701226711273,4.701123237609863,0.28288787603378296
0.19062305986881256,4.761013507843018,0.28656816482543945
0.15891586244106293,4.808983325958252,0.28954553604125977
0.20031294226646423,7.678788661956787,0.4624998867511749
0.1467684805393219,7.672183513641357,0.46228957176208496
0.09308286011219025,7.653517246246338,0.4612553119659424
0.03870943933725357,7.622797012329102,0.4592829644680023
-0.014300921931862831,7.59169340133667,0.4573129117488861
-0.06693754345178604,7.575820446014404,0.4562830626964569
-0.11901649832725525,7.54788875579834,0.45454949140548706
-0.17052210867404938,7.507904529571533,0.45211222767829895
-0.22176159918308258,7.479275226593018,0.4502030909061432
-0.27352648973464966,7.45417594909668,0.44836339354515076
-0.07121527940034866,1.6322226524353027,0.0981108695268631
-0.08135198056697845,1.6083295345306396,0.09661400318145752
-0.09298526495695114,1.6155158281326294,0.096989206969738
-0.10472242534160614,1.6226180791854858,0.09736353158950806
-0.11392545700073242,1.5907341241836548,0.09534972161054611
-0.12247773259878159,1.5588195323944092,0.09332392364740372
-0.13323700428009033,1.5579464435577393,0.0931633934378624
-0.14263120293617249,1.541460633277893,0.09207399934530258
-0.15217353403568268,1.5288020372390747,0.09121957421302795
-0.1630014032125473,1.5276951789855957,0.09105771034955978
-0.1735057532787323,1.5265512466430664,0.0908326581120491
-0.5216783285140991,4.3243608474731445,0.25686386227607727
-0.22365395724773407,1.7522621154785156,0.10390768945217133
-0.6121888756752014,4.544817924499512,0.26905789971351624
-0.6404891014099121,4.5133891105651855,0.2667584717273712
-0.6717314124107361,4.508887767791748,0.2660328149795532
-0.7014158964157104,4.496523380279541,0.26470309495925903
-0.7310065031051636,4.483957290649414,0.26337510347366333
-0.7579296231269836,4.455803394317627,0.26114633679389954
-0.7860786318778992,4.435133934020996,0.25936949253082275
-0.8159563541412354,4.421855449676514,0.2580302357673645
-0.8419526219367981,4.393213272094727,0.255718857049942
-0.72896808385849,3.6683084964752197,0.21292516589164734
-0.7516279220581055,3.651839256286621,0.21138066053390503
-0.7792531847953796,3.6580591201782227,0.21115286648273468
-0.9487206935882568,4.303778171539307,0.24772575497627258
-0.9855397343635559,4.327563285827637,0.24841466546058655
-1.016785979270935,4.3284125328063965,0.24761593341827393
-1.0389177799224854,4.291128158569336,0.2446400374174118
-1.0625160932540894,4.2613019943237305,0.2421099692583084
-1.083884835243225,4.219756126403809,0.23890720307826996
-1.1201914548873901,4.238580703735352,0.23914925754070282
-1.1533693075180054,4.245916843414307,0.23867279291152954
-1.182124137878418,4.2380805015563965,0.23726525902748108
-1.2086787223815918,4.222548484802246,0.2354394942522049
-1.2404847145080566,4.221527099609375,0.23440031707286835
-1.2574288845062256,4.171795845031738,0.2306845784187317
-1.2862837314605713,4.163069725036621,0.22923992574214935
-1.3143398761749268,4.154384136199951,0.22765550017356873
-1.3399337530136108,4.138086318969727,0.22566626965999603
-1.3662534952163696,4.121341228485107,0.223632350564003
-1.394911766052246,4.111818313598633,0.22200317680835724
-1.4183876514434814,4.087353229522705,0.2195819914340973
-1.4459681510925293,4.077771186828613,0.21783976256847382
-1.4760404825210571,4.075376033782959,0.21647295355796814
-1.4982720613479614,4.050714492797852,0.21392440795898438
-1.5213525295257568,4.025519847869873,0.21131666004657745
-1.546475887298584,4.007667064666748,0.20913344621658325
-1.5705653429031372,3.990002155303955,0.20685432851314545
-1.6001393795013428,3.986743688583374,0.2053087204694748
-1.6271162033081055,3.975909471511841,0.20336267352104187
-1.655144214630127,3.9644269943237305,0.2013351023197174
-1.6657851934432983,3.9134609699249268,0.19735181331634521
-1.676318645477295,3.8665709495544434,0.19348664581775665
-1.698832631111145,3.8483049869537354,0.19107578694820404
-1.7506558895111084,3.8936736583709717,0.19177359342575073
-1.7749580144882202,3.8741815090179443,0.1892060786485672
-1.794968843460083,3.8478400707244873,0.1863192468881607
-1.8171555995941162,3.828882932662964,0.18372800946235657
-1.8493199348449707,3.8309013843536377,0.18215025961399078
-1.8759344816207886,3.818051338195801,0.17978689074516296
-1.9029524326324463,3.8047702312469482,0.17737941443920135
-1.9035743474960327,3.7433724403381348,0.17270469665527344
-1.9282633066177368,3.730825662612915,0.17029665410518646
-1.957334280014038,3.724590539932251,0.1681186705827713
-1.9869470596313477,3.717845916748047,0.16587844491004944
-2.0194716453552246,3.718172550201416,0.1638895571231842
-1.7085959911346436,3.0963706970214844,0.1347333937883377
-1.7256478071212769,3.0780506134033203,0.13217361271381378
-1.747040867805481,3.066058874130249,0.1298404484987259
-0.852536678314209,1.4731038808822632,0.06149137020111084
-0.8502642512321472,1.4473623037338257,0.059525016695261
-0.8601940870285034,1.4415311813354492,0.058344561606645584
-0.8782698512077332,1.4489303827285767,0.057684775441884995
-0.8959589004516602,1.4564740657806396,0.056991640478372574
-0.8887863159179688,1.4242231845855713,0.05474596843123436
-0.9028187990188599,1.424672245979309,0.05369783192873001
-2.3700814247131348,3.525686502456665,0.12144827842712402
-2.4386143684387207,3.5784385204315186,0.1201307624578476
-1.2479009628295898,1.8051785230636597,0.05891752615571022
-1.4891687631607056,2.1225924491882324,0.06720513850450516
-1.3445086479187012,1.9239518642425537,-0.04685480147600174
-1.49629545211792,2.175071954727173,-0.055345237255096436
-1.2945003509521484,1.9108408689498901,-0.0506083220243454
-1.243150234222412,1.8653024435043335,-0.05127480998635292
-1.549107313156128,2.397711992263794,-0.07032189518213272
-1.2733930349349976,2.0038533210754395,-0.060559432953596115
-0.7806199193000793,1.2893242835998535,-0.042118798941373825
-0.8759201765060425,1.5455392599105835,-0.05498465895652771
-1.1902636289596558,2.1346755027770996,-0.07736565172672272
-1.6815837621688843,3.067485809326172,-0.11316957324743271
-2.0255844593048096,3.760233163833618,-0.1411380171775818
-2.0223684310913086,3.8193790912628174,-0.1457301825284958
-1.9812605381011963,3.80557918548584,-0.14749673008918762
-1.9569867849349976,3.8267822265625,-0.15053384006023407
-1.9133049249649048,3.8094232082366943,-0.15203748643398285
-1.8988492488861084,3.847041368484497,-0.1556416004896164
-1.866323709487915,3.849806785583496,-0.1578742265701294
-1.8383560180664062,3.8631348609924316,-0.160427063703537
-1.8219941854476929,3.9009509086608887,-0.16400806605815887
-1.7703443765640259,3.8602354526519775,-0.16421401500701904
-1.5526138544082642,3.4488794803619385,-0.1484156847000122
-1.5307577848434448,3.4670803546905518,-0.15082208812236786
-1.5315823554992676,3.5390408039093018,-0.1556324064731598
-1.6685419082641602,3.9303622245788574,-0.17460817098617554
-1.413112759590149,3.3941144943237305,-0.15230783820152283
-1.3783828020095825,3.3787946701049805,-0.15304116904735565
-1.3583635091781616,3.3994200229644775,-0.15539629757404327
-1.3297690153121948,3.398052453994751,-0.15674346685409546
-1.338236927986145,3.490945816040039,-0.1624377965927124
-1.531471848487854,4.081195831298828,-0.19146974384784698
-1.4268579483032227,3.886828660964966,-0.18378899991512299
-1.3939849138259888,3.882067918777466,-0.1849861741065979
-1.3845515251159668,3.943300485610962,-0.1893492341041565
-1.3519387245178223,3.938011646270752,-0.19049997627735138
-1.2766411304473877,3.806894302368164,-0.18540261685848236
-1.1838594675064087,3.6155827045440674,-0.1772715449333191
-1.1632686853408813,3.6385724544525146,-0.17957273125648499
-1.150248646736145,3.687615394592285,-0.18320050835609436
-1.1242506504058838,3.6955487728118896,-0.18471530079841614
-1.0812733173370361,3.647275686264038,-0.1833447813987732
-1.0510376691818237,3.6397900581359863,-0.18400992453098297
-1.0172216892242432,3.6169016361236572,-0.18387311697006226
-0.9961370229721069,3.6388778686523438,-0.1860218197107315
-0.9568893313407898,3.5968706607818604,-0.18480151891708374
-0.9176679849624634,3.5506272315979004,-0.18329955637454987
-0.8964536786079407,3.5720717906951904,-0.18528452515602112
-0.8595617413520813,3.528888702392578,-0.1839084029197693
-0.833210289478302,3.527125120162964,-0.18468481302261353
-0.7973726391792297,3.4873392581939697,-0.18333254754543304
-0.760025680065155,3.435708522796631,-0.1813279688358307
-0.7310267686843872,3.418011426925659,-0.18109986186027527
-0.7040977478027344,3.407676935195923,-0.18125666677951813
-0.6780918836593628,3.400963544845581,-0.1816006749868393
-0.652231752872467,3.398029327392578,-0.18202248215675354
-0.6240310668945312,3.3794796466827393,-0.181601881980896
-0.5922118425369263,3.3376271724700928,-0.1799219250679016
-0.5676422715187073,3.333937406539917,-0.1802966445684433
-0.5456733703613281,3.345466136932373,-0.18149104714393616
-0.5217064023017883,3.3492519855499268,-0.18214663863182068
-0.49411603808403015,3.325796604156494,-0.18131843209266663
-0.47249022126197815,3.340721845626831,-0.1825866997241974
-0.44254714250564575,3.293630361557007,-0.18046551942825317
-0.41967839002609253,3.296588182449341,-0.18108384311199188
-0.18245790898799896,1.5180442333221436,-0.08353142440319061
-0.3682361841201782,3.2595043182373047,-0.1796797513961792
-0.34834879636764526,3.28912091255188,-0.18164044618606567
-0.3219846189022064,3.2565083503723145,-0.18017169833183289
-0.30037251114845276,3.2702977657318115,-0.1812766045331955
-0.2764711380004883,3.2606446743011475,-0.18094438314437866
-0.2514250874519348,3.239183187484741,-0.17995651066303253
-0.22932958602905273,3.2486255168914795,-0.18068963289260864
-0.20571684837341309,3.2345571517944336,-0.1801224946975708
-0.18322204053401947,3.2358930110931396,-0.18042056262493134
-0.1598827987909317,3.2215006351470947,-0.17972223460674286
-0.13666465878486633,3.2147536277770996,-0.17942897975444794
-0.11298603564500809,3.180541753768921,-0.177608922123909
-0.09062759578227997,3.1734461784362793,-0.1773102581501007
-0.06899159401655197,3.193488121032715,-0.17853671312332153
-0.04634462296962738,3.166590452194214,-0.1770525425672531
-0.02393127791583538,3.17464017868042,-0.17747847735881805
-0.0018325101118534803,3.1747305393218994,-0.17746852338314056
0.02020902931690216,3.1746673583984375,-0.17745858430862427
0.0423821397125721,3.1822502613067627,-0.17788462340831757
0.06367293745279312,3.142890691757202,-0.1756201833486557
0.08567915856838226,3.1501803398132324,-0.1758880317211151
0.10898955911397934,3.180689573287964,-0.177456796169281
0.129816934466362,3.1486892700195312,-0.17554862797260284
0.15173505246639252,3.147718667984009,-0.17538002133369446
0.17362411320209503,3.1465988159179688,-0.17516812682151794
0.19497013092041016,3.1375503540039062,-0.1744219958782196
0.21979683637619019,3.1750240325927734,-0.17626427114009857
0.2418515384197235,3.1734378337860107,-0.1759474277496338
0.26389482617378235,3.1716983318328857,-0.175630584359169
0.28520721197128296,3.162039279937744,-0.17486397922039032
0.3085809051990509,3.1755447387695312,-0.17525926232337952
0.33009830117225647,3.1655633449554443,-0.17436011135578156
0.3542003035545349,3.182605743408203,-0.17496159672737122
0.3763198256492615,3.1800920963287354,-0.1744934767484665
0.40233224630355835,3.2083823680877686,-0.17572030425071716
0.4254962205886841,3.2132956981658936,-0.17552202939987183
0.45019611716270447,3.225717067718506,-0.17573124170303345
0.4747755825519562,3.2379953861236572,-0.1759432554244995
0.4949199855327606,3.2192270755767822,-0.17447438836097717
0.5210215449333191,3.238847017288208,-0.17509351670742035
0.5420610308647156,3.227522850036621,-0.17391787469387054
0.5642624497413635,3.223757266998291,-0.17314599454402924
0.5945839285850525,3.2619707584381104,-0.17461811006069183
0.6187312602996826,3.265460252761841,-0.17423613369464874
0.6444329023361206,3.2764317989349365,-0.1742585450410843
0.6700501441955566,3.2872636318206787,-0.1741565763950348
0.6926068663597107,3.282634735107422,-0.17321866750717163
0.7280951142311096,3.3349170684814453,-0.17526523768901825
0.7495778799057007,3.322206735610962,-0.1738993227481842
0.7726889848709106,3.31695818901062,-0.17293402552604675
0.7954416871070862,3.311631441116333,-0.17185869812965393
0.8396607041358948,3.393265724182129,-0.17526493966579437
0.8653302192687988,3.3949224948883057,-0.17450697720050812
0.8869311809539795,3.381335735321045,-0.17298002541065216
0.9124493598937988,3.3826797008514404,-0.17222528159618378
0.941773533821106,3.3989951610565186,-0.1721101701259613
0.9649344682693481,3.39255690574646,-0.17083778977394104
1.0029194355010986,3.434461832046509,-0.17196747660636902
1.0290759801864624,3.4349281787872314,-0.1710205078125
1.0689436197280884,3.4799845218658447,-0.1722717583179474
1.10548996925354,3.513641595840454,-0.17283296585083008
1.1521435976028442,3.5766654014587402,-0.17481030523777008
1.1870903968811035,3.5981814861297607,-0.17469798028469086
1.2171080112457275,3.604692220687866,-0.17386484146118164
1.2368543148040771,3.5815320014953613,-0.1715625673532486
1.2754348516464233,3.6136069297790527,-0.17183659970760345
1.3105357885360718,3.6343092918395996,-0.1715533435344696
1.3587298393249512,3.687434196472168,-0.172745019197464
1.4192028045654297,3.769103527069092,-0.17520296573638916
1.4643981456756592,3.8104541301727295,-0.1756746619939804
1.4787135124206543,3.7714943885803223,-0.17241817712783813
1.5103085041046143,3.7758607864379883,-0.17113594710826874
1.5557118654251099,3.8123273849487305,-0.17126896977424622
1.6228777170181274,3.8987157344818115,-0.17353782057762146
1.6871461868286133,3.977644443511963,-0.1753566414117813
1.1348596811294556,2.6262760162353516,-0.11465848982334137
1.1499847173690796,2.6112265586853027,-0.11284583806991577
1.1617587804794312,2.588970184326172,-0.11073670536279678
1.168089747428894,2.556175470352173,-0.10811932384967804
1.1917797327041626,2.5625109672546387,-0.10718460381031036
1.2027778625488281,2.540167808532715,-0.10501797497272491
1.2034804821014404,2.4966351985931396,-0.10199546813964844
1.209986686706543,2.4674928188323975,-0.09955897182226181
1.2110261917114258,2.427847385406494,-0.09669584035873413
1.227662444114685,2.419541120529175,-0.0950876995921135
1.244473934173584,2.411001443862915,-0.09345690906047821
1.2570302486419678,2.3957278728485107,-0.09154406189918518
1.2692261934280396,2.380506992340088,-0.08963100612163544
1.266920566558838,2.337484836578369,-0.08665415644645691
1.2834436893463135,2.328517198562622,-0.08491966873407364
1.2893435955047607,2.3029704093933105,-0.08259045332670212
1.300642967224121,2.2876901626586914,-0.08064106851816177
1.300855278968811,2.251628875732422,-0.07791156321763992
1.3400455713272095,2.283088207244873,-0.0775047168135643
1.327239990234375,2.2272140979766846,-0.07409375160932541
1.3421374559402466,2.2183289527893066,-0.07227198779582977
1.353442668914795,2.2023491859436035,-0.07016965746879578
1.3680135011672974,2.193387508392334,-0.06828974932432175
1.3780615329742432,2.1779098510742188,-0.06621109694242477
1.3849862813949585,2.155029296875,-0.06378403306007385
1.4079623222351074,2.158820390701294,-0.062170904129743576
1.41322922706604,2.1367294788360596,-0.0598057359457016
1.4322528839111328,2.1334972381591797,-0.057858433574438095
1.4267244338989258,2.0948638916015625,-0.05495456978678703
1.435826301574707,2.0792057514190674,-0.05265137180685997
1.4457546472549438,2.062840461730957,-0.05020686611533165
1.4456520080566406,2.0342860221862793,-0.047481898218393326
1.4451439380645752,2.0058882236480713,-0.0447375662624836
1.4681310653686523,2.0085628032684326,-0.04255065694451332
1.489843487739563,2.0120346546173096,-0.04036349058151245
3.176818370819092,4.445172309875488,0.11306773871183395
3.154125213623047,4.480288982391357,0.1184978261590004
2.6247591972351074,3.7876358032226562,0.10387780517339706
2.59618878364563,3.807162284851074,0.10797129571437836
3.1336004734039307,4.664618492126465,0.1362934112548828
3.1240639686584473,4.727146148681641,0.14208252727985382
3.107821226119995,4.779676914215088,0.14753346145153046
3.0702202320098877,4.794512748718262,0.15158888697624207
1.6294491291046143,2.587061882019043,0.08368159085512161
1.6226727962493896,2.6188466548919678,0.08655450493097305
1.5921785831451416,2.610023260116577,0.08799028396606445
2.805960178375244,4.677599906921387,0.16074290871620178
2.774754762649536,4.7051191329956055,0.16464632749557495
2.7554986476898193,4.747928142547607,0.16891145706176758
2.7297799587249756,4.780631065368652,0.17281778156757355
2.441908836364746,4.3512654304504395,0.159698024392128
2.42085862159729,4.389669895172119,0.16351258754730225
2.418139696121216,4.457798004150391,0.1683332920074463
2.3862404823303223,4.474844932556152,0.17121809720993042
2.4816837310791016,4.737801551818848,0.18357320129871368
2.4546031951904297,4.769343852996826,0.18703854084014893
2.396036386489868,4.73775577545166,0.1879858672618866
2.3326969146728516,4.69516134262085,0.18836888670921326
1.2440532445907593,2.5507545471191406,0.10341762751340866
1.2205259799957275,2.5490596294403076,0.10441124439239502
1.1994071006774902,2.5503835678100586,0.10548865795135498
1.1863771677017212,2.5693187713623047,0.10728927701711655
1.165635108947754,2.5744550228118896,0.10847463458776474
1.1547353267669678,2.600675582885742,0.11054186522960663
1.1303393840789795,2.5942957401275635,0.11118756234645844
2.063445806503296,4.827236175537109,0.2085898518562317
2.037796974182129,4.863425254821777,0.21175511181354523
2.0122132301330566,4.903513431549072,0.2150939404964447
1.9887943267822266,4.94663143157959,0.21854233741760254
1.984371542930603,5.0365118980407715,0.22406019270420074
2.0194764137268066,5.232180118560791,0.23436607420444489
1.9926236867904663,5.275760173797607,0.2377842515707016
1.9686598777770996,5.330439567565918,0.24175940454006195
1.946902871131897,5.388152599334717,0.24584776163101196
1.9014866352081299,5.379423141479492,0.24690468609333038
1.8789628744125366,5.4368109703063965,0.25097382068634033
1.8684433698654175,5.535163879394531,0.25682970881462097
1.8717726469039917,5.68205451965332,0.265026718378067
1.9118534326553345,5.943877696990967,0.27863165736198425
1.8821496963500977,5.994170188903809,0.2823869585990906
1.8641138076782227,6.085468292236328,0.28807196021080017
1.8283324241638184,6.124739646911621,0.2911521792411804
1.8018319606781006,6.197546482086182,0.2958603799343109
1.7574377059936523,6.2101922035217285,0.2977221608161926
1.74207603931427,6.323779582977295,0.3044259250164032
1.7151397466659546,6.399749279022217,0.3093583583831787
1.6713850498199463,6.419300556182861,0.31137487292289734
0.8261188268661499,3.2684617042541504,0.15909245610237122
1.5540803670883179,6.340125560760498,0.30969616770744324
0.8005707263946533,3.3670449256896973,0.16503563523292542
1.4693182706832886,6.376165390014648,0.3136102259159088
1.4013851881027222,6.283478260040283,0.3099532425403595
1.3551372289657593,6.285566806793213,0.3109007775783539
1.297814965248108,6.237819671630859,0.3094051778316498
1.2450997829437256,6.200744152069092,0.3084101676940918
1.1966718435287476,6.182392597198486,0.30835145711898804
1.141984224319458,6.12917947769165,0.30648884177207947
1.0937074422836304,6.1101837158203125,0.30616968870162964
1.0503226518630981,6.121696949005127,0.3074030578136444
1.0029027462005615,6.1019182205200195,0.3070611357688904
0.950167715549469,6.0431718826293945,0.30475693941116333
0.9011938571929932,6.003282070159912,0.3034062087535858
0.854566216468811,5.978529453277588,0.3026539981365204
0.8095805048942566,5.969000816345215,0.30263033509254456
0.6477269530296326,5.041965007781982,0.2560218870639801
0.627651035785675,5.170252323150635,0.2629461884498596
0.5960695743560791,5.213224411010742,0.26555731892585754
0.5613829493522644,5.232737064361572,0.2669655680656433
0.5246453881263733,5.236526012420654,0.26739391684532166
0.38174474239349365,4.105861663818359,0.2098565548658371
0.35162553191185,4.092871189117432,0.20939627289772034
0.33142364025115967,4.200206756591797,0.21510541439056396
0.30111244320869446,4.186826705932617,0.21464698016643524
0.27063441276550293,4.169346809387207,0.2139204442501068
0.24431583285331726,4.229578018188477,0.2171046882867813
0.22794976830482483,4.492214202880859,0.2306952178478241
0.206867516040802,4.727527141571045,0.2429058700799942
0.1750122755765915,4.756129264831543,0.24451395869255066
0.22992047667503357,7.705136775970459,0.3963666260242462
0.17475160956382751,7.683166027069092,0.39528778195381165
0.12081140279769897,7.656891345977783,0.3939150869846344
0.06727997958660126,7.634139060974121,0.3927428424358368
0.01413330901414156,7.603211879730225,0.3911689519882202
-0.03861973434686661,7.579719066619873,0.3899962306022644
-0.09198492020368576,7.551948070526123,0.3886232078075409
-0.1439933180809021,7.527738094329834,0.38714733719825745
-0.19526037573814392,7.487573146820068,0.38485726714134216
-0.24662038683891296,7.466557025909424,0.383571594953537
-0.29746729135513306,7.441292762756348,0.38208767771720886
-0.07242660969495773,1.5431474447250366,0.07920107245445251
-0.085213303565979,1.577660322189331,0.08092855662107468
-0.09847461432218552,1.6159799098968506,0.08280345797538757
-0.10541622340679169,1.5529916286468506,0.07949227839708328
-0.11674727499485016,1.5600112676620483,0.07977122813463211
-0.13140933215618134,1.6058263778686523,0.08203476667404175
-0.14725758135318756,1.655379295349121,0.08448725193738937
-0.14940790832042694,1.557242512702942,0.07938261330127716
-0.16493642330169678,1.6027532815933228,0.0815729945898056
-0.17683841288089752,1.6093430519104004,0.08178196847438812
-0.1879652440547943,1.6080907583236694,0.08159537613391876
-0.5418149828910828,4.3672099113464355,0.2212633341550827
-0.5934410691261292,4.525832176208496,0.22897356748580933
-0.6257004737854004,4.529394626617432,0.2287096381187439
-0.6556504368782043,4.517307758331299,0.2276207059621811
-0.6860507726669312,4.508879661560059,0.22672809660434723
-0.7166774868965149,4.4962477684021,0.22562246024608612
-0.7440696954727173,4.468101978302002,0.22376024723052979
-0.7764054536819458,4.470552444458008,0.22342799603939056
-0.8014216423034668,4.434464931488037,0.22102174162864685
-0.8289035558700562,4.413575172424316,0.21938872337341309
-0.8479682207107544,4.35038423538208,0.21567212045192719
-0.7433159351348877,3.675088882446289,0.181701198220253
-0.7671961784362793,3.6622419357299805,0.18059101700782776
-0.7882164716720581,3.637855291366577,0.17886264622211456
-0.9664002060890198,4.317803382873535,0.21160587668418884
-0.9975348711013794,4.318775177001953,0.21097426116466522
-1.027816653251648,4.31171989440918,0.20993874967098236
-1.0484118461608887,4.26663875579834,0.2070753425359726
-1.0712493658065796,4.232841968536377,0.2047772854566574
-1.1048462390899658,4.2444167137146,0.20452944934368134
-1.1376010179519653,4.251969814300537,0.2040919065475464
-1.1650482416152954,4.236495494842529,0.20253655314445496
-1.1945351362228394,4.228332996368408,0.20133987069129944
-1.2185298204421997,4.201226234436035,0.19925442337989807
-1.2449978590011597,4.18537712097168,0.19762802124023438
-1.2756320238113403,4.184364318847656,0.19666288793087006
-1.2998167276382446,4.160627365112305,0.1946248561143875
-1.3262999057769775,4.144130229949951,0.19293373823165894
-1.352579116821289,4.127477169036865,0.19124914705753326
-1.3808343410491943,4.118175506591797,0.189855694770813
-1.408526062965393,4.108853816986084,0.18839138746261597
-1.4386996030807495,4.106724739074707,0.1872648447751999
-1.462299108505249,4.081871509552002,0.18506506085395813
-1.4906684160232544,4.071665287017822,0.18355406820774078
-1.5186256170272827,4.0613908767700195,0.1820077747106552
-1.5403071641921997,4.036584377288818,0.1797455996274948
-1.5645555257797241,4.018943786621094,0.17781683802604675
-1.5869996547698975,3.9934134483337402,0.1755008101463318
-1.610328197479248,3.971503973007202,0.1733727902173996
-1.6344499588012695,3.9532651901245117,0.17136795818805695
-1.6608223915100098,3.9423341751098633,0.16962429881095886
-1.6902319192886353,3.9383864402770996,0.16818486154079437
-1.693024754524231,3.869190216064453,0.16391053795814514
-1.7389702796936035,3.900177001953125,0.1639162003993988
-1.7555562257766724,3.8671112060546875,0.16115693747997284
-1.7812222242355347,3.8554348945617676,0.15927572548389435
-1.8072558641433716,3.843379497528076,0.15736165642738342
-1.8310490846633911,3.823528289794922,0.15507225692272186
-1.8607646226882935,3.817922353744507,0.153377965092659
-1.8859848976135254,3.8056087493896484,0.15133406221866608
-1.8900450468063354,3.7512919902801514,0.1476435363292694
-1.9195122718811035,3.7451579570770264,0.14580051600933075
-1.6693633794784546,3.202160120010376,0.12328244000673294
-1.6945728063583374,3.197802782058716,0.12165753543376923
-2.0023679733276367,3.7195165157318115,0.13982363045215607
-2.0428097248077393,3.7331881523132324,0.13856804370880127
-1.715746283531189,3.084343433380127,0.11299292743206024
-1.7362293004989624,3.0729312896728516,0.11103806644678116
-0.8355779647827148,1.4561831951141357,0.05186588689684868
-0.7924497127532959,1.359379768371582,0.04769178107380867
-0.8058807849884033,1.3605773448944092,0.04699155315756798
-0.861041247844696,1.432273030281067,0.04866211116313934
-0.8784643411636353,1.4400146007537842,0.0481073372066021
-0.8762909173965454,1.4138845205307007,0.0463549867272377
-0.8983783721923828,1.4277476072311401,0.04592461511492729
-0.8865355253219604,1.3890583515167236,0.043796394020318985
-1.5239109992980957,2.1891162395477295,0.059349481016397476
-1.301681399345398,1.8441787958145142,0.04845148324966431
-1.3714375495910645,1.9481734037399292,-0.03968619927763939
-1.6405036449432373,2.365229845046997,-0.050360675901174545
