X,Y,Z
1.5317193269729614,4.91615629196167,0.5607175827026367
1.4793658256530762,4.870953559875488,0.5575745105743408
1.447572112083435,4.892278671264648,0.5620574355125427
1.4232165813446045,4.939469337463379,0.5695528984069824
1.3901634216308594,4.956569194793701,0.5736094117164612
1.3535311222076416,4.958287239074707,0.5758739113807678
1.28953218460083,4.858598232269287,0.5661332607269287
1.2624107599258423,4.897475719451904,0.5723301768302917
1.2310301065444946,4.921146392822266,0.5767949223518372
1.1992748975753784,4.944638252258301,0.5812836289405823
1.1710094213485718,4.979008674621582,0.5870409607887268
1.1345632076263428,4.979167461395264,0.5887995958328247
1.1041961908340454,5.009559631347656,0.5938040018081665
1.0717071294784546,5.03221321105957,0.5978600978851318
1.0367658138275146,5.047176837921143,0.6010637283325195
1.0044203996658325,5.069270133972168,0.6051042675971985
0.9719734787940979,5.09112548828125,0.6091482639312744
2.0896148681640625,11.373995780944824,1.3641270399093628
1.9933425188064575,11.30019474029541,1.3575609922409058
1.9046868085861206,11.271719932556152,1.3565205335617065
1.803096890449524,11.15044116973877,1.3443011045455933
1.6991443634033203,10.993632316589355,1.3277645111083984
1.5988281965255737,10.84358024597168,1.3120293617248535
1.5038350820541382,10.71574878692627,1.2989040613174438
1.4022841453552246,10.541400909423828,1.279319167137146
1.3070573806762695,10.385245323181152,1.2619272470474243
1.224051833152771,10.313024520874023,1.2547619342803955
1.1396682262420654,10.209221839904785,1.2437633275985718
1.061739444732666,10.151023864746094,1.2383500337600708
0.9853971600532532,10.099970817565918,1.2338037490844727
0.3890420198440552,4.306003093719482,0.5263919830322266
0.3587341904640198,4.3085479736328125,0.5270971655845642
0.3255102038383484,4.272213459014893,0.5230677127838135
0.29897528886795044,4.320708751678467,0.5294470191001892
0.27033641934394836,4.345818042755127,0.5329936742782593
0.3103925883769989,5.632826805114746,0.691491961479187
0.27235499024391174,5.66191291809082,0.6952489614486694
0.2340773046016693,5.694617748260498,0.6994648575782776
0.1947658210992813,5.711565017700195,0.7017813920974731
0.1555187702178955,5.732110500335693,0.7045746445655823
0.11554718017578125,5.764026165008545,0.7088077664375305
0.07587980479001999,5.795652866363525,0.7130377292633057
0.03548799455165863,5.7960405349731445,0.7130436897277832
-0.0048946174792945385,5.846560478210449,0.7191479206085205
-0.06831815838813782,8.7618408203125,1.0776240825653076
-0.1299901157617569,8.737895965576172,1.0746169090270996
-0.1884993463754654,8.639898300170898,1.062556266784668
-0.17755372822284698,6.173607349395752,0.7592761516571045
-0.22155475616455078,6.207154750823975,0.7631239891052246
-0.25729769468307495,6.035110950469971,0.7415319085121155
-0.17754875123500824,3.5820083618164062,0.4398799240589142
-0.20037952065467834,3.538133382797241,0.4342716336250305
-0.22669339179992676,3.5637869834899902,0.43722259998321533
-0.26675206422805786,3.77876353263855,0.463409423828125
-0.2992669939994812,3.8580706119537354,0.47280725836753845
-0.32327163219451904,3.825096368789673,0.4682655930519104
-0.34551215171813965,3.77262806892395,0.46136221289634705
-0.3692978620529175,3.747086763381958,0.45779046416282654
-0.3945743441581726,3.736801862716675,0.45610496401786804
-0.41577965021133423,3.691669225692749,0.45019426941871643
-0.43955421447753906,3.6733930110931396,0.4474872946739197
-0.46035587787628174,3.631885290145874,0.4417435824871063
-0.478677362203598,3.578782081604004,0.43463730812072754
-0.5022362470626831,3.567843198776245,0.4326828420162201
-0.5213167667388916,3.5260276794433594,0.4270077645778656
-0.5428474545478821,3.50327730178833,0.4236709177494049
-0.5662659406661987,3.491842269897461,0.42164576053619385
-0.5862702131271362,3.465095281600952,0.4175701141357422
-1.120306372642517,6.356917381286621,0.7645370364189148
-1.1700886487960815,6.383729457855225,0.7662683725357056
-1.2261039018630981,6.436698913574219,0.771129310131073
-1.2806551456451416,6.477782726287842,0.7745780348777771
-1.3341064453125,6.506913661956787,0.7764620184898376
-1.390547752380371,6.554954528808594,0.7802074551582336
-1.4402259588241577,6.568419456481934,0.7798495888710022
-1.47136652469635,6.498234748840332,0.7696048021316528
-1.5104162693023682,6.461742877960205,0.7633758187294006
-1.5470185279846191,6.413533687591553,0.7557888031005859
-0.689879298210144,2.775919198989868,0.3262518644332886
-0.7087407112121582,2.771345615386963,0.3247015178203583
-0.7255697846412659,2.7591423988342285,0.32227635383605957
-0.7444004416465759,2.754302740097046,0.32072320580482483
-0.7763813138008118,2.794027328491211,0.3243211507797241
-1.7461594343185425,6.118789196014404,0.7080617547035217
-1.7792960405349731,6.077315807342529,0.7008359432220459
-1.8092470169067383,6.028396129608154,0.6925888061523438
-1.8419828414916992,5.990495681762695,0.6856702566146851
-1.872223973274231,5.9408745765686035,0.6773788928985596
-1.9040757417678833,5.898562431335449,0.6699938774108887
-1.9342089891433716,5.852401256561279,0.6622315049171448
-1.9687280654907227,5.824978351593018,0.6561765074729919
-1.9940195083618164,5.771676063537598,0.6472403407096863
-2.0225608348846436,5.729278564453125,0.6395919322967529
-2.0552775859832764,5.693357944488525,0.6325717568397522
-2.084155797958374,5.650228500366211,0.624863862991333
-2.115882158279419,5.6181817054748535,0.6182125210762024
-2.1423697471618652,5.575371742248535,0.610220193862915
-2.182558298110962,5.568635940551758,0.606216311454773
-2.2460544109344482,5.6151018142700195,0.6078467965126038
-2.3160784244537354,5.675391674041748,0.6109288334846497
-2.3492071628570557,5.645480155944824,0.604184091091156
-2.376251220703125,5.6051859855651855,0.5960691571235657
-2.39207124710083,5.539788722991943,0.5853620767593384
-2.4697561264038086,5.612557411193848,0.5890934467315674
-3.944058418273926,8.796331405639648,0.9170365333557129
-2.5298800468444824,5.539922714233398,0.5735381245613098
-2.556852340698242,5.5024213790893555,0.5653790235519409
-4.264238357543945,9.020047187805176,0.9197980761528015
-2.6030616760253906,5.408660411834717,0.5471176505088806
-2.644275665283203,5.397922515869141,0.5416153073310852
-2.6863386631011963,5.3907928466796875,0.5363179445266724
-2.7096731662750244,5.3492279052734375,0.5274337530136108
-2.7343947887420654,5.311019420623779,0.5189380645751953
-2.740705728530884,5.233851432800293,0.5064842700958252
-2.777899980545044,5.214865207672119,0.49964281916618347
-1.141242504119873,2.1089398860931396,0.19994451105594635
-1.1738340854644775,2.135775566101074,0.20032602548599243
-2.5057787895202637,4.487181663513184,0.4161580204963684
-2.541024684906006,4.476869106292725,0.4103359282016754
-2.5599865913391113,4.439709663391113,0.4018338620662689
-2.600780725479126,4.443627834320068,0.3970550000667572
-1.2416787147521973,2.0894277095794678,0.18420638144016266
-1.2603240013122559,2.0876340866088867,0.18144114315509796
-2.6727538108825684,4.361491680145264,0.3734423518180847
-2.7282168865203857,4.387398719787598,0.369763046503067
-2.969984292984009,4.705584526062012,0.390056848526001
-3.00921368598938,4.695183277130127,0.38241276144981384
-3.0248851776123047,4.653285026550293,0.37204596400260925
-3.03328800201416,4.601870536804199,0.36099275946617126
-3.0528368949890137,4.561530113220215,0.35018837451934814
-3.076859951019287,4.531927108764648,0.3402888774871826
-3.0878772735595703,4.487294673919678,0.32922235131263733
-3.1429221630096436,4.502043724060059,0.32193827629089355
-2.8422698974609375,4.013338088989258,0.27917686104774475
-6.7411651611328125,9.391876220703125,0.6342865228652954
-2.9043333530426025,3.9892799854278564,0.26074784994125366
-2.88903546333313,3.9140849113464355,0.2469138205051422
-2.990623712539673,4.1864495277404785,-0.19030803442001343
-2.444056272506714,3.472940683364868,-0.166650652885437
-2.7668564319610596,3.9944193363189697,-0.20155662298202515
-2.7634787559509277,4.053020477294922,-0.21411411464214325
-2.7304327487945557,4.065420150756836,-0.22376491129398346
-2.1876018047332764,3.3106629848480225,-0.1894880086183548
-2.18450927734375,3.358879804611206,-0.1993301659822464
-2.124602794647217,3.318150043487549,-0.20355045795440674
-2.122446298599243,3.369877338409424,-0.21339520812034607
-1.265925407409668,2.0419960021972656,-0.13313253223896027
-1.2594268321990967,2.0640220642089844,-0.1383293718099594
-2.0280685424804688,3.3806941509246826,-0.2327534556388855
-1.9937512874603271,3.37795352935791,-0.238387793302536
-1.9797395467758179,3.4082744121551514,-0.24621814489364624
-1.183104157447815,2.0716960430145264,-0.15306231379508972
-1.1870296001434326,2.11397123336792,-0.15958675742149353
-2.0329771041870117,3.681229591369629,-0.28365233540534973
-2.5363576412200928,4.671307563781738,-0.3670048713684082
-2.5203585624694824,4.723503112792969,-0.378166139125824
-2.4976308345794678,4.761312484741211,-0.38804566860198975
-2.473106622695923,4.795356273651123,-0.39761048555374146
-2.4444830417633057,4.8267974853515625,-0.40697920322418213
-2.4161276817321777,4.857773780822754,-0.4162503480911255
-2.3888332843780518,4.8879265785217285,-0.42525091767311096
-2.364316701889038,4.9250807762146,-0.4348801374435425
-2.3367598056793213,4.959061622619629,-0.4441397190093994
-2.3106727600097656,4.996326923370361,-0.4537293016910553
-2.2846226692199707,5.033257961273193,-0.4632858335971832
-2.2583985328674316,5.0699663162231445,-0.47271570563316345
-2.2185301780700684,5.078358173370361,-0.47938284277915955
-2.1558914184570312,5.032688617706299,-0.48085832595825195
-2.218585252761841,5.280139446258545,-0.5103985667228699
-2.2028656005859375,5.3491644859313965,-0.523053765296936
-1.85432767868042,4.595792770385742,-0.4542398154735565
-1.8213099241256714,4.608372688293457,-0.46033552289009094
-1.345255732536316,3.474379539489746,-0.350629061460495
-1.3236209154129028,3.4905471801757812,-0.3558200001716614
-1.7511025667190552,4.72090482711792,-0.4858691096305847
-2.0249037742614746,5.580596446990967,-0.5797186493873596
-1.9232863187789917,5.418127059936523,-0.5679538249969482
-1.6151092052459717,4.652318477630615,-0.4920571446418762
-1.5770289897918701,4.6483941078186035,-0.4957389831542969
-1.8683046102523804,5.640406608581543,-0.6065258979797363
-1.8631278276443481,5.759997844696045,-0.624355673789978
-0.9746195673942566,3.086153507232666,-0.3371626138687134
-0.9505718350410461,3.085160493850708,-0.3395934998989105
-0.8191169500350952,2.726911783218384,-0.30229052901268005
-0.7626303434371948,2.605617046356201,-0.29088664054870605
-0.751534104347229,2.6368250846862793,-0.296446293592453
-0.7475943565368652,2.69411301612854,-0.3049817383289337
-0.734542727470398,2.721562623977661,-0.309976726770401
-0.72014981508255,2.7452003955841064,-0.31457892060279846
-0.7008194327354431,2.74991774559021,-0.3170264959335327
-0.67844158411026,2.74324369430542,-0.31819048523902893
-0.6555273532867432,2.7325775623321533,-0.318737268447876
-1.462111234664917,6.290329933166504,-0.7375458478927612
-1.3894680738449097,6.174992561340332,-0.7277926206588745
-1.3447593450546265,6.1763739585876465,-0.7316949367523193
-1.2610622644424438,5.995316982269287,-0.713959276676178
-1.2120040655136108,5.969307899475098,-0.7140011191368103
-1.1535799503326416,5.893447399139404,-0.7079756855964661
-1.1043297052383423,5.858981609344482,-0.7068821787834167
-1.0488911867141724,5.785923004150391,-0.701089084148407
-0.9831209778785706,5.651394367218018,-0.6876884698867798
-0.9363296031951904,5.61570405960083,-0.6857216358184814
-0.95423424243927,5.981742858886719,-0.732979416847229
-0.9147741794586182,6.003186225891113,-0.7381904125213623
-0.8779970407485962,6.043531894683838,-0.7457738518714905
-0.8381734490394592,6.07228946685791,-0.7516946196556091
-0.632588803768158,4.832153797149658,-0.5997953414916992
-0.7402166724205017,5.978878021240234,-0.7441685795783997
-0.6958480477333069,5.960458278656006,-0.743928074836731
-0.6505531668663025,5.930147647857666,-0.742216944694519
-0.6031898260116577,5.876443862915039,-0.7370694279670715
-0.559150755405426,5.857189178466797,-0.7361277937889099
-0.5196084976196289,5.8761515617370605,-0.7399960160255432
-0.4689672291278839,5.759631156921387,-0.7268062233924866
-0.256326824426651,3.443594455718994,-0.43545040488243103
-0.23412364721298218,3.4722750186920166,-0.43959176540374756
-0.2069241851568222,3.431204080581665,-0.43493038415908813
-0.1813913881778717,3.401512861251831,-0.43171098828315735
-0.2610679566860199,5.632295608520508,-0.7157710790634155
-0.14076536893844604,3.5739102363586426,-0.4547041654586792
-0.11634716391563416,3.5902557373046875,-0.45699769258499146
-0.09314823895692825,3.680044174194336,-0.4686729609966278
-0.06698253750801086,3.649566888809204,-0.4650537073612213
-0.04183657839894295,3.665400505065918,-0.46735647320747375
-0.016507765278220177,3.6965832710266113,-0.4714525640010834
0.009307091124355793,3.746995449066162,-0.47776979207992554
0.03630394861102104,3.801095962524414,-0.48457634449005127
0.06307056546211243,3.8201372623443604,-0.4869367182254791
0.08968127518892288,3.8196194171905518,-0.4868272542953491
0.11811728775501251,3.880924701690674,-0.494324654340744
0.14728330075740814,3.938167095184326,-0.5011422634124756
0.17604900896549225,3.968092203140259,-0.5044974088668823
0.20749832689762115,4.032614231109619,-0.5122578144073486
0.23735502362251282,4.062098503112793,-0.5155893564224243
0.2678613066673279,4.095282077789307,-0.5189947485923767
0.29963403940200806,4.139847755432129,-0.5237727165222168
0.324066698551178,4.083718776702881,-0.5158374905586243
0.3549164831638336,4.104635238647461,-0.5176510214805603
0.3812614679336548,4.079057216644287,-0.513615071773529
0.40828609466552734,4.064949989318848,-0.5106065273284912
0.43471986055374146,4.04680871963501,-0.5071237683296204
0.4628193974494934,4.043885707855225,-0.5055712461471558
0.48862817883491516,4.01761531829834,-0.5011090636253357
0.5165495872497559,4.014329433441162,-0.49943992495536804
0.5495503544807434,4.04932165145874,-0.502219557762146
0.6877260208129883,4.817183494567871,-0.5956072807312012
0.7200025916099548,4.804919242858887,-0.5922694802284241
0.7552223801612854,4.8076605796813965,-0.5907738208770752
0.7765955924987793,4.729928493499756,-0.5791958570480347
0.8151103258132935,4.75921106338501,-0.5805224776268005
0.8561484217643738,4.799638271331787,-0.5831955075263977
0.892399787902832,4.809169292449951,-0.5820950865745544
0.9214826226234436,4.780337810516357,-0.5763829946517944
0.9550753831863403,4.77414608001709,-0.5730046629905701
0.9832992553710938,4.745051860809326,-0.5668635964393616
1.0120569467544556,4.719568252563477,-0.5611980557441711
1.0432573556900024,4.705226421356201,-0.5568808317184448
1.067331075668335,4.660430431365967,-0.5489538908004761
1.0982189178466797,4.645731449127197,-0.5441649556159973
1.1283560991287231,4.6309614181518555,-0.539459764957428
1.1586384773254395,4.615921974182129,-0.5347310304641724
1.186933994293213,4.593137264251709,-0.5291351675987244
1.2167470455169678,4.577760696411133,-0.5242263674736023
1.2457431554794312,4.558373928070068,-0.5186277031898499
1.272936463356018,4.5352044105529785,-0.5127001404762268
1.3024137020111084,4.519227027893066,-0.5075849890708923
1.3317288160324097,4.503053665161133,-0.5024834871292114
1.3536903858184814,4.464548587799072,-0.4945908486843109
1.3825534582138062,4.4480743408203125,-0.48911017179489136
1.4157240390777588,4.446291446685791,-0.48529723286628723
1.4407111406326294,4.418334007263184,-0.4786356985569
1.4687849283218384,4.401402950286865,-0.4730743169784546
1.4989155530929565,4.391763210296631,-0.46813464164733887
1.5136479139328003,4.337861061096191,-0.45853373408317566
1.271382451057434,3.5623292922973633,-0.3732767105102539
1.298919916152954,3.5610883235931396,-0.36992475390434265
1.325972080230713,3.5598530769348145,-0.36633288860321045
1.6308661699295044,4.288994789123535,-0.43719395995140076
1.6507786512374878,4.252721786499023,-0.42929548025131226
1.6824254989624023,4.24503231048584,-0.4242251515388489
1.7101444005966187,4.230294704437256,-0.4183601438999176
1.746369481086731,4.237065315246582,-0.4145488739013672
1.762003779411316,4.193180561065674,-0.4057635962963104
1.7912993431091309,4.181298732757568,-0.40006741881370544
1.8144437074661255,4.154887676239014,-0.3928302824497223
1.8300087451934814,4.114552021026611,-0.38430657982826233
1.8613399267196655,4.109566688537598,-0.3790973126888275
1.8868045806884766,4.089916706085205,-0.3724450170993805
1.918395757675171,4.084345817565918,-0.3670356869697571
1.9397728443145752,4.057538032531738,-0.3595415949821472
1.9673763513565063,4.044769287109375,-0.3533819615840912
1.9835188388824463,4.007028102874756,-0.34495651721954346
2.0146398544311523,4.000737190246582,-0.33922383189201355
2.043306827545166,3.9910898208618164,-0.33310529589653015
2.0685970783233643,3.9741859436035156,-0.32634425163269043
2.089588165283203,3.946115255355835,-0.31844496726989746
2.105520725250244,3.911639451980591,-0.31013062596321106
2.1317410469055176,3.8979387283325195,-0.30343934893608093
2.150836229324341,3.87013578414917,-0.29556745290756226
2.137638807296753,3.7842259407043457,-0.2832731008529663
2.1752023696899414,3.790271282196045,-0.27777329087257385
2.196533441543579,3.7694296836853027,-0.27037566900253296
2.206845998764038,3.7277071475982666,-0.26129159331321716
2.244616985321045,3.7329154014587402,-0.2554607093334198
2.2815120220184326,3.738412618637085,-0.24954670667648315
2.28674578666687,3.6899056434631348,-0.2397976964712143
2.3125433921813965,3.674283266067505,-0.23216435313224792
2.3493683338165283,3.6791250705718994,-0.225758358836174
2.356825351715088,3.6376869678497314,-0.21644939482212067
2.3822343349456787,3.6215734481811523,-0.20835095643997192
2.4152584075927734,3.618880033493042,-0.20085646212100983
2.4171488285064697,3.571035861968994,-0.19093920290470123
2.450920820236206,3.567352533340454,-0.1829664409160614
2.487602710723877,3.5708844661712646,-0.17528344690799713
2.4931466579437256,3.5292775630950928,-0.16519060730934143
2.5225989818573,3.5183334350585938,-0.15594595670700073
2.558732271194458,3.5215420722961426,-0.1474340409040451
2.5872843265533447,3.510730266571045,-0.1376764327287674
2.7638800144195557,3.9093210697174072,0.29696670174598694
2.7316906452178955,3.9216179847717285,0.3064277172088623
2.719642162322998,3.967064142227173,0.3183729648590088
2.679766893386841,3.974515676498413,0.3272559940814972
2.6473641395568848,3.9860785007476807,0.3356309235095978
2.6385858058929443,4.037764549255371,0.34729230403900146
2.5820586681365967,4.017919540405273,0.3527241349220276
2.574575424194336,4.068180561065674,0.3636763095855713
2.536107301712036,4.073197364807129,0.37064531445503235
2.5171353816986084,4.111639976501465,0.38044223189353943
2.487138271331787,4.129145622253418,0.3880610466003418
2.4659650325775146,4.159243583679199,0.3967016935348511
2.4268593788146973,4.163471698760986,0.40267646312713623
2.394662380218506,4.1813578605651855,0.4100356996059418
2.3764376640319824,4.217898368835449,0.41881266236305237
2.3317012786865234,4.20656681060791,0.4227970838546753
2.2572991847991943,4.144683361053467,0.42131510376930237
2.2225019931793213,4.153974533081055,0.4269861578941345
2.206958770751953,4.196811199188232,0.4359744191169739
2.1792397499084473,4.215024948120117,0.4423355758190155
2.1463708877563477,4.226883411407471,0.44778579473495483
2.123523712158203,4.259528160095215,0.4554297924041748
2.08933687210083,4.267141819000244,0.4603014290332794
2.058825731277466,4.281344890594482,0.4658603072166443
2.034689426422119,4.309484481811523,0.47276002168655396
2.0027482509613037,4.32384729385376,0.4779828190803528
1.95945143699646,4.313199520111084,0.4804461598396301
1.9829809665679932,4.4469451904296875,0.4989023804664612
1.9704968929290771,4.502863883972168,0.508777916431427
1.9403480291366577,4.523828983306885,0.514572024345398
1.9236760139465332,4.576781272888184,0.5239110589027405
1.8991385698318481,4.61167573928833,0.5312351584434509
1.8668286800384521,4.624311447143555,0.535903811454773
1.8429639339447021,4.658398151397705,0.5431038737297058
1.7973639965057373,4.642359256744385,0.5442146062850952
1.7785437107086182,4.694793224334717,0.5532531142234802
0.6246334314346313,1.6855199337005615,0.1996663361787796
1.3289575576782227,3.6639726161956787,0.4362112581729889
1.3007616996765137,3.665454149246216,0.4385771155357361
1.2587995529174805,3.6304423809051514,0.43640613555908203
1.635862946510315,4.830081462860107,0.5831192135810852
1.587428092956543,4.800806522369385,0.5820991396903992
1.5583935976028442,4.826167583465576,0.5876463055610657
1.53164541721344,4.858682155609131,0.5940954685211182
1.4967061281204224,4.869104862213135,0.597804844379425
1.4626401662826538,4.883082389831543,0.6016247868537903
1.4295358657836914,4.900543212890625,0.605910062789917
1.4232347011566162,5.010923385620117,0.6217327117919922
1.3727269172668457,4.964248180389404,0.6180765628814697
1.3048516511917114,4.849700450897217,0.6059191823005676
1.2756025791168213,4.881157875061035,0.6117002964019775
1.244393229484558,4.904858112335205,0.6164005398750305
1.216665506362915,4.943405628204346,0.6230118274688721
1.1846059560775757,4.962794303894043,0.6272218823432922
1.151762843132019,4.978128910064697,0.6309415102005005
1.1214834451675415,5.008517742156982,0.636640191078186
1.0890287160873413,5.0312418937683105,0.6409178972244263
1.057944893836975,5.061331748962402,0.6461750268936157
1.0126466751098633,5.022849082946777,0.6427057981491089
0.9805062413215637,5.044722080230713,0.6469529271125793
0.9788780808448792,5.234103679656982,0.6727967858314514
1.9812307357788086,11.018823623657227,1.419503927230835
1.8930820226669312,10.974810600280762,1.4161456823349
1.807552695274353,10.94157886505127,1.4142277240753174
1.732261300086975,10.968925476074219,1.4202051162719727
1.6413171291351318,10.89227294921875,1.4127639532089233
1.5456432104110718,10.764867782592773,1.398716688156128
1.4511487483978271,10.632878303527832,1.3839162588119507
1.3613405227661133,10.527209281921387,1.3716758489608765
1.2687536478042603,10.386220932006836,1.354864478111267
1.1787757873535156,10.248303413391113,1.3384733200073242
1.1010615825653076,10.209839820861816,1.335120439529419
1.0264239311218262,10.182231903076172,1.3332085609436035
0.40683844685554504,4.338532447814941,0.568789005279541
0.3736991584300995,4.3103179931640625,0.5654473900794983
0.3427744209766388,4.30502462387085,0.5651378631591797
0.3113854229450226,4.2995476722717285,0.564838707447052
0.2814791798591614,4.301518440246582,0.5655328631401062
0.32892027497291565,5.6255784034729,0.740214467048645
0.28945645689964294,5.619871616363525,0.7401015758514404
0.2518022358417511,5.65651798248291,0.7451198697090149
0.2133229821920395,5.704555511474609,0.7516264915466309
0.17374540865421295,5.713596820831299,0.7530303597450256
0.13438637554645538,5.733976364135742,0.7559660077095032
0.0951332077383995,5.773443698883057,0.7614572644233704
0.055189959704875946,5.797150135040283,0.7649097442626953
0.014216653071343899,5.824503421783447,0.7684921026229858
-0.049138203263282776,10.870561599731445,1.4339725971221924
-0.12520809471607208,10.9048490524292,1.4382617473602295
-0.11098460853099823,6.0171990394592285,0.793529748916626
-0.21858026087284088,8.602462768554688,1.1343917846679688
-0.27636027336120605,8.538834571838379,1.1259820461273193
-0.23902517557144165,6.060088157653809,0.7988635897636414
-0.27728477120399475,5.977140426635742,0.7874138951301575
-0.18959221243858337,3.5541627407073975,0.46793273091316223
-0.21350328624248505,3.5412237644195557,0.4659689664840698
-0.2389187216758728,3.5513033866882324,0.46705523133277893
-0.5797264575958252,7.79440975189209,1.0246095657348633
-0.3074962794780731,3.7793614864349365,0.496511310338974
-0.3359270691871643,3.804267406463623,0.4992346465587616
-0.3617773950099945,3.7981138229370117,0.49790236353874207
-0.3832264244556427,3.749396800994873,0.49102064967155457
-0.4080655872821808,3.731297492980957,0.48816797137260437
-0.4272628724575043,3.6707630157470703,0.4798049032688141
-0.44988834857940674,3.6447489261627197,0.47596126794815063
-0.4703998863697052,3.6071484088897705,0.4703179597854614
-0.4951622784137726,3.6039791107177734,0.4691932201385498
-0.5081703662872314,3.5162179470062256,0.4570815861225128
-0.5348559021949768,3.5280776023864746,0.45796194672584534
-0.5569463968276978,3.509110927581787,0.4548608064651489
-0.5756293535232544,3.4708943367004395,0.4492953419685364
-1.0944591760635376,6.330809116363525,0.8178485035896301
-1.148030400276184,6.38071870803833,0.822631299495697
-1.2010027170181274,6.41862154006958,0.8258482217788696
-1.2550950050354004,6.459939479827881,0.8295276761054993
-1.3107868432998657,6.50457763671875,0.8336402177810669
-1.3647843599319458,6.5373735427856445,0.8362520933151245
-1.4201538562774658,6.577547073364258,0.8392804265022278
-1.4582188129425049,6.533903121948242,0.8315591812133789
-1.4940788745880127,6.486441135406494,0.8234525322914124
-1.5326409339904785,6.449970245361328,0.8167728185653687
-0.6891138553619385,2.8130762577056885,0.3553406298160553
-0.6972904205322266,2.7632815837860107,0.3481955826282501
-0.7202369570732117,2.7736310958862305,0.34838950634002686
-0.7330449819564819,2.746408462524414,0.343896746635437
-0.7557714581489563,2.7565386295318604,0.34410005807876587
-0.7706990838050842,2.736501932144165,0.3405289649963379
-1.7680456638336182,6.114634037017822,0.7585324645042419
-1.797898292541504,6.057877540588379,0.7490139007568359
-1.8264051675796509,6.005285263061523,0.7396883368492126
-1.8624176979064941,5.978488445281982,0.7335960268974304
-1.8888905048370361,5.921848773956299,0.7238913774490356
-1.9229307174682617,5.886927604675293,0.71683669090271
-1.9535623788833618,5.840554237365723,0.7084031105041504
-1.9834123849868774,5.798234462738037,0.7002779245376587
-2.010910987854004,5.7523345947265625,0.6915716528892517
-2.0417966842651367,5.717285633087158,0.6842314600944519
-2.0704903602600098,5.674483299255371,0.6759540438652039
-2.0991644859313965,5.631378650665283,0.6676672697067261
-2.129206895828247,5.5916008949279785,0.6597254872322083
-2.163790225982666,5.570586681365967,0.6537086367607117
-2.219689130783081,5.603493690490723,0.6540189385414124
-2.286764144897461,5.66093635559082,0.657103955745697
-2.3306422233581543,5.656254768371582,0.6528550982475281
-2.3632850646972656,5.62227725982666,0.6451903581619263
-2.3918137550354004,5.585517883300781,0.636932909488678
-2.441434383392334,5.598598003387451,0.6343306303024292
-2.5168538093566895,5.66796350479126,0.6380186676979065
-2.538925886154175,5.611927509307861,0.6274063587188721
-2.5186994075775146,5.463781356811523,0.6065855026245117
-2.571821689605713,5.482644081115723,0.6041378974914551
-2.621720790863037,5.494143962860107,0.6007862687110901
-2.658707618713379,5.477053165435791,0.5942606329917908
-2.686676025390625,5.438112258911133,0.5852299928665161
-2.6919939517974854,5.353647232055664,0.5713015198707581
-2.7344155311584473,5.350320816040039,0.5658172369003296
-2.7375075817108154,5.2707061767578125,0.5523302555084229
-2.7771942615509033,5.259449005126953,0.5459070205688477
-2.7938177585601807,5.202870845794678,0.5347073078155518
-1.1554983854293823,2.1175265312194824,0.21537037193775177
-1.177205204963684,2.1236672401428223,0.21361687779426575
-2.506788730621338,4.452586650848389,0.4429000914096832
-2.53031063079834,4.422021389007568,0.43462783098220825
-2.5685880184173584,4.418598175048828,0.42897775769233704
-2.585617780685425,4.382240295410156,0.41994979977607727
-1.252443790435791,2.090899705886841,0.1976766437292099
-2.659552574157715,4.371110916137695,0.40734803676605225
-2.6546294689178467,4.297179222106934,0.39454591274261475
-2.9676856994628906,4.736123085021973,0.42808765172958374
-2.97162127494812,4.674530029296875,0.41567763686180115
-3.021977424621582,4.680100917816162,0.4086633324623108
-3.0361716747283936,4.634485721588135,0.3971870243549347
-3.053023338317871,4.596142292022705,0.38633134961128235
-3.0517125129699707,4.527493000030518,0.3725925385951996
-3.09600830078125,4.526488304138184,0.36425521969795227
-3.1117589473724365,4.488050937652588,0.3525940477848053
-2.8568310737609863,4.062992095947266,0.3111080229282379
-2.842104911804199,3.98340106010437,0.2965336740016937
-2.9013843536376953,4.013572692871094,0.290012001991272
-2.893604278564453,3.947638988494873,0.27599990367889404
-2.9155352115631104,3.922518730163574,0.2644623816013336
-2.4648325443267822,3.477201461791992,-0.17096233367919922
-2.4265925884246826,3.474968433380127,-0.1799897700548172
-2.787532329559326,4.055166721343994,-0.22046679258346558
-2.7347898483276367,4.04326868057251,-0.23004740476608276
-2.2259724140167236,3.3410372734069824,-0.19785910844802856
-2.159935712814331,3.2953104972839355,-0.2027309387922287
-2.171799659729004,3.366180896759033,-0.2144741266965866
-2.156203269958496,3.394169569015503,-0.2233804613351822
-2.126068115234375,3.403384208679199,-0.2311733216047287
-1.2743265628814697,2.072800397872925,-0.1449032425880432
-2.049003839492798,3.3856234550476074,-0.24315109848976135
-2.0098161697387695,3.3767738342285156,-0.2488841414451599
-1.9851744174957275,3.3907787799835205,-0.25613895058631897
-1.9862043857574463,3.448228597640991,-0.2666456699371338
-1.2061485052108765,2.1294796466827393,-0.16835783421993256
-1.1790330410003662,2.117546796798706,-0.17105013132095337
-2.0624358654022217,3.765686511993408,-0.31031981110572815
-2.526878595352173,4.69202995300293,-0.39420977234840393
-2.5063130855560303,4.737557888031006,-0.40566498041152954
-2.4793286323547363,4.768540382385254,-0.41568201780319214
-2.452868700027466,4.798946857452393,-0.4255317151546478
-2.4304068088531494,4.840114116668701,-0.43630027770996094
-2.405339002609253,4.877899646759033,-0.44680336117744446
-2.3768503665924072,4.908364295959473,-0.45663073658943176
-2.3523929119110107,4.94522762298584,-0.46692711114883423
-2.324784517288208,4.9789719581604,-0.47680196166038513
-2.298358201980591,5.016128063201904,-0.4870549440383911
-2.2756617069244385,5.059830665588379,-0.4978582262992859
-2.247960090637207,5.092674732208252,-0.507638156414032
-2.0668158531188965,4.7762770652771,-0.482084721326828
-2.0170693397521973,4.75454044342041,-0.48572641611099243
-1.905867099761963,4.5812087059021,-0.4734925627708435
-1.901624321937561,4.662149906158447,-0.4873932898044586
-1.8435745239257812,4.61361837387085,-0.4875399172306061
-1.7984548807144165,4.597314357757568,-0.49107950925827026
-1.3390896320343018,3.4950098991394043,-0.37718942761421204
-1.305059790611267,3.4783027172088623,-0.3791913390159607
-2.040929079055786,5.558777809143066,-0.6117960810661316
-1.9827125072479248,5.5212531089782715,-0.613334596157074
-1.8759909868240356,5.343991279602051,-0.5991683602333069
-1.5926252603530884,4.63986873626709,-0.5248916745185852
-1.5622648000717163,4.6577253341674805,-0.5314309597015381
-1.8710895776748657,5.712439060211182,-0.6570852994918823
-0.9719639420509338,3.0399258136749268,-0.35250139236450195
-0.956076979637146,3.0648815631866455,-0.35825487971305847
-0.8283254504203796,2.7220282554626465,-0.3206544518470764
-0.7604001760482788,2.563776731491089,-0.304151326417923
-0.7486255168914795,2.591158866882324,-0.30956846475601196
-0.7419801950454712,2.6371102333068848,-0.31724587082862854
-0.7399340271949768,2.7017695903778076,-0.3272632658481598
-0.7185520529747009,2.6991772651672363,-0.32905998826026917
-0.7101083397865295,2.745192050933838,-0.33670365810394287
-0.6841064691543579,2.7234814167022705,-0.33606162667274475
-0.659579873085022,2.7052652835845947,-0.33580827713012695
-0.6477998495101929,2.739686965942383,-0.3420705497264862
-1.437870740890503,6.281671524047852,-0.7884321808815002
-1.3784146308898926,6.2228684425354,-0.7850850224494934
-1.3242671489715576,6.182436466217041,-0.7839860320091248
-1.2795413732528687,6.183284282684326,-0.7881093621253967
-1.227771520614624,6.149701118469238,-0.7874679565429688
-1.1793392896652222,6.134922027587891,-0.7890042662620544
-1.1248784065246582,6.081533908843994,-0.7855096459388733
-1.0762187242507935,6.054358959197998,-0.785366952419281
-0.9635460376739502,5.648691177368164,-0.7359105348587036
-0.9793385863304138,5.995182514190674,-0.7837783694267273
-0.9351639747619629,5.993916988372803,-0.7863927483558655
-0.46771809458732605,3.1416819095611572,-0.41362351179122925
-0.43716809153556824,3.083256959915161,-0.4073529839515686
-0.41672512888908386,3.0936787128448486,-0.41006144881248474
-0.39703115820884705,3.1116933822631836,-0.41354963183403015
-0.3799109160900116,3.1526453495025635,-0.4201243817806244
-0.3606143593788147,3.181993007659912,-0.42521342635154724
-0.34011518955230713,3.199627637863159,-0.4287518560886383
-0.32006826996803284,3.22487473487854,-0.4330989718437195
-0.3014513850212097,3.2692925930023193,-0.4398980140686035
-0.2805868089199066,3.294313669204712,-0.4441254734992981
-0.26029103994369507,3.3346590995788574,-0.45046862959861755
-0.23955398797988892,3.3709897994995117,-0.4562966525554657
-0.2180500477552414,3.4033780097961426,-0.46124905347824097
-0.19521725177764893,3.4201745986938477,-0.46407049894332886
-0.17312923073768616,3.456146001815796,-0.4695245027542114
-0.1496461182832718,3.48038649559021,-0.47342750430107117
-0.1270938515663147,3.5276694297790527,-0.4804191291332245
-0.10307241976261139,3.5477731227874756,-0.4833518862724304
-0.0791744738817215,3.5870606899261475,-0.4889254868030548
-0.05435540899634361,3.5952231884002686,-0.49028241634368896
-0.02957030199468136,3.676751136779785,-0.5016796588897705
-0.004028838127851486,3.6923341751098633,-0.50390625
0.02193313091993332,3.742609977722168,-0.5106029510498047
0.04831468313932419,3.7733516693115234,-0.5146560072898865
0.07518719881772995,3.8039047718048096,-0.5187059044837952
0.10279758274555206,3.8458728790283203,-0.5243354439735413
0.13155469298362732,3.891538381576538,-0.5301570892333984
0.16061922907829285,3.94089937210083,-0.5363260507583618
0.18874794244766235,3.9552457332611084,-0.5377458333969116
0.21983171999454498,4.019636631011963,-0.5459851026535034
0.2518197000026703,4.083786964416504,-0.5542014837265015
0.2817119061946869,4.0975165367126465,-0.5550997257232666
0.3069102466106415,4.053168773651123,-0.5481271743774414
0.3356547951698303,4.058823585510254,-0.5479512214660645
0.3645596206188202,4.064268589019775,-0.5477677583694458
0.39689257740974426,4.104203701019287,-0.5521659255027771
0.4242156147956848,4.086138725280762,-0.5483192801475525
0.4516546428203583,4.075638771057129,-0.5455471277236938
0.47405022382736206,4.022642612457275,-0.537128746509552
0.49918967485427856,3.996415853500366,-0.5323300361633301
0.5269299745559692,3.9931087493896484,-0.5304080843925476
0.5561224818229675,3.9972641468048096,-0.5291964411735535
0.582667350769043,3.9859426021575928,-0.5259920358657837
0.6092119216918945,3.974423885345459,-0.522785484790802
0.6368188261985779,3.9703824520111084,-0.5205929279327393
0.6585392951965332,3.931818962097168,-0.513573408126831
0.681708574295044,3.904613494873047,-0.5079695582389832
0.7105834484100342,3.907684326171875,-0.5062989592552185
0.7306110858917236,3.864898920059204,-0.49874886870384216
0.7589864134788513,3.8676652908325195,-0.4970921277999878
0.7841235399246216,3.8551268577575684,-0.49308598041534424
0.8051605224609375,3.8234503269195557,-0.48667389154434204
0.8305362462997437,3.8104748725891113,-0.48263227939605713
0.8605126738548279,3.8200995922088623,-0.48150503635406494
0.8896960020065308,3.825756788253784,-0.4797108769416809
0.9233638644218445,3.850111246109009,-0.48003095388412476
1.1406675577163696,4.615899085998535,-0.5722528696060181
1.167667269706726,4.5856614112854,-0.5651969909667969
1.1986290216445923,4.574169635772705,-0.5605579614639282
1.2301537990570068,4.566347122192383,-0.5560237169265747
1.2594962120056152,4.550848484039307,-0.5505204796791077
1.284653663635254,4.520168781280518,-0.5432060956954956
1.3102596998214722,4.489127159118652,-0.5358169078826904
1.3481330871582031,4.502777576446533,-0.533729076385498
1.3700200319290161,4.464285373687744,-0.5252204537391663
1.4007195234298706,4.455332279205322,-0.5202428102493286
1.4234771728515625,4.420156955718994,-0.5121936202049255
1.4561210870742798,4.414191246032715,-0.5075001120567322
1.4802464246749878,4.3862786293029785,-0.5000909566879272
1.5052757263183594,4.361927032470703,-0.49308663606643677
1.2446640729904175,3.5277533531188965,-0.3953426480293274
1.2824832201004028,3.5560011863708496,-0.39500707387924194
1.3097776174545288,3.5548250675201416,-0.3912631571292877
1.6054949760437012,4.266284465789795,-0.46498793363571167
1.6417415142059326,4.273906230926514,-0.4612872898578644
1.6687766313552856,4.2556962966918945,-0.45472538471221924
1.6912037134170532,4.226522922515869,-0.44700440764427185
1.7200431823730469,4.215499401092529,-0.44101303815841675
1.7567681074142456,4.222029209136963,-0.4367755055427551
1.7725533246994019,4.178064823150635,-0.42732641100883484
1.8018234968185425,4.166149616241455,-0.4211937189102173
1.8208093643188477,4.133029937744141,-0.4127494692802429
1.842555284500122,4.106955528259277,-0.40505650639533997
1.8748332262039185,4.101519584655762,-0.3992254137992859
1.8970057964324951,4.074774265289307,-0.391396701335907
1.9247673749923706,4.062361240386963,-0.38483569025993347
1.9489463567733765,4.042796611785889,-0.37759026885032654
1.9769539833068848,4.029798984527588,-0.3708707392215729
2.000396966934204,4.005792617797852,-0.36302369832992554
2.0363285541534424,4.010114669799805,-0.3577065169811249
2.054408073425293,3.979593515396118,-0.3492761552333832
2.0711898803710938,3.945127487182617,-0.3403920531272888
2.102454662322998,3.9379987716674805,-0.3338574767112732
2.125150680541992,3.9175400733947754,-0.3260999619960785
2.1406068801879883,3.883044958114624,-0.31712353229522705
2.1316044330596924,3.803946018218994,-0.3044975697994232
2.169400930404663,3.8100337982177734,-0.29874387383461
2.1792478561401367,3.769010305404663,-0.2892478108406067
2.2048792839050293,3.7546439170837402,-0.2817421853542328
2.243549346923828,3.7595162391662598,-0.27536723017692566
2.260603666305542,3.731625556945801,-0.26664865016937256
2.273026704788208,3.697181224822998,-0.257519394159317
2.3071651458740234,3.6949398517608643,-0.2502630949020386
2.3115041255950928,3.6466784477233887,-0.23990070819854736
2.352800130844116,3.657867670059204,-0.23332928121089935
2.382253885269165,3.648613452911377,-0.22518709301948547
2.390021562576294,3.606672525405884,-0.2149505913257599
2.422205924987793,3.6044607162475586,-0.20711377263069153
2.4468111991882324,3.588313579559326,-0.198078453540802
2.4627392292022705,3.55894136428833,-0.18800942599773407
2.485651969909668,3.5434513092041016,-0.17883729934692383
2.5236756801605225,3.545743465423584,-0.16991738975048065
2.528871536254883,3.504063844680786,-0.15877985954284668
2.5838961601257324,3.532085657119751,-0.15056845545768738
2.187255382537842,2.9470133781433105,-0.11701131612062454
2.7821881771087646,3.9044435024261475,0.3158641755580902
2.7575438022613525,3.9305026531219482,0.32750141620635986
2.7422189712524414,3.9687700271606445,0.33969244360923767
2.684722661972046,3.950578212738037,0.3468674421310425
2.655963182449341,3.969111919403076,0.3565541207790375
2.657137393951416,4.032932281494141,0.3701243996620178
2.6082875728607178,4.026740550994873,0.37729883193969727
2.5912790298461914,4.064600467681885,0.38805222511291504
2.566694974899292,4.088540554046631,0.3972730040550232
2.5352983474731445,4.1072540283203125,0.4057571589946747
2.4879658222198486,4.0988874435424805,0.41146454215049744
2.492471694946289,4.172598838806152,0.4251224100589752
2.4581663608551025,4.183081150054932,0.43221232295036316
2.4127445220947266,4.177229404449463,0.4374192953109741
2.3992066383361816,4.224545001983643,0.4480569660663605
2.3618695735931396,4.226963043212891,0.4537205994129181
2.270646095275879,4.134474277496338,0.44899749755859375
2.235874652862549,4.143815040588379,0.454965204000473
2.2162904739379883,4.180017948150635,0.46382245421409607
2.195845365524292,4.2120208740234375,0.4720679223537445
2.16562819480896,4.226932048797607,0.4783356189727783
2.1334612369537354,4.242552757263184,0.4845564365386963
2.1155245304107666,4.285518169403076,0.4938757121562958
2.0786454677581787,4.285594463348389,0.4980296790599823
2.045173168182373,4.292392730712891,0.5029737949371338
2.0169243812561035,4.313666820526123,0.5093277096748352
1.9849529266357422,4.327821254730225,0.5148264169692993
1.9785162210464478,4.398329734802246,0.5270892977714539
1.9883915185928345,4.503814220428467,0.5435135960578918
1.9488807916641235,4.499259948730469,0.5466917157173157
1.9385026693344116,4.5664472579956055,0.558301568031311
1.8929569721221924,4.551278591156006,0.5598911046981812
1.8802789449691772,4.6146321296691895,0.5711528658866882
1.8508039712905884,4.634283542633057,0.5769453048706055
1.823791265487671,4.661046504974365,0.5835952758789062
1.7967044115066528,4.69175910949707,0.5904374122619629
1.7869133949279785,4.76955509185791,0.6032935380935669
0.6098339557647705,1.6643654108047485,0.2115970402956009
1.314144492149353,3.665357828140259,0.46827417612075806
1.285930871963501,3.6666977405548096,0.47073858976364136
1.6300934553146362,4.757630348205566,0.6133663654327393
1.6078333854675293,4.805581569671631,0.6221470236778259
1.5797265768051147,4.838837623596191,0.6291215419769287
1.5564451217651367,4.882494926452637,0.6373835206031799
1.522312879562378,4.89272928237915,0.6413273811340332
1.4852558374404907,4.895519256591797,0.6440648436546326
1.4542721509933472,4.920515537261963,0.6495481133460999
0.4693503975868225,1.631055235862732,0.21604731678962708
1.3811540603637695,4.932559013366699,0.6556038856506348
1.3609657287597656,4.993954658508301,0.6659911274909973
1.2834577560424805,4.841835975646973,0.6478842496871948
1.2603811025619507,4.895517349243164,0.6568487286567688
1.2215214967727661,4.8889970779418945,0.6577507257461548
1.199537754058838,4.95383358001709,0.6683337092399597
1.1666063070297241,4.969259262084961,0.672234833240509
1.1370033025741577,4.999557018280029,0.6781890988349915
1.1069023609161377,5.029717445373535,0.6840927004814148
1.0742121934890747,5.052303791046143,0.688596785068512
1.0374538898468018,5.0596394538879395,0.6910901069641113
0.9938292503356934,5.028596878051758,0.6883375644683838
0.9689707159996033,5.088303565979004,0.6980083584785461
1.9514355659484863,10.649922370910645,1.4641482830047607
1.8795781135559082,10.677906036376953,1.4710086584091187
0.9029067158699036,5.3548479080200195,0.7388544082641602
1.712602972984314,10.614684104919434,1.4669309854507446
1.6250689029693604,10.545663833618164,1.4597736597061157
1.5493932962417603,10.540864944458008,1.4615164995193481
1.4839369058609009,10.608359336853027,1.4733669757843018
1.3952876329421997,10.518381118774414,1.4632245302200317
1.3133838176727295,10.466133117675781,1.4574952125549316
1.2221710681915283,10.32873821258545,1.4399516582489014
1.1335026025772095,10.194428443908691,1.4228620529174805
1.0604830980300903,10.182456016540527,1.4228711128234863
0.9930314421653748,10.22386360168457,1.430408239364624
0.3924952745437622,4.361832618713379,0.6110172867774963
0.3577388823032379,4.314257621765137,0.6047016382217407
0.3245472013950348,4.277986526489258,0.5999928116798401
0.29719385504722595,4.3186540603637695,0.6061044335365295
0.2675662636756897,4.328244686126709,0.607886016368866
0.30772700905799866,5.62388801574707,0.7904679179191589
0.26809608936309814,5.614171504974365,0.7897413969039917
0.2315463423728943,5.681553363800049,0.7994102239608765
0.1930583119392395,5.717776298522949,0.8046503663063049
0.15390938520431519,5.749871730804443,0.8093510270118713
0.11396735161542892,5.789441108703613,0.815148651599884
0.07392814755439758,5.809383869171143,0.8182214498519897
0.033703070133924484,5.832915782928467,0.8218408226966858
-0.006878537591546774,5.879425048828125,0.828385591506958
-0.04952238127589226,6.099740982055664,0.8592025637626648
-0.09070854634046555,5.9677734375,0.8404316306114197
-0.13628649711608887,6.152657508850098,0.8663262128829956
-0.17842847108840942,6.1283955574035645,0.8628100752830505
-0.22017253935337067,6.103848934173584,0.8592961430549622
-0.2587718665599823,6.0133466720581055,0.8463487029075623
-0.17861181497573853,3.573690176010132,0.5026306509971619
-0.20425215363502502,3.5801374912261963,0.5032066702842712
-0.22754663228988647,3.5555450916290283,0.49945175647735596
-0.556581437587738,7.841063499450684,1.1008354425430298
-0.6053884625434875,7.763878345489502,1.0894484519958496
-0.5642910599708557,6.641764163970947,0.9315335154533386
-0.6069793701171875,6.595493316650391,0.9239599704742432
-0.6341663599014282,6.40656852722168,0.8965005874633789
-0.6709378361701965,6.333010673522949,0.885267972946167
-0.7209629416465759,6.3822431564331055,0.8912374973297119
-0.4371008276939392,3.641968250274658,0.5080780386924744
-0.4589391350746155,3.6082046031951904,0.502890408039093
-0.4822443127632141,3.5936155319213867,0.5001118183135986
-0.5047383308410645,3.5750644207000732,0.49675247073173523
-0.527000367641449,3.5563724040985107,0.49340349435806274
-0.5426872372627258,3.4954464435577393,0.4842279553413391
-0.5661771297454834,3.4840476512908936,0.4819341003894806
-1.0733050107955933,6.326934814453125,0.8739444613456726
-1.1255971193313599,6.369305610656738,0.8781751394271851
-1.1789110898971558,6.415150165557861,0.8826958537101746
-1.2307268381118774,6.449158191680908,0.8856027722358704
-1.2841546535491943,6.4864935874938965,0.8889708518981934
-1.341723918914795,6.534534931182861,0.8937742710113525
-1.3967921733856201,6.570898056030273,0.8970279693603516
-1.4460898637771606,6.580505847930908,0.8962586522102356
-1.476264476776123,6.506804943084717,0.8839356303215027
-1.5152771472930908,6.474453449249268,0.8772978186607361
-0.6770935654640198,2.8047919273376465,0.37907207012176514
-0.6947845816612244,2.792693614959717,0.37647658586502075
-0.7103883624076843,2.7729861736297607,0.3728827238082886
-0.7234921455383301,2.745798110961914,0.3681453466415405
-0.7421300411224365,2.7410597801208496,0.36635205149650574
-0.7756295800209045,2.7883574962615967,0.37148648500442505
-1.7460265159606934,6.11409330368042,0.8120080232620239
-1.7841523885726929,6.0874714851379395,0.8059282302856445
-1.8153579235076904,6.038325786590576,0.7969234585762024
-1.8471859693527222,5.996823787689209,0.788511335849762
-1.8777837753295898,5.951354503631592,0.7794972062110901
-1.908403754234314,5.9096221923828125,0.7710874676704407
-1.9408451318740845,5.871079444885254,0.7630776762962341
-1.9693989753723145,5.821253299713135,0.7536493539810181
-1.999687910079956,5.778714656829834,0.7451370358467102
-2.0295603275299072,5.740159511566162,0.7367799878120422
-2.058379888534546,5.697568416595459,0.7279105186462402
-2.0863375663757324,5.65497350692749,0.7191416025161743
-2.117546796798706,5.619152069091797,0.7112115621566772
-2.1469104290008545,5.579561233520508,0.7028716206550598
-2.1974453926086426,5.598066806793213,0.7015158534049988
-2.261476993560791,5.648524761199951,0.70392906665802
-2.321279525756836,5.687839508056641,0.7049660086631775
-2.348850965499878,5.643623352050781,0.6955211162567139
