X,Y,Z
-1.1439945697784424,3.5709407329559326,-0.17740458250045776
-1.1214550733566284,3.586182117462158,-0.17934246361255646
-1.332830786705017,4.370204448699951,-0.21988581120967865
-1.309478759765625,4.405669689178467,-0.222972109913826
-1.27805757522583,4.414797306060791,-0.224745973944664
-1.2509523630142212,4.438680171966553,-0.22728070616722107
-1.2220534086227417,4.454726219177246,-0.22940632700920105
-1.1964484453201294,4.48582124710083,-0.2321467101573944
-1.1684678792953491,4.5092315673828125,-0.23451203107833862
-1.1346564292907715,4.509730339050293,-0.2356940358877182
-1.1109957695007324,4.5516839027404785,-0.2390640527009964
-1.0603305101394653,4.479526996612549,-0.23637616634368896
-1.0303446054458618,4.494451999664307,-0.23814372718334198
-1.0018898248672485,4.5167927742004395,-0.24032117426395416
-0.9717291593551636,4.531283855438232,-0.24209193885326385
-0.9443826675415039,4.5608930587768555,-0.24469536542892456
-0.9125024676322937,4.5673089027404785,-0.2459835708141327
-0.8824687004089355,4.585061073303223,-0.24778079986572266
-0.8529800176620483,4.606443881988525,-0.24979044497013092
-0.8247612714767456,4.635289192199707,-0.2522200345993042
-0.7932307124137878,4.6486382484436035,-0.2538333237171173
-0.7619222402572632,4.661717891693115,-0.2553418278694153
-0.7327092289924622,4.690033912658691,-0.2575801610946655
-0.7014103531837463,4.7065935134887695,-0.25919073820114136
-0.669532835483551,4.719059944152832,-0.2605879306793213
-0.32950159907341003,2.446854829788208,-0.13549475371837616
-0.3089306354522705,2.4219911098480225,-0.13444294035434723
-0.28446635603904724,2.3621208667755127,-0.13137684762477875
-0.2665459215641022,2.352414131164551,-0.13109953701496124
-0.2500951886177063,2.354199171066284,-0.13146647810935974
-0.24026167392730713,2.4218411445617676,-0.1355236917734146
-0.22700423002243042,2.466187000274658,-0.1382601261138916
-0.20346221327781677,2.3938636779785156,-0.13438530266284943
-0.18852123618125916,2.418544292449951,-0.13595888018608093
-0.16887328028678894,2.38088321685791,-0.13403275609016418
-0.28077107667922974,4.390323638916016,-0.24751703441143036
-0.2477020025253296,4.357132434844971,-0.24596549570560455
-0.21383154392242432,4.2886247634887695,-0.2422638088464737
-0.1798883080482483,4.196483612060547,-0.23723246157169342
-0.14979609847068787,4.174236297607422,-0.23615874350070953
-0.12178867310285568,4.210247993469238,-0.238392636179924
-0.09121494740247726,4.175900459289551,-0.23662811517715454
-0.06128361448645592,4.121838569641113,-0.23357440531253815
-0.0323629230260849,4.0948638916015625,-0.23206670582294464
-0.003758995095267892,4.040388107299805,-0.2290111780166626
0.02415142022073269,4.020814895629883,-0.22794418036937714
0.051869601011276245,3.965946674346924,-0.224886953830719
0.07876047492027283,3.9343061447143555,-0.22296957671642303
0.10510971397161484,3.8985860347747803,-0.2208336889743805
0.13030634820461273,3.843202590942383,-0.21759703755378723
0.15592235326766968,3.8149337768554688,-0.21590790152549744
0.1813717931509018,3.7903902530670166,-0.21444103121757507
0.20557072758674622,3.7423019409179688,-0.21149562299251556
0.22982902824878693,3.7135560512542725,-0.2096336930990219
0.2529277801513672,3.672980785369873,-0.20711785554885864
0.27665403485298157,3.647820234298706,-0.2054850310087204
0.300365149974823,3.6263952255249023,-0.20407497882843018
0.32309386134147644,3.593140125274658,-0.20188282430171967
0.3437896966934204,3.5481455326080322,-0.19900372624397278
0.3634449243545532,3.499161958694458,-0.19591954350471497
0.385142058134079,3.473323106765747,-0.1941455602645874
0.4083866775035858,3.462838649749756,-0.19324131309986115
0.430334210395813,3.440559148788452,-0.19158795475959778
0.45100995898246765,3.4143407344818115,-0.18967334926128387
0.47026944160461426,3.380275011062622,-0.18733897805213928
0.49142566323280334,3.361531972885132,-0.1858671009540558
0.5118420720100403,3.338789224624634,-0.18418584764003754
0.5340997576713562,3.327439069747925,-0.18305832147598267
0.5492551922798157,3.2775628566741943,-0.17976756393909454
0.5691186785697937,3.258375883102417,-0.1781788021326065
0.5902524590492249,3.2467257976531982,-0.17701178789138794
0.6063227653503418,3.208083152770996,-0.1743851602077484
0.6269996166229248,3.196200370788574,-0.1731574982404709
0.6446402668952942,3.1688570976257324,-0.17102228105068207
0.6647935509681702,3.1567654609680176,-0.1697351038455963
0.6832860112190247,3.1368939876556396,-0.16803832352161407
0.7008129954338074,3.113081932067871,-0.16614149510860443
0.7169845700263977,3.0854225158691406,-0.16398702561855316
0.7366483807563782,3.0728182792663574,-0.16257092356681824
0.7539374828338623,3.0526034832000732,-0.16077804565429688
0.7692667245864868,3.0246822834014893,-0.15858876705169678
0.787336528301239,3.0079848766326904,-0.15699927508831024
0.8039578795433044,2.987482786178589,-0.1551504284143448
0.8226373195648193,2.9743566513061523,-0.1536368578672409
0.8344097137451172,2.938699960708618,-0.1509919911623001
0.8547565937042236,2.932903289794922,-0.14988498389720917
0.8684300184249878,2.904515027999878,-0.14763396978378296
0.8802868127822876,2.8724498748779297,-0.14512667059898376
0.8814859986305237,2.8067758083343506,-0.1409168690443039
0.8898431658744812,2.76733136177063,-0.13807566463947296
0.9090637564659119,2.761136054992676,-0.1368929147720337
0.9232200980186462,2.7400288581848145,-0.13497468829154968
0.94688481092453,2.7485170364379883,-0.13443177938461304
0.9719811081886292,2.760498285293579,-0.13405545055866241
0.9898598194122314,2.7500545978546143,-0.13256540894508362
1.0035988092422485,2.7285079956054688,-0.13055314123630524
1.0195832252502441,2.714303493499756,-0.12886464595794678
1.0295478105545044,2.6855430603027344,-0.12645414471626282
1.0448559522628784,2.67130970954895,-0.12474481761455536
1.060715675354004,2.656715154647827,-0.12299007177352905
1.0688769817352295,2.6240313053131104,-0.12042757123708725
1.086533784866333,2.6168363094329834,-0.11897356063127518
1.104144811630249,2.609520196914673,-0.11751589924097061
1.1095188856124878,2.573338270187378,-0.11476492881774902
1.1245769262313843,2.558335781097412,-0.11293428391218185
1.1387710571289062,2.543565511703491,-0.11110235005617142
1.1493337154388428,2.5217292308807373,-0.1089484915137291
1.162975788116455,2.506929636001587,-0.1071111410856247
1.1737284660339355,2.4847235679626465,-0.1049303412437439
1.189334511756897,2.4730288982391357,-0.1031627282500267
1.2023996114730835,2.4580819606781006,-0.10125607252120972
1.211840271949768,2.436079740524292,-0.09907430410385132
1.2252007722854614,2.420707941055298,-0.09712767601013184
1.2346402406692505,2.3984241485595703,-0.0949021726846695
1.246944785118103,2.383307933807373,-0.0929473266005516
1.2557175159454346,2.361091136932373,-0.09070740640163422
1.2720918655395508,2.3523759841918945,-0.08896227180957794
1.2843024730682373,2.3368921279907227,-0.08694662898778915
1.295904278755188,2.3216052055358887,-0.08492302149534225
1.3055789470672607,2.302788257598877,-0.082770936191082
1.321839690208435,2.293560266494751,-0.08088418841362
1.3370965719223022,2.2847647666931152,-0.0790189877152443
1.3361179828643799,2.249143600463867,-0.07623743265867233
1.347328543663025,2.2333948612213135,-0.074102982878685
1.3585413694381714,2.2175025939941406,-0.07193320989608765
1.3691047430038452,2.201869487762451,-0.06973105669021606
1.3919497728347778,2.206052541732788,-0.06816300749778748
1.3946263790130615,2.176649332046509,-0.0654744952917099
1.408778429031372,2.1675784587860107,-0.06340032070875168
1.4098761081695557,2.138916254043579,-0.06077049672603607
1.4249682426452637,2.1289544105529785,-0.058523502200841904
1.4431607723236084,2.1261708736419678,-0.05648982897400856
1.4457306861877441,2.100820541381836,-0.05385632812976837
1.4558264017105103,2.084376811981201,-0.0513153076171875
1.4600422382354736,2.0623719692230225,-0.04864004626870155
1.4463948011398315,2.0146002769470215,-0.04530643671751022
1.473663091659546,2.023857355117798,-0.04318057373166084
1.490881323814392,2.020975351333618,-0.04076831787824631
1.4719574451446533,2.0821735858917236,0.06618263572454453
1.4669113159179688,2.109466552734375,0.06948482245206833
1.4521607160568237,2.1195640563964844,0.07199892401695251
1.4399827718734741,2.1371910572052,0.0747833400964737
1.4283497333526611,2.1542725563049316,0.07745902240276337
1.4174001216888428,2.170741081237793,0.0799933522939682
1.409316897392273,2.194495439529419,0.08278549462556839
1.3930429220199585,2.2047762870788574,0.08503653854131699
1.3896962404251099,2.234436273574829,0.0879799947142601
1.3687244653701782,2.238112211227417,0.08984441310167313
1.359957218170166,2.2616055011749268,0.09250330924987793
1.3521124124526978,2.2843868732452393,0.09503766894340515
1.3374041318893433,2.297464609146118,0.09714555740356445
1.31991446018219,2.3074724674224854,0.09913695603609085
1.3071120977401733,2.3236286640167236,0.10131917148828506
1.2946642637252808,2.339433193206787,0.10345285385847092
1.28474760055542,2.3626010417938232,0.10586626827716827
1.2708793878555298,2.3788623809814453,0.10798810422420502
1.260940432548523,2.401711940765381,0.11038967967033386
1.2511918544769287,2.424307346343994,0.11274714022874832
1.2368117570877075,2.4403505325317383,0.11476161330938339
1.2222623825073242,2.4563114643096924,0.1167856901884079
1.2134031057357788,2.4823601245880127,0.11925774812698364
1.1957567930221558,2.4908292293548584,0.12089983373880386
1.1907985210418701,2.527681589126587,0.12383671849966049
1.1722460985183716,2.5362613201141357,0.12540914118289948
1.1605165004730225,2.558722972869873,0.1276537925004959
1.1458553075790405,2.573791980743408,0.12951436638832092
1.1304798126220703,2.5890262126922607,0.13133761286735535
1.1189454793930054,2.615191698074341,0.13371865451335907
1.0968475341796875,2.616002082824707,0.13479740917682648
1.0934350490570068,2.6595945358276367,0.13805289566516876
1.0718903541564941,2.6598665714263916,0.1390678733587265
1.0611790418624878,2.6892712116241455,0.14153341948986053
1.046939730644226,2.71151065826416,0.14365842938423157
1.0302523374557495,2.7261674404144287,0.14536936581134796
1.0152984857559204,2.7441859245300293,0.14724738895893097
0.9985775351524353,2.7585458755493164,0.14890888333320618
0.9669420123100281,2.7325119972229004,0.1483270674943924
0.9557665586471558,2.7652831077575684,0.15095829963684082
0.9298734664916992,2.753452777862549,0.15113630890846252
0.9131397008895874,2.767200469970703,0.15270602703094482
0.8792363405227661,2.7289583683013916,0.1513570249080658
0.8818508386611938,2.80584454536438,0.15633825957775116
0.8875824809074402,2.8979392051696777,0.1622292846441269
0.8737221360206604,2.9265201091766357,0.1645776331424713
0.8598766922950745,2.954939365386963,0.1669229418039322
0.8433823585510254,2.975849151611328,0.16882511973381042
0.8241743445396423,2.9892630577087402,0.1702316552400589
0.8058274388313293,3.0063209533691406,0.17185845971107483
0.7880073189735413,3.0271072387695312,0.17372088134288788
0.7745208144187927,3.0627245903015137,0.17642948031425476
0.7568329572677612,3.083153486251831,0.17827513813972473
0.7402299046516418,3.1111907958984375,0.18044526875019073
0.7189165353775024,3.1201376914978027,0.1815212517976761
0.7030316591262817,3.1556761264801025,0.18417049944400787
0.6826223134994507,3.168083429336548,0.18546375632286072
0.6669344902038574,3.2032480239868164,0.18810279667377472
0.647440493106842,3.2231123447418213,0.18976528942584991
0.6267840266227722,3.239067554473877,0.19116243720054626
0.6062673330307007,3.2587945461273193,0.19280345737934113
0.5888171195983887,3.2936463356018066,0.19534412026405334
0.5698458552360535,3.320680618286133,0.19743318855762482
0.5479092597961426,3.33223295211792,0.19859476387500763
0.528601348400116,3.3629493713378906,0.20079170167446136
0.5078737735748291,3.389765739440918,0.20277827978134155
0.4882930517196655,3.424119472503662,0.20522582530975342
0.4664984345436096,3.442861795425415,0.20674757659435272
0.4450310468673706,3.4653244018554688,0.20850570499897003
0.42547139525413513,3.507031202316284,0.21134963631629944
0.4025711715221405,3.5254056453704834,0.21273034811019897
0.37817996740341187,3.535921096801758,0.21365408599376678
0.35838058590888977,3.588900566101074,0.2171538919210434
0.337028443813324,3.6301026344299316,0.2199561595916748
0.31275010108947754,3.6439878940582275,0.22111864387989044
0.29088565707206726,3.692715644836426,0.2242612987756729
0.26732057332992554,3.733570098876953,0.2269219160079956
0.24288883805274963,3.7625720500946045,0.2288735955953598
0.2179536372423172,3.7875139713287354,0.2305913120508194
0.19358451664447784,3.8278603553771973,0.23326058685779572
0.1688186079263687,3.871946334838867,0.2361483871936798
0.1424456685781479,3.9042117595672607,0.23817159235477448
0.11644427478313446,3.94797420501709,0.24090805649757385
0.08953522890806198,3.9798684120178223,0.24293358623981476
0.06246887519955635,4.019372463226318,0.2454364150762558
0.03482404351234436,4.0547919273376465,0.2477034628391266
0.006211562547832727,4.101720809936523,0.25061914324760437
-0.022540615871548653,4.144556522369385,0.2531801462173462
-0.0520814023911953,4.202783584594727,0.2566923499107361
-0.08205582946538925,4.241306304931641,0.2590125501155853
-0.11199627071619034,4.256226539611816,0.25990352034568787
-0.1411108523607254,4.239759922027588,0.25889042019844055
-0.17202816903591156,4.262042045593262,0.2601372301578522
-0.20699205994606018,4.37370491027832,0.2667660415172577
-0.2400895357131958,4.422791957855225,0.2695844769477844
-0.2748316824436188,4.487195014953613,0.273345023393631
-0.3091523349285126,4.531876564025879,0.2759132981300354
-0.3449515104293823,4.580142974853516,0.2787076532840729
-0.38107579946517944,4.632080554962158,0.2815607190132141
-0.4209657609462738,4.718698501586914,0.28648653626441956
-0.45758873224258423,4.758409023284912,0.2885686755180359
-0.49807536602020264,4.828856945037842,0.292519748210907
-0.5890738368034363,5.340713024139404,0.32317885756492615
-0.6243545413017273,5.321036338806152,0.3216477036476135
-0.6507989168167114,5.235411167144775,0.3159236013889313
-0.6954368948936462,5.296581745147705,0.3190736174583435
-0.7329339385032654,5.299445629119873,0.3187187612056732
-0.7763945460319519,5.3366522789001465,0.3204278349876404
-0.80587238073349,5.281056880950928,0.316586971282959
-0.8362258672714233,5.236906051635742,0.313373863697052
-0.8714480996131897,5.227269172668457,0.3120940029621124
-0.9019044041633606,5.190501689910889,0.3092135488986969
-0.9305103421211243,5.145888805389404,0.3058892488479614
-0.9459423422813416,5.028108596801758,0.29822930693626404
-0.9883397221565247,5.059747695922852,0.299466997385025
-1.0168412923812866,5.022340297698975,0.29647088050842285
-1.0438979864120483,4.9810051918029785,0.29320234060287476
-1.0778716802597046,4.973836421966553,0.29196444153785706
-1.1126044988632202,4.966256618499756,0.29069700837135315
-1.1637465953826904,5.030681133270264,0.29365232586860657
-1.1659750938415527,4.886010646820068,0.2843913733959198
-1.2001103162765503,4.881838798522949,0.2831628918647766
-1.2227158546447754,4.83206844329834,0.27931150794029236
-1.2236607074737549,4.699031352996826,0.27067625522613525
-1.2541903257369995,4.682981967926025,0.26881682872772217
-1.285635232925415,4.670483589172363,0.26717519760131836
-1.31855309009552,4.665439605712891,0.265836626291275
-1.3500971794128418,4.656500816345215,0.2642340064048767
-1.3743484020233154,4.62101411819458,0.2611243724822998
-1.1114201545715332,3.645219326019287,0.20512813329696655
-1.1320759057998657,3.622586250305176,0.20299986004829407
-1.1593503952026367,3.6222176551818848,0.20207031071186066
-1.4861136674880981,4.537441253662109,0.25187909603118896
-1.519690752029419,4.534636497497559,0.25046244263648987
-1.56574547290802,4.568554401397705,0.2510797679424286
-1.6168562173843384,4.612873077392578,0.2522268295288086
-1.6657888889312744,4.649441719055176,0.2528938949108124
-1.671554446220398,4.568634986877441,0.2470548152923584
-1.7213566303253174,4.6085638999938965,0.2477618306875229
-1.7447618246078491,4.57482385635376,0.2444736808538437
-1.759523868560791,4.519074440002441,0.2400313913822174
-1.7777106761932373,4.474302291870117,0.2361731082201004
-1.8105216026306152,4.469663619995117,0.23432819545269012
-1.8403716087341309,4.457572937011719,0.2321004420518875
-1.8650015592575073,4.430513858795166,0.22906024754047394
-1.8988690376281738,4.424717426300049,0.22711734473705292
-1.9072413444519043,4.361678123474121,0.22220590710639954
-1.9362609386444092,4.348995685577393,0.21979400515556335
-1.961973786354065,4.329010963439941,0.21702568233013153
-2.0083906650543213,4.350816249847412,0.2162732183933258
-2.017089605331421,4.290924549102783,0.21147048473358154
-2.0256996154785156,4.235141754150391,0.20681244134902954
-2.0145058631896973,4.141011714935303,0.20030970871448517
-2.062750816345215,4.16963005065918,0.19976915419101715
-2.081699848175049,4.134131908416748,0.1960306167602539
-2.106405735015869,4.112959384918213,0.19298890233039856
-2.1406569480895996,4.112975120544434,0.19085828959941864
-2.160430669784546,4.085098743438721,0.18743936717510223
-2.188420534133911,4.070304870605469,0.18454904854297638
-2.2128331661224365,4.048323154449463,0.18130388855934143
-2.243529796600342,4.040459632873535,0.1785547137260437
-2.266118049621582,4.019007205963135,0.1752513200044632
-2.2973527908325195,4.010370254516602,0.17241795361042023
-2.325047254562378,3.9945144653320312,0.16921553015708923
-2.3470287322998047,3.9727096557617188,0.16569484770298004
-2.373310089111328,3.9572019577026367,0.16240078210830688
-2.396413564682007,3.934253454208374,0.15871310234069824
-2.4045140743255615,3.8881943225860596,0.15406019985675812
-2.388054370880127,3.8065924644470215,0.14802007377147675
-2.381578207015991,3.741542100906372,0.14266294240951538
-2.386955738067627,3.6918458938598633,0.13772691786289215
-2.4086854457855225,3.6731717586517334,0.133968785405159
-2.427888870239258,3.651264190673828,0.13010185956954956
-2.453076124191284,3.634528160095215,0.12619271874427795
-2.487757444381714,3.6346969604492188,0.12280518561601639
-2.0458366870880127,2.9482476711273193,0.0967763364315033
-2.06154203414917,2.92785382270813,0.09307853877544403
-2.0802688598632812,2.9146885871887207,0.0895494744181633
-2.1077253818511963,2.914303779602051,0.08635758608579636
-1.0905225276947021,1.4860661029815674,0.04221341386437416
-1.1090186834335327,1.4918818473815918,0.04051525518298149
-2.0530662536621094,2.900768995285034,-0.07913053780794144
-2.041015625,2.9282069206237793,-0.08360797166824341
-2.4446561336517334,3.5652806758880615,-0.1062871515750885
-2.4604547023773193,3.6441283226013184,-0.1128944531083107
-2.433164596557617,3.6622588634490967,-0.11756517738103867
-2.410034418106079,3.6867053508758545,-0.12238121777772903
-2.3737053871154785,3.6868574619293213,-0.12611840665340424
-2.3501875400543213,3.710991382598877,-0.13064293563365936
-2.324415683746338,3.731635570526123,-0.13505637645721436
-2.3024044036865234,3.7542731761932373,-0.13930697739124298
-2.2703659534454346,3.7644691467285156,-0.14304988086223602
-2.242528200149536,3.7809667587280273,-0.1470051258802414
-2.216059684753418,3.796393871307373,-0.15074977278709412
-2.187744617462158,3.812628984451294,-0.15454915165901184
-2.1671218872070312,3.8421738147735596,-0.15884184837341309
-2.143787145614624,3.8640248775482178,-0.1626906841993332
-2.1163740158081055,3.8789584636688232,-0.166195809841156
-2.084239959716797,3.8873133659362793,-0.16937267780303955
-2.055530071258545,3.9024171829223633,-0.17286789417266846
-2.03183650970459,3.9234511852264404,-0.1764887273311615
-2.014082431793213,3.9587390422821045,-0.1807277500629425
-1.9816023111343384,3.966221809387207,-0.18369679152965546
-1.9566503763198853,3.98713755607605,-0.18723851442337036
-1.9317466020584106,4.007778167724609,-0.19076363742351532
-1.8993626832962036,4.01444673538208,-0.19350078701972961
-1.8701726198196411,4.027979850769043,-0.19656655192375183
-1.848021388053894,4.055202960968018,-0.2002643644809723
-1.8196696043014526,4.06785774230957,-0.20322275161743164
-1.7965049743652344,4.0950469970703125,-0.20681394636631012
-1.7632209062576294,4.100847244262695,-0.20936614274978638
-1.7416220903396606,4.131102561950684,-0.21310405433177948
-1.7127822637557983,4.142999649047852,-0.21587391197681427
-1.6860432624816895,4.162232875823975,-0.21893823146820068
-1.6560332775115967,4.174123287200928,-0.22160321474075317
-1.6285077333450317,4.193167209625244,-0.22468049824237823
-1.6048216819763184,4.218850612640381,-0.22805054485797882
-1.5695405006408691,4.2153191566467285,-0.22977744042873383
-1.5473144054412842,4.248313903808594,-0.23343448340892792
-1.524728775024414,4.281190395355225,-0.23711420595645905
-1.4942251443862915,4.291795253753662,-0.23957183957099915
-1.459206461906433,4.287214756011963,-0.24113522469997406
-1.4334383010864258,4.312218189239502,-0.2442162036895752
-1.1594070196151733,3.5727856159210205,-0.2037292867898941
-1.1305893659591675,3.569632053375244,-0.20492783188819885
-1.1156033277511597,3.6109941005706787,-0.20870572328567505
-1.3230091333389282,4.391691207885742,-0.25541192293167114
-1.2917155027389526,4.400877952575684,-0.25745460391044617
-1.2646446228027344,4.424840450286865,-0.2603798806667328
-1.2357200384140015,4.440982818603516,-0.2628408968448639
-1.2088528871536255,4.464415550231934,-0.2657449543476105
-1.1766767501831055,4.472891330718994,-0.2676258683204651
-1.1507158279418945,4.503684997558594,-0.27081090211868286
-1.1206605434417725,4.519183158874512,-0.2730972170829773
-1.0836786031723022,4.504024028778076,-0.27351731061935425
-1.0450987815856934,4.480997562408447,-0.273434579372406
-1.0145149230957031,4.495917797088623,-0.275501012802124
-0.9860097765922546,4.518124103546143,-0.2780131697654724
-0.9573570489883423,4.540125846862793,-0.2805302143096924
-0.9272757768630981,4.554226875305176,-0.28256458044052124
-0.8976776003837585,4.5719804763793945,-0.28478074073791504
-0.8691883087158203,4.601206302642822,-0.28758683800697327
-0.8380985260009766,4.614811420440674,-0.2894209921360016
-0.80973881483078,4.643534183502197,-0.2922181487083435
-0.7774814367294312,4.648960113525391,-0.2935584783554077
-0.7487576007843018,4.677284240722656,-0.29627376794815063
-0.716484785079956,4.690152645111084,-0.2978912889957428
-0.6852434873580933,4.706567764282227,-0.29973745346069336
-0.654424250125885,4.726624011993408,-0.3018328845500946
-0.3158445954322815,2.4041473865509033,-0.15394432842731476
-0.29088735580444336,2.340494155883789,-0.15023262798786163
-0.27537497878074646,2.3501930236816406,-0.15114913880825043
-0.2624113857746124,2.3869473934173584,-0.1538243293762207
-0.24892140924930573,2.4197168350219727,-0.15625205636024475
-0.23356325924396515,2.436884641647339,-0.1576848030090332
-0.2158724069595337,2.430663824081421,-0.15756221115589142
-0.19567932188510895,2.393244504928589,-0.15533842146396637
-0.17688888311386108,2.37123441696167,-0.15412086248397827
-0.29963597655296326,4.433651924133301,-0.2885703444480896
-0.2654953896999359,4.381120681762695,-0.2855590283870697
-0.2314392775297165,4.316662788391113,-0.2816908061504364
-0.1967717558145523,4.22081184387207,-0.27561089396476746
-0.16447947919368744,4.163661003112793,-0.2720682621002197
-0.13655978441238403,4.1997528076171875,-0.27462753653526306
-0.10729845613241196,4.196686267852783,-0.2746398448944092
-0.07709760963916779,4.142755508422852,-0.27127745747566223
-0.04802651330828667,4.119803428649902,-0.26978403329849243
-0.01860726810991764,4.06936502456665,-0.2665039598941803
0.009568356908857822,4.022618770599365,-0.2634775638580322
0.03716496005654335,3.9795775413513184,-0.2607056796550751
0.06431412696838379,3.9480440616607666,-0.2586634159088135
0.09091319143772125,3.912443161010742,-0.25617241859436035
0.11690335720777512,3.8727691173553467,-0.2534298896789551
0.1428234577178955,3.8329062461853027,-0.250687837600708
0.167575865983963,3.7889974117279053,-0.24769826233386993
0.1923171877861023,3.7566113471984863,-0.24546335637569427
0.21675939857959747,3.7279744148254395,-0.24328893423080444
0.2410673052072525,3.7030699253082275,-0.24137379229068756
0.26377999782562256,3.6546506881713867,-0.23793837428092957
0.2876570224761963,3.6333234310150146,-0.23628686368465424
0.30954501032829285,3.5924251079559326,-0.23337844014167786
0.3322313725948334,3.566945791244507,-0.23129573464393616
0.3541571795940399,3.5374503135681152,-0.22896520793437958
0.372383177280426,3.4728927612304688,-0.2243795096874237
0.39561396837234497,3.462512254714966,-0.22331826388835907
0.4187489449977875,3.4519731998443604,-0.22225886583328247
0.4390786588191986,3.421982765197754,-0.21979284286499023
0.46056675910949707,3.4034693241119385,-0.21806436777114868
0.4789354205131531,3.361607313156128,-0.2148495763540268
0.4994492530822754,3.3389596939086914,-0.21288637816905975
0.5202744007110596,3.3200409412384033,-0.2111765593290329
0.5419162511825562,3.308732032775879,-0.20980744063854218
0.5594874024391174,3.274225950241089,-0.2069627344608307
0.5779464244842529,3.247317314147949,-0.2046196013689041
0.5959358215332031,3.2163689136505127,-0.20202505588531494
0.616843044757843,3.2045397758483887,-0.2006584107875824
0.634303629398346,3.177341938018799,-0.1981981098651886
0.651390790939331,3.150062084197998,-0.19573666155338287
0.6713961362838745,3.137948513031006,-0.19423417747020721
0.689351499080658,3.1141533851623535,-0.19200320541858673
0.70753014087677,3.094139575958252,-0.1900349259376526
0.7269663214683533,3.081690549850464,-0.18839794397354126
0.7443875670433044,3.0615506172180176,-0.18630290031433105
0.7596724629402161,3.033750534057617,-0.1837611198425293
0.7762426733970642,3.009493589401245,-0.18142759799957275
0.7951156497001648,2.996565103530884,-0.17979246377944946
0.8094121217727661,2.968566656112671,-0.17714674770832062
0.82333904504776,2.940518617630005,-0.17452214658260345
0.841350257396698,2.927377223968506,-0.1727944165468216
0.8576622009277344,2.9064559936523438,-0.1705925613641739
0.8732258677482605,2.8856005668640137,-0.1683877855539322
0.8778907656669617,2.8312246799468994,-0.164170503616333
0.8853734731674194,2.7880775928497314,-0.1606447696685791
0.8937146663665771,2.7486040592193604,-0.15735338628292084
0.9156582951545715,2.749675989151001,-0.156370609998703
0.9319756627082825,2.736029863357544,-0.15451018512248993
0.9556809067726135,2.744450807571411,-0.15386255085468292
0.9769274592399597,2.7453248500823975,-0.1527898758649826
0.9959749579429626,2.7385568618774414,-0.15127134323120117
1.01229989528656,2.7243266105651855,-0.14934255182743073
1.0255248546600342,2.7027816772460938,-0.14690694212913513
1.035374641418457,2.674024820327759,-0.1441238969564438
1.0507780313491821,2.659707546234131,-0.1421280950307846
1.0634008646011353,2.637953758239746,-0.13973252475261688
1.0784342288970947,2.6234967708587646,-0.13768526911735535
1.091882348060608,2.6053314208984375,-0.13539588451385498
1.1094015836715698,2.5980072021484375,-0.13370634615421295
1.121220588684082,2.5760045051574707,-0.13123169541358948
1.1326593160629272,2.5540192127227783,-0.12876099348068237
1.1401602029800415,2.52510142326355,-0.12591128051280975
1.1508883237838745,2.5031492710113525,-0.12340914458036423
1.1714212894439697,2.5023155212402344,-0.12194764614105225
1.185416340827942,2.487161159515381,-0.11977803707122803
1.1935218572616577,2.4617040157318115,-0.11706191301345825
1.203048825263977,2.439756393432617,-0.11453862488269806
1.2165199518203735,2.4244275093078613,-0.11228163540363312
1.2368838787078857,2.4229581356048584,-0.11067656427621841
1.2529737949371338,2.414766311645508,-0.10870672017335892
1.2580796480178833,2.385753631591797,-0.10581774264574051
1.2707139253616333,2.3702826499938965,-0.10350395739078522
1.2759065628051758,2.3409407138824463,-0.10057728737592697
1.2916724681854248,2.3323678970336914,-0.09848837554454803
1.303275465965271,2.3170366287231445,-0.09615390747785568
1.3095835447311401,2.2911088466644287,-0.09332843869924545
1.325143814086914,2.282231092453003,-0.09119082987308502
1.332208275794983,2.2600910663604736,-0.08851762115955353
1.3395154476165771,2.2376716136932373,-0.08580101281404495
1.3509769439697266,2.221721887588501,-0.08331141620874405
1.369628667831421,2.219536781311035,-0.08130676299333572
1.367505669593811,2.1841607093811035,-0.07810129225254059
1.3951185941696167,2.1945228576660156,-0.07642867416143417
1.4015332460403442,2.171950578689575,-0.07353877276182175
1.4112859964370728,2.1563785076141357,-0.07093582302331924
1.430290937423706,2.1532833576202393,-0.06863280385732651
1.4294394254684448,2.1210451126098633,-0.06536365300416946
1.4386394023895264,2.105440139770508,-0.06263517588376999
1.4487535953521729,2.0890755653381348,-0.059723712503910065
1.4669517278671265,2.0859694480895996,-0.05717819556593895
1.4756295680999756,2.070328712463379,-0.05428736284375191
1.467063546180725,2.0284767150878906,-0.05053180828690529
1.479735255241394,2.019322156906128,-0.047624871134757996
1.4930174350738525,2.009592056274414,-0.04455610364675522
1.479470133781433,2.076535224914551,0.075191430747509
1.4744433164596558,2.1038734912872314,0.07899298518896103
1.4637110233306885,2.1207354068756104,0.08221785724163055
1.4522275924682617,2.1379473209381104,0.0853743851184845
1.4444069862365723,2.1619274616241455,0.0888054296374321
1.4292994737625122,2.17183518409729,0.09144609421491623
1.4084646701812744,2.1759960651397705,0.09384762495756149
1.4003056287765503,2.1996734142303467,0.09705088287591934
1.3932033777236938,2.222519636154175,0.10007517039775848
1.3767486810684204,2.232640027999878,0.10250145196914673
1.3719919919967651,2.262885808944702,0.10585760325193405
1.3555835485458374,2.272643566131592,0.10819633305072784
1.3432765007019043,2.288886785507202,0.1107662171125412
1.326117992401123,2.2987616062164307,0.11300204694271088
1.3149222135543823,2.318544387817383,0.11571229249238968
1.3101110458374023,2.348010301589966,0.1188431903719902
1.2926630973815918,2.357553720474243,0.1209593117237091
1.282508134841919,2.3807311058044434,0.12373845279216766
1.2652684450149536,2.3898324966430664,0.12575797736644745
1.2593673467636108,2.4192683696746826,0.1288139820098877
1.2487951517105103,2.4421820640563965,0.13148510456085205
1.2269293069839478,2.444406509399414,0.1330612599849701
1.2213209867477417,2.4775960445404053,0.1362849920988083
1.2006293535232544,2.4789211750030518,0.13772304356098175
1.1894456148147583,2.501497983932495,0.14029322564601898
1.1842613220214844,2.5383377075195312,0.143662691116333
1.1689594984054565,2.5539026260375977,0.145846888422966
1.1508015394210815,2.5620365142822266,0.14758272469043732
1.1420897245407104,2.5914318561553955,0.15051010251045227
1.1277581453323364,2.6103572845458984,0.15278023481369019
1.1086692810058594,2.618425130844116,0.15442653000354767
1.0960441827774048,2.640540599822998,0.15688246488571167
1.0802209377288818,2.6553804874420166,0.15892347693443298
1.0698262453079224,2.6847007274627686,0.16175350546836853
1.053149700164795,2.6995697021484375,0.16370297968387604
1.0391186475753784,2.721614122390747,0.16610348224639893
1.0241390466690063,2.7396903038024902,0.16824354231357574
1.0100599527359009,2.7614355087280273,0.170639768242836
0.9901581406593323,2.7685487270355225,0.17201876640319824
0.9534268975257874,2.727682590484619,0.17040058970451355
0.9412792325019836,2.7565481662750244,0.17313888669013977
0.9245187640190125,2.7703545093536377,0.17491765320301056
0.9000415205955505,2.7619194984436035,0.17531335353851318
0.8884679079055786,2.794241428375244,0.17817124724388123
0.8822188377380371,2.8451666831970215,0.18223853409290314
0.8831783533096313,2.9222660064697266,0.18802517652511597
0.869354248046875,2.9507246017456055,0.190694659948349
0.8509538173675537,2.9641175270080566,0.19240497052669525
0.8336708545684814,2.9851443767547607,0.1945306658744812
0.8153531551361084,3.0022480487823486,0.19637562334537506
0.7998460531234741,3.0305416584014893,0.19896990060806274
0.7824128866195679,3.051117420196533,0.201063871383667
0.763019323348999,3.063987970352173,0.20265941321849823
0.7465172410011292,3.0920472145080566,0.20521166920661926
0.7262654304504395,3.1048102378845215,0.20667517185211182
0.7135865688323975,3.151663064956665,0.21042916178703308
0.6929253935813904,3.1641862392425537,0.21190734207630157
0.6741344332695007,3.184117555618286,0.21388524770736694
0.6546370387077332,3.204033136367798,0.21587927639484406
0.6371880769729614,3.235307216644287,0.2184896320104599
0.6171183586120605,3.255009889602661,0.22033686935901642
0.5996285676956177,3.289921522140503,0.22323133051395416
0.579312264919281,3.309333086013794,0.22508513927459717
0.5590723752975464,3.332517623901367,0.22722002863883972
0.539393961429596,3.3593952655792236,0.2295258492231369
0.5180126428604126,3.3784866333007812,0.23123383522033691
0.49864211678504944,3.4128670692443848,0.23400546610355377
0.47780755162239075,3.439410448074341,0.23625685274600983
0.45495903491973877,3.454254388809204,0.237723246216774
0.4347481429576874,3.4882314205169678,0.2405160367488861
0.41297245025634766,3.51438570022583,0.24262861907482147
0.3899240791797638,3.5326671600341797,0.24418967962265015
0.3694405257701874,3.5779316425323486,0.24763303995132446
0.34661874175071716,3.603671073913574,0.24974127113819122
0.3241993486881256,3.640934944152832,0.2526698410511017
0.3007301390171051,3.6663761138916016,0.2547619938850403
0.27854374051094055,3.7150025367736816,0.2583162486553192
0.25433221459388733,3.7440578937530518,0.26052623987197876
0.22996363043785095,3.7768442630767822,0.2630116939544678
0.20483873784542084,3.80948805809021,0.26550620794296265
0.18071812391281128,3.8614001274108887,0.2693570852279663
0.1544516533613205,3.878121852874756,0.2706966996192932
0.12904441356658936,3.929727792739868,0.27435508370399475
0.10262216627597809,3.9694783687591553,0.2772006392478943
0.07526707649230957,4.016851425170898,0.2805953919887543
0.0476752407848835,4.044544696807861,0.28262871503829956
0.019792450591921806,4.09932279586792,0.28657084703445435
-0.008749505504965782,4.1266374588012695,0.28849202394485474
-0.03791679069399834,4.181035041809082,0.292219340801239
-0.06821173429489136,4.223526954650879,0.2951260209083557
-0.09827611595392227,4.254122734069824,0.2972159683704376
-0.12810993194580078,4.26113224029541,0.29767197370529175
-0.15775759518146515,4.260143756866455,0.29758360981941223
-0.1891651600599289,4.301788806915283,0.3003274202346802
-0.22315242886543274,4.382122039794922,0.30571332573890686
-0.25812867283821106,4.450486660003662,0.3102678954601288
-0.29327821731567383,4.514719009399414,0.3145468235015869
-0.32769960165023804,4.555352210998535,0.3171917200088501
-0.3636190891265869,4.607376575469971,0.320641428232193
-0.4010787010192871,4.670800685882568,0.3246814012527466
-0.4443017840385437,4.7804388999938965,0.3318975567817688
-0.4815676510334015,4.819952487945557,0.3342544436454773
-0.5484456419944763,5.13041877746582,0.3553891181945801
-0.6097115874290466,5.351100444793701,0.3702782988548279
-0.6394029259681702,5.284879207611084,0.36529937386512756
-0.684302806854248,5.342189788818359,0.36860376596450806
-0.7225548624992371,5.349014759063721,0.3684455454349518
-0.7522141337394714,5.293822288513184,0.3640363812446594
-0.7831341624259949,5.250001430511475,0.36043229699134827
-0.8184531331062317,5.236787796020508,0.35894960165023804
-0.8578344583511353,5.24635124206543,0.35893937945365906
-0.8905057311058044,5.22122049331665,0.35640233755111694
-0.9221912622451782,5.192050933837891,0.35361289978027344
-0.9478055238723755,5.132040023803711,0.34875234961509705
-0.9694668650627136,5.052689552307129,0.34260207414627075
-1.0121418237686157,5.084143161773682,0.343986839056015
-1.0460134744644165,5.069417476654053,0.3420819640159607
-1.0756665468215942,5.039394378662109,0.3390975892543793
-1.1007606983184814,4.990170955657959,0.3348492383956909
-1.1358131170272827,4.986403465270996,0.33366858959198
-1.1641128063201904,4.951943874359131,0.3304438889026642
-1.1879537105560303,4.898257732391357,0.32593056559562683
-1.2286914587020874,4.92045783996582,0.326273113489151
-1.2096418142318726,4.708239555358887,0.31112608313560486
-1.2375984191894531,4.684948444366455,0.3085264265537262
-1.274038553237915,4.691437721252441,0.3078834116458893
-1.3029929399490356,4.667399883270264,0.30522745847702026
-1.3338271379470825,4.6547417640686035,0.30322423577308655
-1.3631106615066528,4.638243675231934,0.300899863243103
-1.3900251388549805,4.6140828132629395,0.29809650778770447
-1.1236507892608643,3.6397156715393066,0.2341708391904831
-1.1423414945602417,3.609459638595581,0.23122860491275787
-1.478563666343689,4.562258243560791,0.2909865379333496
-1.5019779205322266,4.530094146728516,0.2875126600265503
-1.5274890661239624,4.505218982696533,0.2845280170440674
-1.602656602859497,4.623854637145996,0.29057860374450684
-1.6192015409469604,4.568606853485107,0.28564774990081787
-1.6514537334442139,4.55718469619751,0.283448725938797
-1.6698952913284302,4.513199806213379,0.27908506989479065
-1.7236429452896118,4.564027309417725,0.2805865705013275
-1.754309058189392,4.55247163772583,0.2782432436943054
-1.7645748853683472,4.485844612121582,0.2725089192390442
-1.7962431907653809,4.473406791687012,0.27006590366363525
-1.8482844829559326,4.515590667724609,0.2707546651363373
-1.8724764585494995,4.488868236541748,0.2673052251338959
-1.8964669704437256,4.461991310119629,0.26386594772338867
-1.9336844682693481,4.463156223297119,0.2620292603969574
-1.9508095979690552,4.417508125305176,0.2573968470096588
-1.9705854654312134,4.383235931396484,0.2533586919307709
-2.0030109882354736,4.377256870269775,0.25097137689590454
-2.029303550720215,4.356686115264893,0.2477273792028427
-2.0495779514312744,4.321458339691162,0.24361509084701538
-2.0827138423919678,4.314422607421875,0.2409788817167282
-2.1078009605407715,4.293700695037842,0.23754842579364777
-2.1500961780548096,4.307758331298828,0.23604407906532288
-2.155134916305542,4.244240760803223,0.23020566999912262
-2.1755576133728027,4.212035655975342,0.22608129680156708
-2.1779277324676514,4.149385929107666,0.2202576994895935
-2.1708478927612305,4.069427013397217,0.21355092525482178
-2.2058825492858887,4.068478107452393,0.2110026776790619
-2.2303366661071777,4.046387195587158,0.20730619132518768
-2.253009796142578,4.025038719177246,0.2035430669784546
-2.2830851078033447,4.017208576202393,0.20045705139636993
-2.3106141090393066,4.001616954803467,0.19684764742851257
-2.3464672565460205,3.998990535736084,0.1938205510377884
-2.3566529750823975,3.9568779468536377,0.18878944218158722
-2.3864805698394775,3.9482614994049072,0.18537382781505585
-2.413313865661621,3.932098865509033,0.1814778447151184
-2.4405624866485596,3.915430784225464,0.17742009460926056
-2.4615283012390137,3.8932316303253174,0.17309924960136414
-2.486746072769165,3.877351999282837,0.16904249787330627
-2.5009448528289795,3.840475559234619,0.16384585201740265
-2.476482629776001,3.7493252754211426,0.15637002885341644
-2.4769394397735596,3.6976234912872314,0.1505742222070694
-2.4979095458984375,3.674234628677368,0.14577573537826538
-2.0499866008758545,2.973245620727539,0.11474549770355225
-2.0508506298065186,2.9347660541534424,0.1100362241268158
-2.070913791656494,2.9207923412323,0.10600690543651581
-2.094669818878174,2.9135754108428955,0.10205521434545517
-1.0783469676971436,1.48020601272583,0.04996675252914429
-1.0955027341842651,1.4822248220443726,0.047931648790836334
-2.0680794715881348,2.899491786956787,-0.08602128177881241
-2.0464112758636475,2.9146769046783447,-0.09091255068778992
-2.4938979148864746,3.6069302558898926,-0.11758802086114883
-2.435533285140991,3.5804831981658936,-0.12171510607004166
-2.4515554904937744,3.6589972972869873,-0.12904486060142517
-2.413567304611206,3.660618782043457,-0.13366636633872986
-2.392094612121582,3.6884608268737793,-0.13925929367542267
-2.3704822063446045,3.7114717960357666,-0.14433328807353973
-2.338501214981079,3.7222964763641357,-0.14890429377555847
-2.3109030723571777,3.739300012588501,-0.15366698801517487
-2.2826931476593018,3.7518322467803955,-0.15802446007728577
-2.254361152648926,3.7687294483184814,-0.16259868443012238
-2.228296995162964,3.7885324954986572,-0.16723212599754333
-2.2017946243286133,3.8038082122802734,-0.171452596783638
-2.1857712268829346,3.839818000793457,-0.1765873283147812
-2.145956516265869,3.835202932357788,-0.1798410415649414
-2.1162357330322266,3.847034215927124,-0.18379256129264832
-2.0908589363098145,3.8651323318481445,-0.1879161149263382
-2.073430061340332,3.900855302810669,-0.1928630918264389
-2.048464775085449,3.9226341247558594,-0.1971421092748642
-2.0139451026916504,3.922740936279297,-0.20018744468688965
-1.9923757314682007,3.9510345458984375,-0.20468167960643768
-1.970463752746582,3.9792399406433105,-0.20910868048667908
-1.9418323040008545,3.9930970668792725,-0.21276113390922546
-1.9139283895492554,4.006356239318848,-0.2163086086511612
-1.888421654701233,4.026873588562012,-0.2201739400625229
-1.859155535697937,4.040278434753418,-0.22363422811031342
-1.8329452276229858,4.060606002807617,-0.22749963402748108
-1.814052939414978,4.094506740570068,-0.23204530775547028
-1.781606912612915,4.100038051605225,-0.2349008023738861
-1.7488864660263062,4.1054368019104,-0.2377205640077591
-1.7255334854125977,4.1320343017578125,-0.2417561113834381
-1.6976712942123413,4.147587776184082,-0.24515046179294586
-1.6710931062698364,4.166591644287109,-0.24863503873348236
-1.643962025642395,4.185572624206543,-0.2520809471607208
-1.622274398803711,4.218923568725586,-0.25641897320747375
-1.5928548574447632,4.2299394607543945,-0.25935497879981995
-1.562550663948059,4.24104642868042,-0.26229730248451233
-1.5374183654785156,4.266632556915283,-0.2659992277622223
-1.506850004196167,4.27734899520874,-0.2687927484512329
-1.479250431060791,4.295048236846924,-0.27200716733932495
-1.4467368125915527,4.297708034515381,-0.27426615357398987
-1.1793816089630127,3.5893242359161377,-0.2306915521621704
-1.1429771184921265,3.564113140106201,-0.23065023124217987
-1.1152851581573486,3.564570665359497,-0.23225480318069458
-1.330604910850525,4.358878135681152,-0.2859015464782715
-1.3077726364135742,4.394103527069092,-0.2900466024875641
-1.2786399126052856,4.410634517669678,-0.292850524187088
-1.2530626058578491,4.44212007522583,-0.29670196771621704
-1.2218579053878784,4.450650691986084,-0.29899218678474426
-1.190850853919983,4.458894729614258,-0.30126363039016724
-1.1652902364730835,4.489665985107422,-0.30491137504577637
-1.131545066833496,4.490109920501709,-0.306460440158844
-1.1074670553207397,4.532084941864014,-0.3108959197998047
-1.056984782218933,4.459909915924072,-0.30744853615760803
-1.0311146974563599,4.4898200035095215,-0.3110334277153015
-0.9993829131126404,4.496866226196289,-0.31280484795570374
-0.9692019820213318,4.511316776275635,-0.3151106536388397
-0.9431540369987488,4.548552513122559,-0.3190540075302124
-0.9152980446815491,4.573988437652588,-0.3221602737903595
-0.883324384689331,4.5801496505737305,-0.3238791823387146
-0.8524482250213623,4.59381628036499,-0.32593417167663574
-0.8227516412734985,4.614953517913818,-0.32854217290878296
-0.7897754311561584,4.620601654052734,-0.3300812840461731
-0.7588925361633301,4.633563995361328,-0.3321309983730316
-0.7326242923736572,4.677131652832031,-0.33631184697151184
-0.7009523510932922,4.689773082733154,-0.33811116218566895
-0.6718425750732422,4.721491813659668,-0.34131038188934326
-0.6403048038482666,4.741506576538086,-0.3437013328075409
-0.29721108078956604,2.3226394653320312,-0.1688227653503418
-0.282856285572052,2.3400895595550537,-0.17050588130950928
-0.2673149108886719,2.3497233390808105,-0.17154458165168762
-0.25206542015075684,2.363128185272217,-0.17286977171897888
-0.2370893657207489,2.3803038597106934,-0.1744820475578308
-0.21699269115924835,2.3469743728637695,-0.17240265011787415
-0.20059122145175934,2.3484034538269043,-0.17280837893486023
-0.18536821007728577,2.3652617931365967,-0.1742682158946991
-0.31766262650489807,4.453175067901611,-0.32853034138679504
-0.2825665771961212,4.393038272857666,-0.32453081011772156
-0.24813033640384674,4.336544513702393,-0.32081034779548645
-0.21421515941619873,4.264209270477295,-0.3158014714717865
-0.18093162775039673,4.183846950531006,-0.31004565954208374
-0.15117943286895752,4.169413089752197,-0.3091859817504883
-0.12315642833709717,4.205388069152832,-0.3120803236961365
-0.09280788153409958,4.178869724273682,-0.3103562593460083
-0.06268630176782608,4.109288692474365,-0.30533576011657715
-0.03387276455760002,4.082356929779053,-0.30332618951797485
-0.005421309266239405,4.043537139892578,-0.3004479706287384
0.02251029573380947,4.008416652679443,-0.29785898327827454
0.05045725777745247,3.976994752883911,-0.2955594062805176
0.07715863734483719,3.9298160076141357,-0.2920186221599579
0.10308355838060379,3.878579616546631,-0.2880239486694336
0.12921474874019623,3.8544278144836426,-0.2860579490661621
0.15422803163528442,3.8106391429901123,-0.2826511859893799
0.17925997078418732,3.7783613204956055,-0.28011444211006165
0.20428729057312012,3.7459022998809814,-0.2775086760520935
0.22807428240776062,3.709437608718872,-0.27445098757743835
0.25166428089141846,3.676708459854126,-0.2716887295246124
0.27481144666671753,3.643831491470337,-0.2689342200756073
0.29661819338798523,3.59915828704834,-0.26532772183418274
0.32065340876579285,3.581489324569702,-0.2636682689189911
0.3412989675998688,3.5365796089172363,-0.25985634326934814
0.3641461133956909,3.5186829566955566,-0.258049875497818
0.38251397013664246,3.4619126319885254,-0.2534138560295105
0.40565961599349976,3.451479434967041,-0.25218862295150757
0.4295395314693451,3.4447152614593506,-0.2511870861053467
0.44718921184539795,3.3953802585601807,-0.24694180488586426
0.46953263878822327,3.38455867767334,-0.24551962316036224
0.4906824231147766,3.365870475769043,-0.24354125559329987
0.5099743604660034,3.335475206375122,-0.24073143303394318
0.5285962820053101,3.3010764122009277,-0.237596794962883
0.5500501394271851,3.289743185043335,-0.23600585758686066
0.5673585534095764,3.2552385330200195,-0.23277270793914795
0.5870550274848938,3.2359776496887207,-0.23064956068992615
0.6030668020248413,3.197422981262207,-0.2271682173013687
0.6267305016517639,3.200887680053711,-0.22663407027721405
0.6428791284561157,3.1659646034240723,-0.22325024008750916
0.663036048412323,3.1539249420166016,-0.2215159684419632
0.679023802280426,3.1226937770843506,-0.21844959259033203
0.6939142346382141,3.087554693222046,-0.21512992680072784
0.7170289754867554,3.090358257293701,-0.21440204977989197
0.7331272959709167,3.062633991241455,-0.2114536315202713
0.7504112720489502,3.042482376098633,-0.20906665921211243
0.767579197883606,3.0222058296203613,-0.2066848874092102
0.7837172746658325,2.998013973236084,-0.20404693484306335
0.8003304600715637,2.977576971054077,-0.2015950232744217
0.8168908953666687,2.957005500793457,-0.1990717649459839
0.8371211886405945,2.9514412879943848,-0.19759269058704376
0.8510411381721497,2.9232046604156494,-0.19459910690784454
0.8668885231018066,2.9023728370666504,-0.19211934506893158
0.8810028433799744,2.877845525741577,-0.18929900228977203
0.8776214718818665,2.7973685264587402,-0.1828026920557022
0.8883395791053772,2.7654337882995605,-0.17955103516578674
