X,Y,Z
-2.6471824645996094,4.171574115753174,-0.08883500099182129
-2.660334825515747,4.260147571563721,-0.09320040792226791
-1.2679846286773682,2.062899112701416,-0.04627036675810814
-1.2525713443756104,2.0722639560699463,-0.047596607357263565
-2.004204034805298,3.370163917541504,-0.07914489507675171
-2.645522356033325,4.519850730895996,-0.10838969051837921
-2.6192469596862793,4.553093433380127,-0.11142843216657639
-2.6627306938171387,4.708063125610352,-0.11746075749397278
-2.641296863555908,4.746889114379883,-0.12056353688240051
-2.532360076904297,4.62852144241333,-0.11959203332662582
-2.5131070613861084,4.674439907073975,-0.12278711050748825
-2.53747296333313,4.802992343902588,-0.12819607555866241
-1.7442543506622314,3.3580806255340576,-0.09099046885967255
-1.70920991897583,3.349724292755127,-0.09207333624362946
-1.6846227645874023,3.3621113300323486,-0.09371192753314972
-1.659164547920227,3.3703513145446777,-0.09518901258707047
-1.6318554878234863,3.3749401569366455,-0.09657002240419388
-1.6157861948013306,3.404244899749756,-0.09858308732509613
-1.676753282546997,3.599912405014038,-0.10548054426908493
-1.6416126489639282,3.5902810096740723,-0.10638654232025146
-1.6261399984359741,3.6229662895202637,-0.10853935033082962
-1.6095131635665894,3.655951976776123,-0.11066693812608719
-1.5855919122695923,3.674851179122925,-0.1123904213309288
-2.1073038578033447,4.980502128601074,-0.15381677448749542
-1.599767804145813,3.855313777923584,-0.1202017292380333
-1.5694783926010132,3.859269142150879,-0.1214149072766304
-1.5503655672073364,3.892171621322632,-0.12350709736347198
-1.530551791191101,3.9251160621643066,-0.12563051283359528
-1.5073424577713013,3.946584701538086,-0.12735755741596222
-1.4879415035247803,3.9789164066314697,-0.12943869829177856
-1.4566352367401123,3.9821271896362305,-0.13050782680511475
-1.4358787536621094,4.0145039558410645,-0.13254311680793762
-1.4071639776229858,4.02461576461792,-0.13384996354579926
-1.381655216217041,4.041654586791992,-0.1353701949119568
-1.3604947328567505,4.073490619659424,-0.13734030723571777
-1.3337647914886475,4.0904951095581055,-0.13877646625041962
-0.9790132641792297,3.076756477355957,-0.10503362864255905
-0.9641469717025757,3.1059532165527344,-0.1066841259598732
-0.9447812438011169,3.120027780532837,-0.10781516879796982
-0.8231471180915833,2.7896316051483154,-0.09691665321588516
-0.7881680130958557,2.7428665161132812,-0.09579361975193024
-0.765603244304657,2.7370662689208984,-0.09609083831310272
-0.7424136996269226,2.7272422313690186,-0.09623950719833374
-0.7280467748641968,2.7512850761413574,-0.09759380668401718
-0.7104454636573792,2.7639236450195312,-0.09846428781747818
-0.6822822690010071,2.734790563583374,-0.09784805029630661
-1.2672723531723022,5.236168384552002,-0.18815067410469055
-1.2388343811035156,5.279024600982666,-0.19050055742263794
-1.2178335189819336,5.359958171844482,-0.1942463517189026
-1.177344560623169,5.35697078704834,-0.19482621550559998
-1.1499342918395996,5.414776802062988,-0.1976318359375
-1.1213183403015137,5.46856689453125,-0.20030687749385834
-1.2227481603622437,6.18080472946167,-0.22719937562942505
-1.1804206371307373,6.196935176849365,-0.22860375046730042
-1.1381456851959229,6.212741851806641,-0.2298133224248886
-1.073386311531067,6.101387977600098,-0.2263191044330597
-0.959814727306366,5.6891608238220215,-0.21161694824695587
-0.9388526082038879,5.81128454208374,-0.21676601469516754
-0.9345386624336243,6.056953430175781,-0.22658300399780273
-0.6891025900840759,4.684614181518555,-0.17561009526252747
-0.6685322523117065,4.77824592590332,-0.17949996888637543
-0.6395729780197144,4.817629814147949,-0.18136970698833466
-0.5822111368179321,4.63215970993042,-0.1747664511203766
-0.5532122254371643,4.663208961486816,-0.1763274073600769
-0.5174099206924438,4.643736362457275,-0.17586274445056915
-0.48727360367774963,4.670529842376709,-0.17712587118148804
-0.5697556138038635,5.8587822914123535,-0.22251145541667938
-0.5258345007896423,5.827596187591553,-0.22165527939796448
-0.48205119371414185,5.792194843292236,-0.22064520418643951
-0.2608492374420166,3.42901349067688,-0.13076798617839813
-0.24250146746635437,3.5125250816345215,-0.1340627372264862
-0.21792413294315338,3.5141286849975586,-0.13424044847488403
-0.3157219886779785,5.737133502960205,-0.2193593531847
-0.2750953137874603,5.723582744598389,-0.2190506011247635
-0.23426342010498047,5.71757698059082,-0.2189745008945465
-0.19333620369434357,5.687858581542969,-0.21787412464618683
0.10693062841892242,1.5107543468475342,-0.057499960064888
0.32219424843788147,4.144669532775879,-0.15749981999397278
0.35910147428512573,4.239591598510742,-0.16086061298847198
0.47119733691215515,5.138833522796631,-0.1946897655725479
0.5076519250869751,5.143220901489258,-0.19457405805587769
0.48558270931243896,4.588311195373535,-0.17329935729503632
0.5137068629264832,4.553842067718506,-0.17162060737609863
0.5552657842636108,4.635483741760254,-0.17432203888893127
0.5897961854934692,4.6509108543396,-0.17453131079673767
0.6729583144187927,5.025873184204102,-0.1882072538137436
0.7052369713783264,4.997814655303955,-0.1867661327123642
0.7385044693946838,4.985141277313232,-0.1857660412788391
0.7686823010444641,4.952953338623047,-0.1840505301952362
0.801577627658844,4.939853191375732,-0.18305668234825134
0.8306829929351807,4.903397083282471,-0.1812061220407486
0.8620354533195496,4.882153511047363,-0.1799311488866806
0.8912293314933777,4.84915828704834,-0.1781090646982193
0.9244817495346069,4.842959880828857,-0.17726339399814606
0.954658031463623,4.8212151527404785,-0.1758590042591095
0.9818666577339172,4.783902168273926,-0.17389307916164398
1.0134714841842651,4.769355773925781,-0.17276790738105774
1.0468400716781616,4.762176990509033,-0.17182011902332306
1.075943112373352,4.739709854125977,-0.1702997088432312
1.1057194471359253,4.720859050750732,-0.16892027854919434
1.1347827911376953,4.6979289054870605,-0.16739793121814728
1.1655490398406982,4.682379722595215,-0.1661483347415924
1.192427635192871,4.651467323303223,-0.16427141427993774
1.2181339263916016,4.620621204376221,-0.162372887134552
1.2475980520248413,4.604701995849609,-0.1610107570886612
1.2743122577667236,4.577159881591797,-0.15924040973186493
1.306148648262024,4.568215847015381,-0.1581260710954666
1.3335862159729004,4.5440497398376465,-0.1564178466796875
1.3622535467147827,4.527426242828369,-0.1549583226442337
1.3907558917999268,4.510622501373291,-0.15350274741649628
1.4126393795013428,4.471114158630371,-0.151271790266037
1.4436951875686646,4.46122407913208,-0.15005508065223694
1.4696872234344482,4.436324596405029,-0.1482444405555725
1.4934232234954834,4.407827377319336,-0.14631950855255127
1.5131858587265015,4.368082523345947,-0.14403271675109863
1.2737140655517578,3.595656394958496,-0.11775007098913193
1.2987004518508911,3.5867433547973633,-0.11664986610412598
1.5977792739868164,4.321340560913086,-0.13948170840740204
1.617802381515503,4.284728050231934,-0.13723240792751312
1.6513725519180298,4.284502983093262,-0.13616114854812622
1.6782766580581665,4.265691757202148,-0.1344900131225586
1.697364330291748,4.228740692138672,-0.13222773373126984
1.7361723184585571,4.242550849914551,-0.13150137662887573
1.7651760578155518,4.230612754821777,-0.12995757162570953
1.7899339199066162,4.207519054412842,-0.1280631273984909
1.8160415887832642,4.18785285949707,-0.1262829601764679
1.8346940279006958,4.154163837432861,-0.12403903156518936
1.8624718189239502,4.14183235168457,-0.1224382296204567
1.8944891691207886,4.135925769805908,-0.12098310887813568
1.9166396856307983,4.108527183532715,-0.11890599131584167
1.9378374814987183,4.08133602142334,-0.11681010574102402
1.9684370756149292,4.075389862060547,-0.11529958993196487
1.989028811454773,4.048032283782959,-0.11317513883113861
2.021106481552124,4.040896415710449,-0.11155974864959717
2.041518449783325,4.01315450668335,-0.10938911885023117
2.068058967590332,3.99959135055542,-0.10758582502603531
2.0820882320404053,3.961498498916626,-0.10512015223503113
2.122454881668091,3.9710915088653564,-0.10387042909860611
2.145702838897705,3.9497416019439697,-0.10178811103105545
2.1627180576324463,3.9182116985321045,-0.09939853847026825
2.1928024291992188,3.910460948944092,-0.09761932492256165
2.2083375453948975,3.8748111724853516,-0.0950978472828865
2.230339527130127,3.8532159328460693,-0.09291809052228928
2.2674174308776855,3.858766794204712,-0.09137687087059021
2.2901453971862793,3.836277961730957,-0.08907077461481094
2.308623790740967,3.8069775104522705,-0.08661453425884247
2.3415751457214355,3.8052027225494385,-0.08476254343986511
2.3583521842956543,3.7764699459075928,-0.0822916328907013
2.388761520385742,3.7666115760803223,-0.08013785630464554
2.4098613262176514,3.7439093589782715,-0.07766450196504593
2.4382660388946533,3.7348523139953613,-0.07550309598445892
2.459766149520874,3.711408853530884,-0.07291097939014435
2.4887611865997314,3.70149302482605,-0.07057908922433853
2.5035502910614014,3.6726596355438232,-0.06789278984069824
2.524876356124878,3.6485846042633057,-0.06509185582399368
2.553220510482788,3.6384003162384033,-0.06255942583084106
2.571981191635132,3.6156253814697266,-0.05977524071931839
2.5969865322113037,3.5977537631988525,-0.05688513070344925
2.628542184829712,3.5941829681396484,-0.05421121418476105
2.180150032043457,2.9397151470184326,-0.042016368359327316
2.560709238052368,3.5853097438812256,0.057979512959718704
2.543980121612549,3.616272211074829,0.06096889451146126
2.506946563720703,3.6230127811431885,0.06353141367435455
2.498990297317505,3.666337251663208,0.06651820242404938
2.471771001815796,3.684696674346924,0.06902751326560974
2.443863868713379,3.7032177448272705,0.07150069624185562
2.438847064971924,3.753143787384033,0.07446984946727753
2.4298317432403564,3.8007285594940186,0.07736284285783768
2.4491281509399414,3.894810676574707,0.08122775703668594
2.43428111076355,3.9316506385803223,0.08381462097167969
2.4095914363861084,3.9559326171875,0.08612123131752014
2.3993725776672363,4.007679462432861,0.08905946463346481
2.363206386566162,4.010944366455078,0.09079133719205856
2.342620849609375,4.041024208068848,0.09310652315616608
2.3124678134918213,4.0583086013793945,0.09508506208658218
2.2790162563323975,4.0681915283203125,0.09685919433832169
2.2539443969726562,4.091011047363281,0.09890155494213104
2.230055570602417,4.117366313934326,0.10097581893205643
2.2069551944732666,4.147453784942627,0.10312499105930328
2.1844406127929688,4.176948547363281,0.10523256659507751
2.1516993045806885,4.185084342956543,0.10677330195903778
2.127910852432251,4.21469259262085,0.10883994400501251
2.1003286838531494,4.237181186676025,0.110683873295784
2.0665762424468994,4.2450175285339355,0.11211535334587097
2.036975622177124,4.259259223937988,0.11368779093027115
2.0098187923431396,4.280728816986084,0.115422323346138
1.9817705154418945,4.302345275878906,0.11713678389787674
1.9501633644104004,4.316722393035889,0.11866708844900131
1.9137349128723145,4.315873622894287,0.11972346156835556
1.9099044799804688,4.390021800994873,0.12286147475242615
1.8718304634094238,4.38937520980835,0.12386339157819748
1.8670270442962646,4.467657566070557,0.12710972130298615
1.8543376922607422,4.527803421020508,0.1298549771308899
1.834391713142395,4.569560527801514,0.13207179307937622
1.8117444515228271,4.607932090759277,0.13413012027740479
1.7657703161239624,4.588070869445801,0.13445815443992615
4.599584579467773,12.21224308013916,0.3602955937385559
1.3220173120498657,3.5868608951568604,0.10652004927396774
1.3023275136947632,3.6106367111206055,0.1079174131155014
1.2789442539215088,3.627239942550659,0.10903824120759964
1.612761378288269,4.681070804595947,0.14151841402053833
1.6105502843856812,4.784909248352051,0.1454709768295288
1.5632147789001465,4.755356311798096,0.14538022875785828
1.5300556421279907,4.766094207763672,0.14650414884090424
1.5180330276489258,4.847701072692871,0.14970842003822327
1.4740926027297974,4.8285603523254395,0.14981576800346375
1.4342772960662842,4.8201398849487305,0.15024757385253906
1.42570960521698,4.916224002838135,0.15394152700901031
1.382399320602417,4.896096706390381,0.15402373671531677
1.3392045497894287,4.875673770904541,0.15397480130195618
1.283206820487976,4.80586576461792,0.15235815942287445
1.2510432004928589,4.822378158569336,0.15347331762313843
1.2251023054122925,4.861224174499512,0.1552998423576355
1.1962404251098633,4.892498016357422,0.1569087952375412
1.1660758256912231,4.9198150634765625,0.15829995274543762
1.1345853805541992,4.943172931671143,0.15954603254795074
1.1011288166046143,4.958707809448242,0.16054993867874146
1.0698028802871704,4.981510162353516,0.16179007291793823
1.0392330884933472,5.011878490447998,0.16329599916934967
1.005557656288147,5.026684761047363,0.1642373502254486
0.9683717489242554,5.026008605957031,0.16460730135440826
1.474134087562561,7.954089164733887,0.26113614439964294
1.4121582508087158,7.929605484008789,0.26096582412719727
1.3580327033996582,7.950904369354248,0.26231858134269714
1.2970889806747437,7.925439357757568,0.26212483644485474
1.7052521705627441,10.900577545166016,0.36115574836730957
1.6081479787826538,10.777152061462402,0.3577081561088562
1.508136510848999,10.61808967590332,0.3530752658843994
1.4130661487579346,10.4814453125,0.3491903841495514
1.3247758150100708,10.37093734741211,0.346164733171463
1.2442651987075806,10.314029693603516,0.3447958528995514
1.1541038751602173,10.16733169555664,0.3402913510799408
1.0688602924346924,10.04707145690918,0.33667775988578796
0.9935722351074219,10.003772735595703,0.33564943075180054
0.3967227339744568,4.303553581237793,0.1445848047733307
0.36314815282821655,4.263408660888672,0.14342863857746124
0.33143413066864014,4.242490291595459,0.1428167074918747
0.3033735156059265,4.268067359924316,0.14376536011695862
0.2757193446159363,4.305146217346191,0.14510972797870636
0.24477629363536835,4.299190044403076,0.14501245319843292
0.21686334908008575,4.3397722244262695,0.14649079740047455
0.1831282079219818,4.259263515472412,0.14385846257209778
0.14960496127605438,4.155096054077148,0.1403491050004959
0.12060228735208511,4.156036853790283,0.14039668440818787
0.09092821180820465,4.148980617523193,0.14018131792545319
0.023641621693968773,1.5809520483016968,0.053426723927259445
0.0344834141433239,4.313804626464844,0.14581841230392456
0.004509625490754843,4.368597030639648,0.14765100181102753
-0.05369317904114723,4.126204490661621,0.13935548067092896
-0.080899178981781,4.051571846008301,0.13679476082324982
-0.10990703850984573,4.082134246826172,0.13779287040233612
-0.13930296897888184,4.112489223480225,0.13879022002220154
-0.15185630321502686,3.7213525772094727,0.1254791021347046
-0.28304532170295715,5.927387237548828,0.19968026876449585
-0.19446992874145508,3.5473551750183105,0.11939656734466553
-0.2181616574525833,3.5303361415863037,0.11872558295726776
-0.24109047651290894,3.5053699016571045,0.11779414862394333
-0.5828157663345337,7.692380905151367,0.2582612633705139
-0.29833438992500305,3.6067569255828857,0.12091665714979172
-0.5803533792495728,6.462575912475586,0.21634837985038757
-0.6322486400604248,6.532248020172119,0.2183828204870224
-0.3704468607902527,3.568690061569214,0.11914891004562378
-0.38063836097717285,3.434103488922119,0.11450875550508499
-0.4043837785720825,3.4313976764678955,0.11422796547412872
-0.42163199186325073,3.374255895614624,0.11210279911756516
-0.4438088536262512,3.3635451793670654,0.11153367161750793
-0.46118393540382385,3.317863941192627,0.10981191694736481
-0.47970446944236755,3.2836854457855225,0.10848011076450348
-0.5037164688110352,3.2879977226257324,0.1084262803196907
-0.5223299264907837,3.257429838180542,0.10713738203048706
-0.5408016443252563,3.2306785583496094,0.10598429292440414
-0.5548745393753052,3.180756092071533,0.10408224165439606
-0.5755661129951477,3.169153928756714,0.10343988239765167
-0.5975719094276428,3.165090799331665,0.10304922610521317
-0.6209002733230591,3.1685686111450195,0.10287602245807648
-0.6429235339164734,3.164188861846924,0.10239974409341812
-0.6605105400085449,3.140634059906006,0.10131558775901794
-0.6821315884590149,3.136023998260498,0.10084666311740875
-0.6919092535972595,3.0778956413269043,0.09866437315940857
-0.7150079607963562,3.08064341545105,0.09844335168600082
-0.7381373047828674,3.08323073387146,0.09815133363008499
-0.6927263140678406,2.809004306793213,0.08908558636903763
-0.7022441625595093,2.766390085220337,0.08740568906068802
-0.7194873094558716,2.7539007663726807,0.08668048679828644
-0.737604022026062,2.7450764179229736,0.08607619255781174
-0.7577901482582092,2.743640422821045,0.08566172420978546
-0.7849078178405762,2.7685046195983887,0.08604700863361359
-0.8200305104255676,2.8193700313568115,0.08723224699497223
-0.9410840272903442,3.15413498878479,0.09714189916849136
-0.9607177376747131,3.1400647163391113,0.0962623804807663
-0.990841805934906,3.1593668460845947,0.09637834131717682
-1.019352674484253,3.174919843673706,0.09634295105934143
-1.048090934753418,3.1902401447296143,0.09629840403795242
-1.069982886314392,3.1829867362976074,0.09556479752063751
-1.0996944904327393,3.1976516246795654,0.09548430889844894
-1.1359748840332031,3.230531692504883,0.09592785686254501
-1.1659678220748901,3.2447590827941895,0.09575400501489639
-1.1985384225845337,3.2661890983581543,0.09579739719629288
-1.2277580499649048,3.276200771331787,0.09549050033092499
-1.2673038244247437,3.311354160308838,0.09589982777833939
-1.3014544248580933,3.331667184829712,0.095852330327034
-1.3516476154327393,3.391648530960083,0.09686858206987381
-2.262239694595337,5.567594528198242,0.15787167847156525
-2.3169782161712646,5.591609001159668,0.1573752611875534
-1.554860234260559,3.6797568798065186,0.10278381407260895
-1.5891913175582886,3.690615653991699,0.10226906090974808
-1.604824185371399,3.6583058834075928,0.10051383823156357
-1.6164792776107788,3.619013786315918,0.09859789162874222
-1.630254864692688,3.5828499794006348,0.0967508852481842
-1.6173627376556396,3.4899673461914062,0.09340159595012665
-1.6039514541625977,3.4014313220977783,0.09017454832792282
-1.6251970529556274,3.3870317935943604,0.08891734480857849
-1.6447343826293945,3.3689286708831787,0.0875648781657219
-1.664628505706787,3.3504550457000732,0.08619023859500885
-1.6873037815093994,3.3391244411468506,0.08497726172208786
-1.7253531217575073,3.3592166900634766,0.08452865481376648
-1.7657639980316162,3.382300615310669,0.08413071185350418
-2.450984239578247,4.614843368530273,0.11336296796798706
-2.460299253463745,4.55673885345459,0.11053357273340225
-2.490187168121338,4.5405192375183105,0.10870589315891266
-1.2011719942092896,2.1562278270721436,0.05093419551849365
-2.5149881839752197,4.441840648651123,0.10342905670404434
-2.534055233001709,4.4040207862854,0.10101193934679031
-2.554795742034912,4.373983860015869,0.09877520799636841
-2.5697684288024902,4.333493709564209,0.09629295766353607
-1.2334214448928833,2.0473787784576416,0.04471180588006973
-1.2593121528625488,2.0590968132019043,0.04416576027870178
-2.0431454181671143,3.2918660640716553,0.06928207725286484
-1.295025110244751,2.0553572177886963,0.042402420192956924
-2.117422342300415,3.309757947921753,0.0668584555387497
-2.6763720512390137,4.125143051147461,0.08152470737695694
-2.1707985401153564,3.2984700202941895,0.06370148807764053
-2.7409818172454834,4.101390838623047,0.07719499617815018
-2.776160717010498,4.096591472625732,0.07509350031614304
-2.7671279907226562,4.027141094207764,0.07179363071918488
-2.808464527130127,4.027073383331299,0.06959043443202972
-2.795793056488037,3.954880714416504,0.06614037603139877
-2.5556180477142334,3.564941883087158,0.05750758945941925
-2.614413261413574,3.5947935581207275,0.05573076009750366
-2.689875841140747,3.650926351547241,0.05429265648126602
-2.9631075859069824,4.147695064544678,-0.05216411128640175
-2.4636785984039307,3.5010361671447754,-0.04620508849620819
-2.79013729095459,4.030509948730469,-0.055650126188993454
-2.761770009994507,4.049965858459473,-0.05815005302429199
-2.7404966354370117,4.083184242248535,-0.06083163991570473
-2.2191781997680664,3.360366106033325,-0.05182585492730141
-2.165534257888794,3.3301126956939697,-0.05300186201930046
-1.2924147844314575,2.0201656818389893,-0.033110350370407104
-1.2941337823867798,2.0560638904571533,-0.03464425355195999
-1.2447452545166016,2.0086071491241455,-0.03471491485834122
-1.268456220626831,2.0811216831207275,-0.0368480309844017
-2.007540702819824,3.3503551483154297,-0.06073037534952164
-2.543774366378784,4.31289005279541,-0.07983611524105072
-2.5244808197021484,4.351289749145508,-0.0821850597858429
-2.484515428543091,4.356218338012695,-0.0838872641324997
-1.20005202293396,2.1391441822052,-0.04194621369242668
-2.4508492946624756,4.442203521728516,-0.08865897357463837
-2.414381742477417,4.453208923339844,-0.09035167843103409
-2.374420642852783,4.456912994384766,-0.09188499301671982
-1.7398301362991333,3.3212437629699707,-0.06950223445892334
-1.7216659784317017,3.343853235244751,-0.07099580019712448
-1.703790545463562,3.370483160018921,-0.07257232815027237
-1.6724598407745361,3.3686795234680176,-0.07351109385490417
-1.6489919424057007,3.3802030086517334,-0.07470425218343735
-1.6250088214874268,3.3917717933654785,-0.07588440924882889
-1.6368781328201294,3.481218099594116,-0.07880109548568726
-1.6608577966690063,3.5992703437805176,-0.08240915834903717
-1.6320462226867676,3.603825807571411,-0.08343521505594254
-1.616099238395691,3.6366348266601562,-0.08508908748626709
-1.6021530628204346,3.676879405975342,-0.08688899874687195
-2.0249743461608887,4.740632057189941,-0.11312992125749588
-2.0040528774261475,4.78337287902832,-0.11521754413843155
-1.5918900966644287,3.876195192337036,-0.09424479305744171
-1.558122992515564,3.873032808303833,-0.09496795386075974
-1.5387983322143555,3.9059197902679443,-0.09658150374889374
-1.518297553062439,3.934844732284546,-0.09809240698814392
-1.4963985681533813,3.959901809692383,-0.0995093435049057
-1.4732543230056763,3.9852023124694824,-0.10091464221477509
-1.4445914030075073,3.9956564903259277,-0.10190505534410477
-1.4237940311431885,4.027949810028076,-0.10345835983753204
-1.398300051689148,4.045109748840332,-0.10461343824863434
-1.372636079788208,4.062110424041748,-0.10577204078435898
-1.347999930381775,4.0867791175842285,-0.10707797110080719
-1.319959282875061,4.100000858306885,-0.10807664692401886
-0.9773005247116089,3.110769748687744,-0.08249131590127945
-0.9578588604927063,3.1249630451202393,-0.08335694670677185
-0.9202913641929626,3.079198122024536,-0.08260530233383179
-0.797877848148346,2.7407357692718506,-0.07389716058969498
-0.7704966068267822,2.7201454639434814,-0.07371988892555237
-0.7513939142227173,2.7254703044891357,-0.0742320567369461
-0.7344418168067932,2.7381598949432373,-0.07494630664587021
-0.7152614593505859,2.7432196140289307,-0.07543530315160751
-0.70439213514328,2.782284736633301,-0.07683026045560837
-1.485915184020996,6.0523810386657715,-0.16784586012363434
-1.4472157955169678,6.077780723571777,-0.16925141215324402
-1.4418150186538696,6.247467517852783,-0.17469988763332367
-1.4193469285964966,6.35264778137207,-0.17832770943641663
-1.3620085716247559,6.305252552032471,-0.17759782075881958
-1.3118034601211548,6.291933536529541,-0.1778397411108017
-1.2624346017837524,6.274121284484863,-0.17794033885002136
-1.2157212495803833,6.267406940460205,-0.17835870385169983
-1.16472327709198,6.237343788146973,-0.1780635118484497
-1.1117212772369385,6.195423126220703,-0.17732055485248566
-1.0301228761672974,5.987730979919434,-0.1718302220106125
-0.9361516237258911,5.678849220275879,-0.16339249908924103
-0.9488863348960876,6.016915798187256,-0.17357666790485382
-0.6993362903594971,4.644947528839111,-0.13433818519115448
-0.673281729221344,4.6961236000061035,-0.13607971370220184
-0.6485651135444641,4.7665886878967285,-0.13839824497699738
-0.4419115483760834,3.427220106124878,-0.09970850497484207
-0.42234882712364197,3.4650816917419434,-0.10101408511400223
-0.40807265043258667,3.5532634258270264,-0.10379864275455475
-0.3798443078994751,3.5249693393707275,-0.10310664027929306
-0.3566853702068329,3.5430798530578613,-0.10377325117588043
-0.33765465021133423,3.611610174179077,-0.10592709481716156
-0.31450992822647095,3.6372084617614746,-0.10682754218578339
-0.2919865548610687,3.674332618713379,-0.10807393491268158
-0.2586638629436493,3.5711326599121094,-0.10513702034950256
-0.23035414516925812,3.522200345993042,-0.10377316176891327
-0.2066045105457306,3.5471367835998535,-0.10459177196025848
-0.19577229022979736,3.817542314529419,-0.11265841126441956
-0.17047536373138428,3.8461108207702637,-0.113600954413414
-0.14490894973278046,3.8784141540527344,-0.11462149769067764
-0.11885713785886765,3.9105496406555176,-0.11558105796575546
-0.003646769793704152,1.5071488618850708,-0.04458032548427582
0.006863622926175594,1.5071384906768799,-0.044555556029081345
0.028037259355187416,1.5068947076797485,-0.044505663216114044
0.03908728435635567,1.530084252357483,-0.045172445476055145
0.059394195675849915,1.5059876441955566,-0.04440558701753616
0.06946296989917755,1.4977412223815918,-0.04411495104432106
0.11729773879051208,1.5769985914230347,-0.04625510424375534
0.12537150084972382,1.5411255359649658,-0.04512642323970795
0.4574953019618988,5.172920227050781,-0.15121705830097198
0.4896622896194458,5.130762100219727,-0.1497436761856079
0.5169360041618347,5.0456767082214355,-0.14702987670898438
0.4975239932537079,4.545158386230469,-0.13223549723625183
0.5338005423545837,4.584296226501465,-0.13306738436222076
0.5750209093093872,4.654082298278809,-0.13478229939937592
0.6258252859115601,4.793271541595459,-0.13850434124469757
0.6905615925788879,5.017038345336914,-0.14465072751045227
0.7220377326011658,4.98894739151001,-0.14352986216545105
0.7546671628952026,4.972283363342285,-0.142655149102211
0.784544050693512,4.936046123504639,-0.1411983072757721
0.8172100782394409,4.9228434562683105,-0.1404174119234085
0.8473784327507019,4.893980979919434,-0.13919536769390106
0.8785713911056519,4.872623920440674,-0.13819661736488342
0.908578097820282,4.847272872924805,-0.1370323747396469
0.9402742981910706,4.833287715911865,-0.13615164160728455
0.9708800315856934,4.811318874359131,-0.13504603505134583
1.0010111331939697,4.789203643798828,-0.13394902646541595
1.029359221458435,4.759241580963135,-0.13264095783233643
1.0596764087677002,4.740600109100342,-0.131623312830925
1.0920467376708984,4.733268737792969,-0.1308748722076416
1.1195220947265625,4.702785968780518,-0.12948539853096008
1.1483234167099,4.679775714874268,-0.1283150464296341
1.1789376735687256,4.664123058319092,-0.1273524910211563
1.2072654962539673,4.6407551765441895,-0.12615686655044556
1.2348508834838867,4.61734676361084,-0.12490344792604446
1.262727975845337,4.593627452850342,-0.12364067137241364
1.2912386655807495,4.573546409606934,-0.12248837202787399
1.3208551406860352,4.556972980499268,-0.12143386155366898
1.350032091140747,4.540290832519531,-0.1203584149479866
1.37627112865448,4.516103267669678,-0.11903604120016098
1.398154854774475,4.476683139801025,-0.11731191724538803
1.4290037155151367,4.46695613861084,-0.11637772619724274
1.455184817314148,4.4420857429504395,-0.11505108326673508
1.4770174026489258,4.406078815460205,-0.11340879648923874
1.5118956565856934,4.4107747077941895,-0.1127694621682167
1.2589585781097412,3.5933384895324707,-0.09125225245952606
1.28687584400177,3.591754913330078,-0.09057100117206573
1.3171945810317993,3.5974082946777344,-0.09008098393678665
1.6083441972732544,4.301666259765625,-0.10692257434129715
1.6428920030593872,4.3053412437438965,-0.106199711561203
1.6691975593566895,4.286857604980469,-0.10492987930774689
1.6865191459655762,4.242300033569336,-0.10299846529960632
1.7189102172851562,4.237736225128174,-0.10206066071987152
1.750308632850647,4.2333455085754395,-0.10107418894767761
1.7802411317825317,4.22511100769043,-0.09999725222587585
1.8045611381530762,4.202062129974365,-0.0985577180981636
1.8311136960983276,4.18206262588501,-0.09717033803462982
1.8563613891601562,4.162394046783447,-0.09577906131744385
1.8776997327804565,4.135689735412598,-0.09420572966337204
1.9088072776794434,4.130060195922852,-0.09311088919639587
1.9241472482681274,4.0884599685668945,-0.09118497371673584
1.956118106842041,4.081953048706055,-0.09002495557069778
1.983203411102295,4.0688910484313965,-0.08871103078126907
2.0032637119293213,4.041652202606201,-0.08709545433521271
2.0348222255706787,4.0346360206604,-0.08587458729743958
2.059202194213867,4.0134992599487305,-0.08435327559709549
2.076723337173462,3.98248028755188,-0.0825849175453186
2.1090362071990967,3.9787580966949463,-0.08136776089668274
2.136476755142212,3.964120864868164,-0.0799008458852768
2.1581785678863525,3.9390218257904053,-0.07822152227163315
2.1839921474456787,3.924797773361206,-0.0767400935292244
2.205918550491333,3.9035751819610596,-0.07512490451335907
2.2296388149261475,3.8810997009277344,-0.07340020686388016
2.256084442138672,3.865816354751587,-0.07183478772640228
2.27339243888855,3.8375446796417236,-0.0700264573097229
2.3071255683898926,3.8356313705444336,-0.06867148727178574
2.3255627155303955,3.806213617324829,-0.06678012013435364
2.3469183444976807,3.7839229106903076,-0.0649787038564682
2.375563144683838,3.7752668857574463,-0.06343366950750351
2.401651620864868,3.758753776550293,-0.06166154146194458
2.435323715209961,3.7556886672973633,-0.060092709958553314
2.4379429817199707,3.70735764503479,-0.057796455919742584
2.4766342639923096,3.7098639011383057,-0.05617693066596985
2.501628875732422,3.693084239959717,-0.05425700917840004
2.5162737369537354,3.6642117500305176,-0.05217277631163597
2.53227162361145,3.634176015853882,-0.049969930201768875
2.560809373855591,3.6237213611602783,-0.04800029098987579
2.5795695781707764,3.6008129119873047,-0.04581885039806366
2.604452133178711,3.5828850269317627,-0.04356564208865166
2.1866614818573,2.969003915786743,-0.03441014140844345
2.556778907775879,3.607490062713623,0.0432838499546051
2.5267446041107178,3.619041681289673,0.045244958251714706
2.503157377243042,3.644850492477417,0.047370657324790955
2.4722747802734375,3.656416654586792,0.04920610040426254
2.445528507232666,3.6743342876434326,0.05104886740446091
2.417400598526001,3.6928746700286865,0.05289021134376526
2.387441635131836,3.702997922897339,0.05446968972682953
2.3646187782287598,3.72684383392334,0.05623312294483185
2.348385810852051,3.7647178173065186,0.05822828784584999
2.3301608562469482,3.7943477630615234,0.05998753383755684
2.2989280223846436,3.8042030334472656,0.06141430512070656
2.2783870697021484,3.834700345993042,0.06314975768327713
2.2626426219940186,3.8711559772491455,0.06494662165641785
2.2526493072509766,3.91755747795105,0.06691564619541168
2.2505228519439697,3.9816882610321045,0.06914045661687851
2.237990379333496,4.028980255126953,0.0710940808057785
2.2285704612731934,4.078738689422607,0.07304459065198898
2.2126119136810303,4.1184563636779785,0.07482673227787018
2.188898801803589,4.148755073547363,0.07644585520029068
2.158579111099243,4.164586067199707,0.07777506113052368
2.1437458992004395,4.207315921783447,0.07956907153129578
2.113919496536255,4.22235631942749,0.0808296725153923
2.0760343074798584,4.223687171936035,0.08178701996803284
2.054961919784546,4.259988784790039,0.08343508839607239
2.0185928344726562,4.260038375854492,0.08432407677173615
1.9919824600219727,4.281139850616455,0.08562064915895462
1.9639874696731567,4.3026204109191895,0.08688490837812424
1.929435133934021,4.309645175933838,0.08786098659038544
1.9118030071258545,4.351622581481934,0.08952593058347702
1.880902647972107,4.365044593811035,0.09062398225069046
1.8539330959320068,4.389267921447754,0.09187454730272293
1.8220179080963135,4.402590751647949,0.09289103746414185
1.796486258506775,4.4299116134643555,0.09419606626033783
1.7685320377349854,4.449531078338623,0.09532810747623444
1.736640453338623,4.4620537757873535,0.09630638360977173
1.712765097618103,4.496336936950684,0.09769851714372635
1.6748089790344238,4.49392557144165,0.09830020368099213
1.3154220581054688,3.6066272258758545,0.07940231263637543
1.2942347526550293,3.626710891723633,0.08035577833652496
1.2641799449920654,3.62487530708313,0.08080001175403595
1.5755999088287354,4.624582290649414,0.10365770012140274
1.5472506284713745,4.650591850280762,0.10481956601142883
1.5329840183258057,4.716931343078613,0.10688531398773193
1.5072376728057861,4.749791622161865,0.10820703208446503
1.4775819778442383,4.775436878204346,0.10933029651641846
1.4524171352386475,4.815775394439697,0.11076369881629944
1.4135397672653198,4.811033248901367,0.11116747558116913
1.3843048810958862,4.835760116577148,0.11224416643381119
1.3558427095413208,4.864074230194092,0.11341313272714615
1.304057002067566,4.809444427490234,0.11259692907333374
1.2671010494232178,4.811220645904541,0.11307461559772491
1.2385462522506714,4.842824459075928,0.11425279080867767
1.2122907638549805,4.881646156311035,0.11560153216123581
1.1801098585128784,4.8975443840026855,0.1164158433675766
1.1501704454421997,4.924700736999512,0.11746879667043686
1.11631441116333,4.940479278564453,0.11821623146533966
1.0845602750778198,4.963524341583252,0.11913901567459106
1.0513410568237305,4.978636264801025,0.11987458914518356
1.0213642120361328,5.008774757385254,0.12097711861133575
0.9818990230560303,4.992769718170166,0.12095796316862106
0.9654808044433594,5.10330867767334,0.12393131107091904
0.9335392117500305,5.133054256439209,0.12495078146457672
0.8973420858383179,5.139493942260742,0.1254092901945114
1.3264893293380737,7.9225382804870605,0.1937863826751709
1.2676705121994019,7.908416271209717,0.19391554594039917
1.6503549814224243,10.78925895690918,0.26505425572395325
1.5590803623199463,10.696267127990723,0.26320746541023254
1.4621293544769287,10.55225944519043,0.26010820269584656
1.377761960029602,10.48088264465332,0.25879716873168945
1.2816493511199951,10.304189682006836,0.25488534569740295
1.196635365486145,10.20037841796875,0.2527283728122711
1.1146448850631714,10.127153396606445,0.25119638442993164
1.03343665599823,10.037611961364746,0.24926219880580902
0.4170500338077545,4.349808692932129,0.10814707726240158
0.3802368938922882,4.278692722320557,0.10650986433029175
0.3466220200061798,4.23452615737915,0.10554508864879608
0.3176681101322174,4.252457141876221,0.10607039928436279
0.288960725069046,4.270157814025879,0.10656724870204926
0.26116085052490234,4.307156085968018,0.1075516939163208
0.23156258463859558,4.316667079925537,0.10785529762506485
0.20083674788475037,4.302565574645996,0.10757382214069366
0.16481740772724152,4.163405895233154,0.10416119545698166
0.13502484560012817,4.141035079956055,0.10360703617334366
0.10775332897901535,4.2043352127075195,0.10520147532224655
0.07727508246898651,4.142513751983643,0.1036701649427414
0.04847535118460655,4.142950057983398,0.1037016361951828
0.019071511924266815,4.12756872177124,0.10334260761737823
-0.009518968872725964,4.084647178649902,0.10225202888250351
-0.014133387245237827,1.5228954553604126,0.0381004624068737
-0.06603864580392838,4.06850528717041,0.10173224657773972
-0.09349803626537323,4.032814025878906,0.10078973323106766
-0.11450216174125671,3.7978713512420654,0.09487532824277878
-0.14323045313358307,3.847698926925659,0.09608098864555359
-0.1676933765411377,3.795898914337158,0.09469407051801682
-0.1856127828359604,3.6308517456054688,0.09048113226890564
-0.20558980107307434,3.5398147106170654,0.08812333643436432
-0.23014244437217712,3.538306474685669,0.0880008414387703
-0.2582254111766815,3.579439401626587,0.08894067257642746
-0.2824017405509949,3.569782257080078,0.0886094942688942
-0.30669888854026794,3.5638620853424072,0.08832301199436188
-0.32694944739341736,3.5150058269500732,0.08697858452796936
-0.3488713800907135,3.4893558025360107,0.08621516823768616
-0.3714778423309326,3.4673898220062256,0.08554534614086151
-0.39294546842575073,3.4414453506469727,0.08478517830371857
-0.41013213992118835,3.384380340576172,0.08322321623563766
-0.42996400594711304,3.3543667793273926,0.08230669796466827
-0.4540780782699585,3.3590750694274902,0.08224735409021378
-0.47665899991989136,3.348062753677368,0.08180270344018936
-0.49990805983543396,3.3446767330169678,0.08155141025781631
-0.5261704325675964,3.360416889190674,0.08176633715629578
-0.5491973757743835,3.3567378520965576,0.08145701885223389
-0.5709165334701538,3.3451969623565674,0.08096093684434891
-0.5938699245452881,3.3412058353424072,0.0806518942117691
-0.60538250207901,3.2716546058654785,0.07876230776309967
-0.6155467629432678,3.2021868228912354,0.07689052820205688
-0.627629280090332,3.1480979919433594,0.0753655731678009
-0.6491028666496277,3.1437489986419678,0.07501167804002762
-0.6917556524276733,3.238548517227173,0.07701922208070755
-0.6967867016792297,3.1535422801971436,0.07474561035633087
-0.7056722640991211,3.091517925262451,0.07303359359502792
-0.7217292785644531,3.0637497901916504,0.07213304191827774
-0.7269327044487,2.994253635406494,0.07021424174308777
-0.6999403834342957,2.7998130321502686,0.06539297848939896
-0.7087597250938416,2.753265619277954,0.06404408067464828
-0.7288623452186584,2.752061128616333,0.06375797837972641
-0.7469555139541626,2.7431671619415283,0.06329646706581116
-0.7656142115592957,2.738027572631836,0.06289009004831314
-0.7960332036018372,2.7740681171417236,0.06342031061649323
-0.9001055955886841,3.0569801330566406,0.06955663859844208
-0.9495560526847839,3.1441256999969482,0.07119830697774887
-0.9760322570800781,3.1523752212524414,0.07104463875293732
-1.049483060836792,3.3094441890716553,0.07419627904891968
-1.085092306137085,3.3431477546691895,0.07454179227352142
-1.1203845739364624,3.3726768493652344,0.07478068768978119
-1.1336880922317505,3.335259437561035,0.07353467494249344
-1.167104959487915,3.3568217754364014,0.07359156012535095
-1.2017923593521118,3.381899118423462,0.0736946389079094
-1.2125680446624756,3.340695858001709,0.07233709841966629
-1.2431734800338745,3.354443311691284,0.07217481732368469
-1.2668272256851196,3.3455965518951416,0.0715043842792511
-1.294305443763733,3.3476409912109375,0.07107556611299515
-1.3198953866958618,3.3460471630096436,0.07054214924573898
-1.3539843559265137,3.3661141395568848,0.0704483762383461
-2.2938880920410156,5.593681335449219,0.11620713770389557
-2.3454349040985107,5.606173515319824,0.11556129902601242
-2.3705828189849854,5.557416915893555,0.113673634827137
-1.59529709815979,3.6716136932373047,0.07447399199008942
-1.6102670431137085,3.639479875564575,0.0731964111328125
-1.6285388469696045,3.614229440689087,0.07205505669116974
-1.6475498676300049,3.588437557220459,0.07088526338338852
-1.6158663034439087,3.4567840099334717,0.0676506981253624
-1.6153247356414795,3.396604299545288,0.06582596153020859
-1.6361403465270996,3.3823046684265137,0.06490413099527359
-1.6526659727096558,3.3568735122680664,0.06374616920948029
-1.672864317893982,3.3381354808807373,0.06270971149206161
-1.7073179483413696,3.3513755798339844,0.062240950763225555
-1.75454843044281,3.3886053562164307,0.06220313534140587
-1.770416259765625,3.3627142906188965,0.06097543612122536
-2.4334394931793213,4.545179843902588,0.08138053864240646
-2.4393768310546875,4.484302997589111,0.07924047112464905
-1.1713579893112183,2.1194419860839844,0.03694186359643936
-1.1819143295288086,2.1046302318573,0.0361664704978466
-2.5342812538146973,4.440428733825684,0.07518772780895233
-2.195274591445923,3.7883505821228027,0.0631599873304367
-2.2119462490081787,3.7605464458465576,0.0617065466940403
-2.260160207748413,3.7819299697875977,0.06098435819149017
-1.2647205591201782,2.083458423614502,0.03300252929329872
-1.2659120559692383,2.055272102355957,0.031959693878889084
-1.2835187911987305,2.0535521507263184,0.031326089054346085
-2.6311070919036865,4.145247459411621,0.061929091811180115
-2.6420540809631348,4.1011810302734375,0.05993510037660599
-2.176954507827759,3.33207631111145,0.047615520656108856
-2.2084124088287354,3.3300940990448,0.04642488434910774
-2.7584388256073,4.099440097808838,0.05568220838904381
-2.753614664077759,4.036679267883301,0.05336003005504608
-2.776998996734619,4.011154651641846,0.05142219737172127
-2.7991604804992676,3.9862020015716553,0.04948905110359192
-2.5772643089294434,3.621687650680542,0.04348400607705116
-2.583878755569458,3.5785205364227295,0.04134640842676163
-2.6551706790924072,3.628127336502075,0.040249913930892944
-2.729736566543579,3.6799488067626953,0.0390411913394928
-2.4631664752960205,3.47286057472229,-0.03190869837999344
-2.7812209129333496,3.9845783710479736,-0.03837056830525398
-2.7761423587799072,4.040341854095459,-0.040592633187770844
-2.7795944213867188,4.108881950378418,-0.04291230067610741
-2.213681221008301,3.3267228603363037,-0.036011263728141785
-2.1814568042755127,3.329263210296631,-0.03720910847187042
-2.6443538665771484,4.099864959716797,-0.04720913618803024
-2.6384642124176025,4.159255027770996,-0.04926932603120804
-1.295022964477539,2.0740859508514404,-0.025214746594429016
-1.2556343078613281,2.043339490890503,-0.02545129880309105
-1.2363337278366089,2.0459437370300293,-0.026084115728735924
-2.008305549621582,3.3774571418762207,-0.04399971663951874
-2.4147098064422607,4.126319885253906,-0.054869990795850754
-2.373779058456421,4.127469062805176,-0.05598894879221916
-2.4455533027648926,4.324832439422607,-0.059776414185762405
-1.196290373802185,2.150392532348633,-0.03024725243449211
-2.2660117149353027,4.143085956573486,-0.059256747364997864
-2.2354447841644287,4.159640789031982,-0.06045380234718323
-2.205289125442505,4.175689220428467,-0.061630114912986755
-1.7405773401260376,3.352043390274048,-0.05019897222518921
-1.7161617279052734,3.364595651626587,-0.05108946934342384
-1.6879887580871582,3.370069742202759,-0.05186872184276581
-1.6590560674667358,3.3713388442993164,-0.05255559831857681
-1.6368215084075928,3.3865151405334473,-0.05346520617604256
-1.6189202070236206,3.4123969078063965,-0.05449829623103142
-1.6764593124389648,3.6011247634887695,-0.05816583335399628
-1.6413406133651733,3.5915026664733887,-0.05863901972770691
-1.6259162425994873,3.6241989135742188,-0.059798743575811386
-1.6092878580093384,3.6572179794311523,-0.060948628932237625
-1.5946608781814575,3.6976590156555176,-0.06223585456609726
-1.9289202690124512,4.561437129974365,-0.07750175893306732
-1.8867067098617554,4.5494585037231445,-0.07800847291946411
-1.5780030488967896,3.882432460784912,-0.06715482473373413
-1.549997091293335,3.8936851024627686,-0.06790707260370255
-1.5271785259246826,3.9194495677948,-0.068926140666008
-1.5123804807662964,3.962817907333374,-0.07023823261260986
-1.4902477264404297,3.987863540649414,-0.07123490422964096
-1.4642561674118042,4.0057854652404785,-0.07205422222614288
-1.438064694404602,4.0235466957092285,-0.07287491112947464
-1.4116934537887573,4.041137218475342,-0.07369812577962875
-1.3860442638397217,4.058249473571777,-0.07450249046087265
-1.359941840171814,4.075294494628906,-0.07529151439666748
-1.3331419229507446,4.092344760894775,-0.07604991644620895
-1.3049840927124023,4.105497360229492,-0.07674098759889603
-0.9704357981681824,3.1298203468322754,-0.05884251371026039
-0.9463986754417419,3.1290037631988525,-0.05916036292910576
-0.8205149173736572,2.7834432125091553,-0.052900128066539764
-0.7920794486999512,2.759168863296509,-0.05269328132271767
-0.7661092281341553,2.7421622276306152,-0.052623338997364044
-0.7439206838607788,2.7361178398132324,-0.052757661789655685
-0.7275101542472839,2.75264048576355,-0.05333412438631058
-0.7138764262199402,2.7804014682769775,-0.054101817309856415
-0.6903095841407776,2.770242691040039,-0.05412173271179199
-1.3466898202896118,5.572928428649902,-0.10931897163391113
-1.294551134109497,5.5251054763793945,-0.10881277918815613
-1.2519689798355103,5.5188798904418945,-0.10913322865962982
-1.3043838739395142,5.943341255187988,-0.11792901903390884
-1.2469218969345093,5.879817008972168,-0.1170361340045929
-0.6476564407348633,3.164249897003174,-0.06318414211273193
-0.6301703453063965,3.1916613578796387,-0.06393279880285263
-0.6133872270584106,3.2267324924468994,-0.06484515219926834
-0.5907455682754517,3.2309491634368896,-0.06510964781045914
-0.5713053345680237,3.2542660236358643,-0.06573991477489471
-0.5521834492683411,3.281324625015259,-0.06645137816667557
-0.5330397486686707,3.3082213401794434,-0.06716277450323105
-0.5197469592094421,3.37752103805542,-0.06874533742666245
-0.4961998760700226,3.3810558319091797,-0.06897411495447159
-0.47674065828323364,3.4153997898101807,-0.06980272382497787
-0.4537784457206726,3.4264018535614014,-0.07015901058912277
-0.4361225962638855,3.479863166809082,-0.07138989865779877
-0.41282597184181213,3.490565061569214,-0.07174857705831528
-0.3915491998195648,3.524449110031128,-0.07258538901805878
-0.367628812789917,3.534874677658081,-0.07288459688425064
-0.3461852967739105,3.5723514556884766,-0.07374631613492966
-0.3239847421646118,3.6058008670806885,-0.07452982664108276
-0.3014686107635498,3.639101505279541,-0.07531502097845078
-0.2738981544971466,3.6177783012390137,-0.07497546076774597
-0.24138200283050537,3.514403820037842,-0.07288247346878052
-0.21678385138511658,3.516005516052246,-0.07295431941747665
-0.1978936791419983,3.62272572517395,-0.07521218806505203
-0.18051651120185852,3.787853479385376,-0.078689344227314
-0.1553056240081787,3.8280558586120605,-0.0795787125825882
-0.12961742281913757,3.8563640117645264,-0.08019568026065826
-0.10336069017648697,3.8805975914001465,-0.08069319278001785
0.033804941922426224,1.52273428440094,-0.031612515449523926
0.3304075002670288,4.228403568267822,-0.08710918575525284
0.36027389764785767,4.23380708694458,-0.08706621825695038
0.47257310152053833,5.133467197418213,-0.10538504272699356
0.5046576261520386,5.095097541809082,-0.10442075878381729
0.47879183292388916,4.5088677406311035,-0.09225130081176758
0.519324541091919,4.5869317054748535,-0.09369777143001556
0.5565195083618164,4.629780292510986,-0.09435348212718964
0.5967293977737427,4.691710948944092,-0.09539158642292023
0.644138514995575,4.799741744995117,-0.09736249595880508
0.6998959183692932,4.949758529663086,-0.10017186403274536
0.7400286197662354,4.9834113121032715,-0.10062575340270996
0.7708162069320679,4.95503568649292,-0.09978245943784714
0.8035970330238342,4.941919803619385,-0.0992203801870346
0.8322693705558777,4.905492782592773,-0.09819764643907547
0.8662751317024231,4.8996100425720215,-0.09778977185487747
0.8967105746269226,4.870314598083496,-0.09691472351551056
0.925259530544281,4.837149143218994,-0.0959535762667656
0.9583913087844849,4.830702781677246,-0.09548498690128326
0.9899489283561707,4.816369533538818,-0.0948650985956192
1.0166945457458496,4.778865337371826,-0.09379376471042633
1.0470962524414062,4.75631046295166,-0.0930158942937851
1.0782866477966309,4.741335868835449,-0.09238813072443008
1.104404330253601,4.707254409790039,-0.09133049845695496
1.1346555948257446,4.692028045654297,-0.09064633399248123
1.1649986505508423,4.676548004150391,-0.08995973318815231
1.1960885524749756,4.66063928604126,-0.08925964683294296
1.224470615386963,4.637117862701416,-0.0884251594543457
1.251900553703308,4.613614082336426,-0.0875391736626625
1.2791069746017456,4.589940547943115,-0.08665632456541061
1.3072816133499146,4.569821357727051,-0.08584490418434143
1.3352035284042358,4.545473098754883,-0.08494603633880615
1.3622580766677856,4.5211358070373535,-0.08406243473291397
1.392897367477417,4.5118021965026855,-0.08340515941381454
