X,Y,Z
1.309338092803955,3.5515756607055664,-0.34333980083465576
1.6059194803237915,4.263532638549805,-0.40840089321136475
1.6447566747665405,4.27836275100708,-0.4059135317802429
1.6710481643676758,4.2602691650390625,-0.4003089964389801
1.7007590532302856,4.248966693878174,-0.3952743411064148
1.7259770631790161,4.22664213180542,-0.3892436921596527
1.7492276430130005,4.200697422027588,-0.3826312720775604
1.7686101198196411,4.167684078216553,-0.37549588084220886
1.797468662261963,4.155792236328125,-0.3702184557914734
1.8265165090560913,4.143580436706543,-0.36489054560661316
1.8516281843185425,4.124362468719482,-0.3588141202926636
1.876828908920288,4.10487699508667,-0.3526146411895752
1.901788592338562,4.085258960723877,-0.34644532203674316
1.9303028583526611,4.072339057922363,-0.3408040702342987
1.9512866735458374,4.0455098152160645,-0.33392059803009033
1.9785453081130981,4.032721042633057,-0.3281618356704712
2.003223419189453,4.012294292449951,-0.3216339647769928
2.0259439945220947,3.9882376194000244,-0.3148519992828369
2.0583980083465576,3.9852192401885986,-0.3096529245376587
2.0724730491638184,3.9475979804992676,-0.3017504811286926
2.103316068649292,3.940558433532715,-0.2960948944091797
2.1271309852600098,3.919354200363159,-0.28931134939193726
2.146423101425171,3.8914952278137207,-0.28187844157218933
2.128574848175049,3.7992751598358154,-0.270006000995636
2.1666042804718018,3.80511736869812,-0.2649692893028259
2.1772756576538086,3.7634732723236084,-0.2566134035587311
2.206205368041992,3.7560741901397705,-0.2505738139152527
2.244011640548706,3.761331558227539,-0.24515078961849213
2.2622201442718506,3.7326200008392334,-0.23741574585437775
2.2749338150024414,3.6978652477264404,-0.22931218147277832
2.3116936683654785,3.7030391693115234,-0.22367876768112183
2.320699691772461,3.6609315872192383,-0.2148882895708084
2.35434627532959,3.65838360786438,-0.20830175280570984
2.3739211559295654,3.6368017196655273,-0.20071828365325928
2.3902459144592285,3.607795476913452,-0.19243218004703522
2.4147603511810303,3.591836929321289,-0.18475303053855896
2.451157331466675,3.595863103866577,-0.17805559933185577
2.4584739208221436,3.553360939025879,-0.16852320730686188
2.486804246902466,3.54351806640625,-0.1605662852525711
2.518527030944824,3.5405876636505127,-0.1528884321451187
2.524956464767456,3.4979357719421387,-0.1428418755531311
2.556668996810913,3.4945476055145264,-0.13443687558174133
2.186640501022339,2.947885274887085,-0.10602815449237823
2.7861485481262207,3.9051663875579834,0.2684650123119354
2.75992751121521,3.932570219039917,0.27901244163513184
2.721867799758911,3.9393844604492188,0.287570595741272
2.6977970600128174,3.9646782875061035,0.2970501482486725
2.6711575984954834,3.99137806892395,0.3065512478351593
2.6291844844818115,3.9905221462249756,0.31343406438827515
2.604311227798462,4.01544189453125,0.3221777677536011
2.5859317779541016,4.054411888122559,0.3318319022655487
2.5518665313720703,4.066103935241699,0.33901721239089966
2.53140926361084,4.096582889556885,0.34751489758491516
2.4803292751312256,4.081570148468018,0.3519535958766937
2.464656352996826,4.1267523765563965,0.3616601526737213
2.45532488822937,4.1769585609436035,0.37137699127197266
2.4059388637542725,4.160068988800049,0.3750922977924347
2.3860554695129395,4.197803974151611,0.38353225588798523
2.3642609119415283,4.231832027435303,0.39163243770599365
2.2627880573272705,4.118339538574219,0.385768860578537
2.2296347618103027,4.126979351043701,0.3910455107688904
2.216989040374756,4.1773505210876465,0.4001331925392151
2.1895761489868164,4.20000696182251,0.40659552812576294
2.1654298305511475,4.225096702575684,0.4130973815917969
2.1263508796691895,4.2225799560546875,0.4169575572013855
2.1070570945739746,4.262120246887207,0.42466846108436584
2.075402021408081,4.277093887329102,0.4299766719341278
2.0483384132385254,4.298227787017822,0.43577057123184204
2.0181283950805664,4.311983585357666,0.44080236554145813
1.9868825674057007,4.325969696044922,0.4456837773323059
1.9703401327133179,4.3757100105285645,0.45423877239227295
1.9917247295379639,4.510433197021484,0.47167131304740906
1.9492844343185425,4.498795986175537,0.4737519919872284
1.9284335374832153,4.536865234375,0.48108625411987305
1.9327096939086914,4.640031337738037,0.49510958790779114
4.224849224090576,10.358587265014648,1.1122519969940186
1.8486489057540894,4.627183437347412,0.4998566210269928
1.8162461519241333,4.639534950256348,0.504131555557251
1.794891119003296,4.6806840896606445,0.5115787982940674
1.7649508714675903,4.7040696144104,0.5167862772941589
1.3433810472488403,3.6623566150665283,0.4044416844844818
1.3091051578521729,3.6496527194976807,0.4050820767879486
1.2810001373291016,3.6510496139526367,0.40723106265068054
1.6235265731811523,4.732469081878662,0.5304485559463501
1.6030741930007935,4.784118175506592,0.538576066493988
1.5750609636306763,4.817533016204834,0.5446641445159912
1.5578678846359253,4.8839006423950195,0.5545046925544739
1.5260220766067505,4.901687145233154,0.5588064789772034
1.4816843271255493,4.8783650398254395,0.5584306716918945
1.457115650177002,4.921838283538818,0.5655617713928223
1.432503342628479,4.969122886657715,0.5729398727416992
1.3814862966537476,4.926759243011475,0.5700400471687317
1.3393771648406982,4.9098615646362305,0.5700255036354065
1.2891488075256348,4.858715057373047,0.5659990310668945
1.2591336965560913,4.8822736740112305,0.5706824064254761
1.2299283742904663,4.913418292999268,0.5759340524673462
1.197777509689331,4.93702507019043,0.5803075432777405
1.1668384075164795,4.964062213897705,0.5850984454154968
1.1337970495224,4.979375839233398,0.5885087251663208
1.1057608127593994,5.017172813415527,0.5946101546287537
1.0739147663116455,5.039662837982178,0.5988821387290955
1.0374099016189575,5.047046661376953,0.6010468602180481
1.006006121635437,5.076879501342773,0.605899453163147
0.9735031127929688,5.102706432342529,0.6103154420852661
2.108400583267212,11.485014915466309,1.3766796588897705
1.9986740350723267,11.330770492553711,1.3612096309661865
1.9029897451400757,11.2562255859375,1.3550621271133423
1.7934468984603882,11.085190773010254,1.3365594148635864
1.687609314918518,10.920857429504395,1.3188631534576416
1.591766119003296,10.80545425415039,1.3070759773254395
1.496069312095642,10.669901847839355,1.292828917503357
1.4035645723342896,10.552947998046875,1.280882477760315
1.3124642372131348,10.423595428466797,1.2670769691467285
1.220710039138794,10.278252601623535,1.2507189512252808
1.1396740674972534,10.209230422973633,1.2436802387237549
1.062601089477539,10.166571617126465,1.239895224571228
0.9895725846290588,10.150283813476562,1.2393616437911987
0.3918209969997406,4.3368964195251465,0.5301978588104248
0.3583451509475708,4.300775527954102,0.526339590549469
0.3275721073150635,4.295379161834717,0.5259802341461182
0.29635700583457947,4.282027721405029,0.5246708393096924
0.26775115728378296,4.3071489334106445,0.5281020998954773
0.3080793619155884,5.5941643714904785,0.6863996982574463
0.2712347209453583,5.638678073883057,0.6923863291740417
0.23423951864242554,5.694578170776367,0.6997365951538086
0.19454893469810486,5.696039199829102,0.700002133846283
0.1552092283964157,5.712728500366211,0.70217365026474
0.11566726118326187,5.764044761657715,0.7086400985717773
0.07565988600254059,5.772430419921875,0.7098618149757385
0.03580361232161522,5.823184490203857,0.716330349445343
-0.004648667294532061,5.819382190704346,0.7161237001419067
-0.016567759215831757,2.136176347732544,0.2627911865711212
-0.031566403806209564,2.1282641887664795,0.2617431581020355
-0.1883498728275299,8.647685050964355,1.0632835626602173
-0.24616725742816925,8.564826965332031,1.052902340888977
-0.2183835804462433,6.1180572509765625,0.7520112991333008
-0.2568100392818451,6.019582748413086,0.7398427128791809
-0.17597495019435883,3.54713773727417,0.4356912672519684
-0.20333965122699738,3.588451385498047,0.440442830324173
-0.22721251845359802,3.5715365409851074,0.4380711615085602
-0.2678256928920746,3.7942612171173096,0.4650973677635193
-0.2974885404109955,3.8348934650421143,0.4698045551776886
-0.3228277862071991,3.817340850830078,0.46740421652793884
-0.3471817076206207,3.788036823272705,0.4633634686470032
-0.36871930956840515,3.7393481731414795,0.45686960220336914
-0.39285925030708313,3.721392869949341,0.45416128635406494
-0.41120895743370056,3.653177261352539,0.4453500211238861
-0.43477436900138855,3.634925365447998,0.442658931016922
-0.45413875579833984,3.581843614578247,0.4357486665248871
-0.4788829982280731,3.5787365436553955,0.43478646874427795
-0.5023728609085083,3.5678162574768066,0.43274635076522827
-0.5223324298858643,3.5337207317352295,0.4279231131076813
-0.5478938221931458,3.5378310680389404,0.42774826288223267
-0.5692033171653748,3.5110273361206055,0.42384234070777893
-0.593605637550354,3.507117509841919,0.4227370023727417
-1.1231417655944824,6.368197441101074,0.76622074842453
-1.1722629070281982,6.391200542449951,0.7673290371894836
-1.2261728048324585,6.436683177947998,0.771148145198822
-1.2786376476287842,6.4702863693237305,0.7735512256622314
-1.332119107246399,6.499419212341309,0.7753913998603821
-1.3909716606140137,6.554841041564941,0.7804069519042969
-1.439380168914795,6.560623645782471,0.7792567014694214
-1.4753735065460205,6.513224124908447,0.7715470790863037
-1.509971261024475,6.461841583251953,0.7634234428405762
-0.6720333695411682,2.7881171703338623,0.32850944995880127
-0.6970388293266296,2.8061375617980957,0.3297547399997711
-0.7088618278503418,2.7713022232055664,0.32480698823928833
-0.7219340801239014,2.7440316677093506,0.320630818605423
-0.740532636642456,2.7392590045928955,0.319018691778183
-0.7781506776809692,2.801593780517578,0.32519102096557617
-1.7470767498016357,6.126616954803467,0.7087957262992859
-1.7766038179397583,6.070019245147705,0.6999253034591675
-1.8099533319473267,6.028158664703369,0.6928133368492126
-1.8474018573760986,6.005068302154541,0.6874671578407288
-1.8723386526107788,5.9408392906188965,0.6773751378059387
-1.9029009342193604,5.898946285247803,0.6699481010437012
-1.9328858852386475,5.852861404418945,0.6620301008224487
-1.9686506986618042,5.824999809265137,0.656220018863678
-1.9947792291641235,5.771393775939941,0.6474126577377319
-2.023176670074463,5.729057312011719,0.6396273374557495
-2.054466962814331,5.693645477294922,0.6326136589050293
-2.0853145122528076,5.658086776733398,0.625640869140625
-1.5210137367248535,4.040189743041992,0.4445517659187317
-1.549221396446228,4.02982234954834,0.4412335455417633
-1.5734355449676514,4.012471675872803,0.436881422996521
-1.597923994064331,3.994807243347168,0.43246179819107056
-1.6175222396850586,3.9663186073303223,0.4269351363182068
-1.5810205936431885,3.8009731769561768,0.4067199230194092
-1.590896725654602,3.7508208751678467,0.39897122979164124
-1.6007682085037231,3.7046937942504883,0.39150431752204895
-1.619659423828125,3.6798853874206543,0.38623204827308655
-1.6395349502563477,3.6586813926696777,0.3814099431037903
-1.665061593055725,3.647536516189575,0.3775535225868225
-1.6872315406799316,3.6291558742523193,0.3729718029499054
-1.704879641532898,3.604104518890381,0.3675331175327301
-1.7393317222595215,3.613943576812744,0.3655616343021393
-1.7601908445358276,3.5955827236175537,0.3607568144798279
-1.7887431383132935,3.590585708618164,0.35719650983810425
-1.7785218954086304,3.5090489387512207,0.3460696041584015
-1.792725920677185,3.4803669452667236,0.340032160282135
-1.82289719581604,3.48266339302063,0.3370356559753418
-1.847159504890442,3.470299243927002,0.33244088292121887
-1.1487891674041748,2.122560501098633,0.2012425661087036
-1.1818273067474365,2.149155855178833,0.20156186819076538
-2.498145580291748,4.4736104011535645,0.41485822200775146
-2.5434226989746094,4.484455108642578,0.41103801131248474
-2.5714609622955322,4.46006441116333,0.40367162227630615
-2.6096560955047607,4.4564900398254395,0.39818817377090454
-1.2457044124603271,2.0960991382598877,0.1847749799489975
-1.263608455657959,2.094745635986328,0.1820906102657318
-2.6604056358337402,4.341642379760742,0.3717494606971741
-2.7334811687469482,4.393311023712158,0.3702075183391571
-2.9761202335357666,4.715534687042236,0.39089229702949524
-2.976224184036255,4.646882057189941,0.3785562217235565
-3.0385310649871826,4.672306060791016,0.3736056685447693
-3.0345988273620605,4.6010236740112305,0.36076781153678894
-3.055908679962158,4.568835735321045,0.35093939304351807
-3.081195831298828,4.538407325744629,0.34078341722488403
-3.0893402099609375,4.486306190490723,0.3289719820022583
-3.1355416774749756,4.492919445037842,0.32137829065322876
-2.8327717781066895,4.000946044921875,0.2783324420452118
-2.859955310821533,3.98221755027771,0.2687622010707855
-2.907792091369629,3.996394395828247,0.2614211440086365
-2.9030704498291016,3.932817220687866,0.24812284111976624
-2.9915335178375244,4.185806751251221,-0.19015395641326904
-2.4430341720581055,3.473644495010376,-0.16696704924106598
-2.7520415782928467,3.9714457988739014,-0.20043599605560303
-2.7458181381225586,4.027270793914795,-0.21283596754074097
-2.746953010559082,4.091917037963867,-0.22541040182113647
-2.179548501968384,3.2972793579101562,-0.1887158304452896
-2.1668593883514404,3.333115339279175,-0.19797548651695251
-1.3207900524139404,2.063322067260742,-0.12663884460926056
-2.135521650314331,3.3893046379089355,-0.2145899534225464
-1.261527180671692,2.0355396270751953,-0.13277912139892578
-1.259238362312317,2.0641345977783203,-0.13836614787578583
-2.028820514678955,3.380249261856079,-0.23266200721263885
-1.9977079629898071,3.3846726417541504,-0.23886984586715698
-1.9772952795028687,3.4051830768585205,-0.24601590633392334
-1.206795334815979,2.1120386123657227,-0.1560259908437729
-1.1911697387695312,2.120590925216675,-0.16004563868045807
-2.0418577194213867,3.698580265045166,-0.28505170345306396
-1.8633352518081665,3.4314963817596436,-0.269628643989563
-1.8165477514266968,3.403097629547119,-0.27243146300315857
-1.782464861869812,3.398607015609741,-0.2770303785800934
-1.7510631084442139,3.396895408630371,-0.28167951107025146
-1.7426105737686157,3.4400999546051025,-0.29010093212127686
-1.757449746131897,3.5324039459228516,-0.3026368319988251
-1.7846038341522217,3.6531152725219727,-0.31787049770355225
-1.7589372396469116,3.6650404930114746,-0.3236072361469269
-1.7397881746292114,3.6908862590789795,-0.3305826485157013
-1.7130229473114014,3.702877998352051,-0.33620914816856384
-2.2904913425445557,5.047691822052002,-0.46461254358291626
-2.2645747661590576,5.084262371063232,-0.47399815917015076
-2.2255876064300537,5.0922627449035645,-0.4807272255420685
-2.153486728668213,5.025261402130127,-0.4800744354724884
-2.218123197555542,5.280333995819092,-0.5103875398635864
-2.193713903427124,5.327694416046143,-0.5208895206451416
-1.872322916984558,4.638860702514648,-0.45858535170555115
-1.8274530172348022,4.622676372528076,-0.46175113320350647
-1.354731559753418,3.4999020099639893,-0.3532058298587799
-1.3273601531982422,3.5016090869903564,-0.3568994998931885
-1.7568473815917969,4.7353515625,-0.4874706268310547
-2.022794485092163,5.573087692260742,-0.5789771676063538
-1.921765685081482,5.4145402908325195,-0.5675837397575378
-1.606987714767456,4.630456924438477,-0.4896773397922516
-1.577070951461792,4.648369312286377,-0.4958411157131195
-1.8711869716644287,5.647623062133789,-0.6074714064598083
-1.8679548501968384,5.774763107299805,-0.626035749912262
-0.9696052074432373,3.0714375972747803,-0.3355655074119568
-0.9526728391647339,3.092637300491333,-0.34046241641044617
-0.8091670274734497,2.6933813095092773,-0.29872584342956543
-0.7692626118659973,2.6279497146606445,-0.29345494508743286
-0.7534163594245911,2.644360303878784,-0.29732897877693176
-0.7452278733253479,2.6867127418518066,-0.30410900712013245
-0.7325206398963928,2.7140514850616455,-0.30924031138420105
-0.7173148989677429,2.7338898181915283,-0.3133997917175293
-0.7007953524589539,2.74991774559021,-0.3170798122882843
-0.6707960963249207,2.7131454944610596,-0.31469014286994934
-0.6617940664291382,2.7590112686157227,-0.32185080647468567
-1.4633947610855103,6.293972015380859,-0.7383685111999512
-1.395039677619934,6.197584629058838,-0.7306473255157471
-1.3446784019470215,6.176385879516602,-0.7317438125610352
-1.2790650129318237,6.082735538482666,-0.7242523431777954
-1.2072404623031616,5.946494102478027,-0.7115065455436707
-1.1625769138336182,5.939082145690918,-0.7137964963912964
-1.095569372177124,5.81324577331543,-0.7015128135681152
-1.053952932357788,5.816542625427246,-0.7047767043113708
-0.9794502854347229,5.632359027862549,-0.6852850317955017
-0.9433653354644775,5.657739639282227,-0.6911892890930176
-0.9592632055282593,6.012325763702393,-0.7369809150695801
-0.9135212898254395,5.995523452758789,-0.7373178005218506
-0.8787986636161804,6.051264762878418,-0.7466145157814026
-0.8370550274848938,6.06461238861084,-0.7507669925689697
-0.6367688775062561,4.862848281860352,-0.6039243340492249
-0.7371039986610413,5.951896667480469,-0.7409958243370056
-0.6954555511474609,5.956602573394775,-0.7434373497962952
-0.6488532423973083,5.914762020111084,-0.7400844097137451
-0.6052921414375305,5.895697593688965,-0.739592969417572
-0.5579095482826233,5.84169340133667,-0.7345033288002014
-0.517060399055481,5.845232963562012,-0.7362291812896729
-0.4702131748199463,5.775091171264648,-0.7286940813064575
-0.256261944770813,3.443617820739746,-0.43530386686325073
-0.23360475897789001,3.464522361755371,-0.4387631118297577
-0.2050645798444748,3.4002327919006348,-0.4311996102333069
-0.18214866518974304,3.416984796524048,-0.4337560832500458
-0.261775404214859,5.651666164398193,-0.718177080154419
-0.14033257961273193,3.566178560256958,-0.45365941524505615
-0.18170863389968872,5.611910343170166,-0.714710533618927
-0.09099313616752625,3.598674774169922,-0.4584970474243164
-0.06713550537824631,3.6650590896606445,-0.4670861065387726
-0.04164056479930878,3.665411949157715,-0.46728476881980896
-0.01641399785876274,3.7198352813720703,-0.474401593208313
0.009486229158937931,3.754708766937256,-0.47903940081596375
0.036234933882951736,3.777827024459839,-0.4817643463611603
0.0628335177898407,3.8007609844207764,-0.48449069261550903
0.09027113020420074,3.8428750038146973,-0.4896816611289978
0.11861885339021683,3.8964102268218994,-0.49634772539138794
0.14730171859264374,3.938131093978882,-0.5014201998710632
0.17738983035087585,3.9990458488464355,-0.5085791349411011
0.20704789459705353,4.024876594543457,-0.5112774968147278
0.23683208227157593,4.054382801055908,-0.5144692063331604
0.2665647864341736,4.07593297958374,-0.5166682600975037
0.29965177178382874,4.139813423156738,-0.5240309834480286
0.32466816902160645,4.091432094573975,-0.516930878162384
0.3542414605617523,4.096916198730469,-0.5166524052619934
0.3808709681034088,4.075218200683594,-0.5129909515380859
0.4095750153064728,4.076483726501465,-0.5122473239898682
0.435709685087204,4.05447244644165,-0.5083012580871582
0.46463334560394287,4.059275150299072,-0.5075795650482178
0.489470511674881,4.02532958984375,-0.5020215511322021
0.5184686779975891,4.029725551605225,-0.5012928247451782
0.5496375560760498,4.049278736114502,-0.5024644136428833
0.6933490037918091,4.855525016784668,-0.6005339026451111
0.7165930867195129,4.781903266906738,-0.5894486308097839
0.744888186454773,4.7425713539123535,-0.5826243758201599
0.7804058194160461,4.752888202667236,-0.5819615125656128
0.8166799545288086,4.76678466796875,-0.581679105758667
0.8590956330299377,4.814861297607422,-0.585137128829956
0.8923064470291138,4.809190273284912,-0.5820643901824951
0.9227789640426636,4.788009166717529,-0.577133059501648
0.9536634683609009,4.766507625579834,-0.572159469127655
0.9835633635520935,4.744974613189697,-0.5670489072799683
1.0106295347213745,4.711932182312012,-0.5603383183479309
1.0431267023086548,4.705263614654541,-0.5568094849586487
1.0689924955368042,4.668031692504883,-0.5496795773506165
1.0984870195388794,4.645651817321777,-0.5443080067634583
1.1268953084945679,4.623315811157227,-0.5386772751808167
1.160636305809021,4.6234259605407715,-0.5355954766273499
1.1867363452911377,4.59320068359375,-0.5290278792381287
1.2187503576278687,4.585268497467041,-0.5250400304794312
1.2491703033447266,4.569496154785156,-0.5200594663619995
1.2732234001159668,4.535120010375977,-0.5127407908439636
1.3022383451461792,4.519279479980469,-0.507567286491394
1.327010154724121,4.488260746002197,-0.5007008910179138
1.3515537977218628,4.45706844329834,-0.493857741355896
1.3851932287216187,4.455379009246826,-0.49002906680107117
1.4110472202301025,4.431466579437256,-0.4837106466293335
1.4403525590896606,4.418453693389893,-0.4786076843738556
1.468725323677063,4.401425361633301,-0.4730522930622101
1.4943381547927856,4.376885414123535,-0.46668899059295654
1.5140407085418701,4.337722301483154,-0.4585513174533844
1.2685856819152832,3.5550718307495117,-0.3725135624408722
1.2986475229263306,3.561195135116577,-0.3698537349700928
1.584167242050171,4.252018451690674,-0.4376435875892639
1.6258214712142944,4.27426815032959,-0.4357469379901886
1.6521940231323242,4.256342887878418,-0.429675817489624
1.6820510625839233,4.24518346786499,-0.4241998791694641
1.7044137716293335,4.215825080871582,-0.416963130235672
1.736496090888977,4.211674213409424,-0.4121410846710205
1.7651324272155762,4.200303554534912,-0.4064897894859314
1.7907800674438477,4.181516170501709,-0.40012305974960327
1.814254879951477,4.154964923858643,-0.3928782641887665
1.8367210626602173,4.128596305847168,-0.38573363423347473
1.867864727973938,4.123699188232422,-0.38046884536743164
1.8860399723052979,4.0902557373046875,-0.37259435653686523
1.9179984331130981,4.084525108337402,-0.36711910367012024
1.9435744285583496,4.064345359802246,-0.3602501451969147
1.9591480493545532,4.027117729187012,-0.3518666625022888
1.9881484508514404,4.017765522003174,-0.345956414937973
2.0144782066345215,4.000817775726318,-0.3392447531223297
2.0386672019958496,3.9803361892700195,-0.3322339653968811
2.061814546585083,3.960151433944702,-0.3251667320728302
2.085423231124878,3.9394969940185547,-0.31796395778656006
2.1055567264556885,3.9116194248199463,-0.3101389408111572
2.1286847591400146,3.890730142593384,-0.30286097526550293
2.150911331176758,3.870093822479248,-0.29556846618652344
2.1485178470611572,3.804936408996582,-0.2848692834377289
2.171708106994629,3.783287525177002,-0.277271032333374
2.212883949279785,3.7960078716278076,-0.2722124755382538
2.214285373687744,3.741420269012451,-0.26234158873558044
2.2402586936950684,3.7264318466186523,-0.2550571858882904
2.2781007289886475,3.73136043548584,-0.24905554950237274
2.282604694366455,3.683293342590332,-0.23939526081085205
2.303440570831299,3.6615684032440186,-0.2314578890800476
2.3499953746795654,3.678725481033325,-0.22575141489505768
2.352862596511841,3.6309597492218018,-0.21601980924606323
2.3856072425842285,3.6286840438842773,-0.2089139074087143
2.4157583713531494,3.618546724319458,-0.20084241032600403
2.4219071865081787,3.5772438049316406,-0.19120225310325623
2.450059652328491,3.5679354667663574,-0.18314023315906525
2.483877420425415,3.5639681816101074,-0.17492370307445526
2.497713327407837,3.535609483718872,-0.16549262404441833
2.5264265537261963,3.525189161300659,-0.15637755393981934
2.5503182411193848,3.508359432220459,-0.14675192534923553
2.581794500350952,3.505066394805908,-0.13767920434474945
2.7696564197540283,3.914816379547119,0.29704663157463074
2.7435927391052246,3.941812515258789,0.3081692159175873
2.711358070373535,3.9538445472717285,0.3172873258590698
2.68485164642334,3.980506658554077,0.32755792140960693
2.637361526489258,3.9739978313446045,0.3346874713897705
2.647751569747925,4.050401210784912,0.3483113944530487
2.579237222671509,4.01050329208374,0.35178259015083313
2.5650837421417236,4.05573844909668,0.36261069774627686
2.5400938987731934,4.079897403717041,0.3711799085140228
2.5184812545776367,4.110837459564209,0.3802110254764557
2.505166530609131,4.159203052520752,0.3908033072948456
2.4568071365356445,4.146566390991211,0.3954445421695709
2.4392874240875244,4.183265686035156,0.4045821726322174
2.4095051288604736,4.204276084899902,0.41212859749794006
2.377610445022583,4.221701145172119,0.41918379068374634
2.3077077865600586,4.166478633880615,0.4186776280403137
2.25050950050354,4.1306633949279785,0.4198925197124481
2.2309725284576416,4.167109966278076,0.4282064735889435
2.208259344100952,4.200525760650635,0.4362950623035431
2.176213026046753,4.212217330932617,0.44191214442253113
2.1465861797332764,4.226778507232666,0.44774532318115234
2.117605686187744,4.245111465454102,0.45382440090179443
2.0962882041931152,4.281067371368408,0.46169230341911316
2.0643064975738525,4.295968055725098,0.46735239028930664
2.037468910217285,4.316779136657715,0.4734424352645874
1.9972565174102783,4.309257507324219,0.4764133393764496
1.9718539714813232,4.33746337890625,0.483036071062088
2.001518964767456,4.489741802215576,0.5036256313323975
4.486629486083984,10.25989055633545,1.1589442491531372
1.9448812007904053,4.534569263458252,0.5157677531242371
1.9337377548217773,4.597832679748535,0.5263891220092773
1.8941147327423096,4.596955299377441,0.5294626355171204
1.86042058467865,4.6101508140563965,0.5341755151748657
1.8576558828353882,4.698543071746826,0.5475821495056152
1.7947100400924683,4.635063171386719,0.5433281064033508
1.7672895193099976,4.661683559417725,0.5494424104690552
1.3580197095870972,3.661977767944336,0.43375617265701294
1.3154395818710327,3.627586841583252,0.43181678652763367
1.2999842166900635,3.6657421588897705,0.4384772479534149
1.276457667350769,3.6818361282348633,0.44253939390182495
1.62807035446167,4.804023265838623,0.580137312412262
1.5908230543136597,4.807861328125,0.5829657316207886
1.5608055591583252,4.833552360534668,0.5884749293327332
1.5214537382125854,4.829363822937012,0.5903574824333191
1.4938700199127197,4.861876964569092,0.5967442393302917
1.4654484987258911,4.890328407287598,0.6026361584663391
1.432675838470459,4.9076995849609375,0.6069059371948242
1.4142274856567383,4.977195739746094,0.6175359487533569
1.361836314201355,4.927029132843018,0.6133478879928589
1.3079978227615356,4.864940643310547,0.6076077222824097
1.2734885215759277,4.873697757720947,0.6107311844825745
1.2432081699371338,4.89713191986084,0.6156659722328186
1.217458724975586,4.943202018737793,0.6230773329734802
1.1848114728927612,4.962749004364014,0.6271933913230896
1.1493264436721802,4.9707465171813965,0.6298855543136597
1.1225072145462036,5.016263961791992,0.6373649835586548
1.0907474756240845,5.03879451751709,0.6419458985328674
1.056964635848999,5.053587913513184,0.6454339623451233
1.0117205381393433,5.015117645263672,0.6418142914772034
0.9774821996688843,5.029519557952881,0.6449819207191467
0.9810613393783569,5.249483108520508,0.6746214628219604
1.9726279973983765,10.977119445800781,1.4136430025100708
0.9052684903144836,5.246778964996338,0.677125096321106
1.815361499786377,10.979503631591797,1.4196239709854126
1.7315762042999268,10.953328132629395,1.418325662612915
1.6439746618270874,10.907567977905273,1.4145828485488892
1.5461899042129517,10.772676467895508,1.3992626667022705
1.450654149055481,10.633025169372559,1.3833094835281372
1.3557608127593994,10.481043815612793,1.3657513856887817
1.2785999774932861,10.459115982055664,1.3648052215576172
1.1854183673858643,10.298213005065918,1.3451471328735352
1.0982460975646973,10.182884216308594,1.3314961194992065
1.0169122219085693,10.0936918258667,1.3212705850601196
0.4076853096485138,4.350154399871826,0.5700784921646118
0.37373605370521545,4.310305595397949,0.5655167698860168
0.34056156873703003,4.274083137512207,0.5613362789154053
0.31283530592918396,4.3149590492248535,0.566998302936554
0.285866916179657,4.367211818695068,0.5741845369338989
0.32723984122276306,5.602416038513184,0.7370316386222839
0.29051077365875244,5.64700174331665,0.7433785200119019
0.25053539872169495,5.633309841156006,0.7420927286148071
0.2118789702653885,5.665807723999023,0.7468836903572083
0.17349448800086975,5.70582914352417,0.7522085905075073
0.13407953083515167,5.722357273101807,0.7544733881950378
0.09508078545331955,5.78120756149292,0.7623564600944519
0.05523637309670448,5.81655216217041,0.767178475856781
0.01409610453993082,5.832257270812988,0.7694527506828308
-0.04942333325743675,10.905333518981934,1.4391885995864868
-0.02382824756205082,2.0756280422210693,0.27384382486343384
-0.15991328656673431,8.677300453186035,1.1444478034973145
-0.21793463826179504,8.58699893951416,1.1322218179702759
-0.1988668590784073,6.150634288787842,0.8107925057411194
-0.23919148743152618,6.067852973937988,0.7997313737869263
-0.37428638339042664,8.07006549835205,1.063476800918579
-0.18913592398166656,3.54640793800354,0.4670826196670532
-0.21508289873600006,3.568279981613159,0.46959808468818665
-0.23818601667881012,3.543592691421509,0.46600911021232605
-0.5777204632759094,7.775177955627441,1.021782636642456
-0.30950337648391724,3.8064205646514893,0.49990448355674744
-0.33597487211227417,3.8042516708374023,0.49932414293289185
-0.35832613706588745,3.759509563446045,0.4930269718170166
-0.3802995979785919,3.7185356616973877,0.4870626926422119
-0.40346118807792664,3.688939332962036,0.482611745595932
-0.4280335009098053,3.6784870624542236,0.48070356249809265
-0.44975197315216064,3.644788980484009,0.47578367590904236
-0.47106221318244934,3.6109611988067627,0.4708775579929352
-0.4902137815952301,3.5655272006988525,0.46439820528030396
-0.5117413997650146,3.5391759872436523,0.46017247438430786
-0.532480001449585,3.512761354446411,0.45598483085632324
-0.5626286864280701,3.547450065612793,0.4597460627555847
-0.5777803659439087,3.4862711429595947,0.45109865069389343
-1.0971513986587524,6.346068382263184,0.8198626041412354
-1.1473788022994995,6.3729166984558105,0.8219928741455078
-1.2031079530715942,6.426089763641357,0.8270103931427002
-1.256606936454773,6.467535495758057,0.8305595517158508
-1.3100301027297974,6.504739284515381,0.8335742354393005
-1.3654919862747192,6.545175075531006,0.8369904160499573
-1.4200109243392944,6.577563285827637,0.8393911123275757
-1.4621144533157349,6.548867702484131,0.8338990211486816
-1.4979664087295532,6.501429557800293,0.8256017565727234
-1.5305519104003906,6.442485332489014,0.8159116506576538
-0.6867203712463379,2.8056797981262207,0.35437995195388794
-0.6948624849319458,2.7559080123901367,0.34715622663497925
-0.720245897769928,2.7736222743988037,0.3484407961368561
-0.7434006929397583,2.783764600753784,0.3487255871295929
-0.747921347618103,2.726513385772705,0.3404190242290497
-0.7727255821228027,2.743988275527954,0.34147074818611145
-1.7626045942306519,6.100063800811768,0.7566178441047668
-1.7992395162582397,6.065591335296631,0.7497850060462952
-1.8301807641983032,6.016281604766846,0.7412260174751282
-1.8609974384307861,5.970775127410889,0.732917308807373
-1.8895149230957031,5.921638011932373,0.723986029624939
-1.9222702980041504,5.887134552001953,0.7169058322906494
-1.954763650894165,5.848339557647705,0.7092635631561279
-1.98292875289917,5.798392295837402,0.7003421187400818
-2.011828660964966,5.751972675323486,0.6919113993644714
-2.0426721572875977,5.71694803237915,0.6844391822814941
-2.0730693340301514,5.681787490844727,0.6769841313362122
-2.1004271507263184,5.639174938201904,0.6686963438987732
-1.5397995710372925,4.046139240264893,0.47736841440200806
-1.55964994430542,4.013968467712402,0.4712189733982086
-1.5842199325561523,3.9964184761047363,0.46664348244667053
-1.6037365198135376,3.9681363105773926,0.4607156217098236
-1.5845123529434204,3.8463759422302246,0.44403740763664246
-1.593472957611084,3.7926080226898193,0.4352152943611145
-1.6092034578323364,3.7568306922912598,0.42854565382003784
-1.6224714517593384,3.7176716327667236,0.4214359223842621
-1.631422758102417,3.671724319458008,0.41343244910240173
-1.6558469533920288,3.6612203121185303,0.40946534276008606
-1.6766245365142822,3.6393849849700928,0.4041096270084381
-1.705430030822754,3.635026693344116,0.4007173478603363
-1.7270004749298096,3.6166837215423584,0.3956829309463501
-1.7510707378387451,3.6055703163146973,0.39129534363746643
-1.7750385999679565,3.594305992126465,0.38691261410713196
-1.7829115390777588,3.5474369525909424,0.37855666875839233
-1.7846722602844238,3.4903461933135986,0.369233101606369
-1.804469347000122,3.4718759059906006,0.36388325691223145
-1.830962896347046,3.4672656059265137,0.3599303364753723
-1.8394451141357422,3.4279839992523193,0.3523592948913574
-1.1627558469772339,2.131291389465332,0.21680009365081787
-1.1550328731536865,2.0825657844543457,0.2095402032136917
-2.5072717666625977,4.452314376831055,0.4429018795490265
-2.5325405597686768,4.429684638977051,0.43558573722839355
-2.5517051219940186,4.3923749923706055,0.42654290795326233
-2.5863211154937744,4.381811141967773,0.42009973526000977
-1.2446264028549194,2.077427864074707,0.19641779363155365
-2.6477577686309814,4.355468273162842,0.4061046838760376
-2.661782741546631,4.311059474945068,0.3958832025527954
-2.9689364433288574,4.735342979431152,0.4280458986759186
-2.9995620250701904,4.716785907745361,0.41933107376098633
-3.022615432739258,4.684305667877197,0.4091852307319641
-3.0447511672973633,4.647490978240967,0.3983701169490814
-3.054147958755493,4.595404624938965,0.386216402053833
-3.0748114585876465,4.563602447509766,0.37575089931488037
-3.081794500350952,4.5078630447387695,0.3628772497177124
-3.108715057373047,4.480682849884033,0.35197052359580994
-2.912783622741699,4.1427903175354,0.3172925114631653
-2.8637027740478516,4.015873432159424,0.2991027534008026
-2.88655424118042,3.9906165599823,0.2883201837539673
-2.9206860065460205,3.9857981204986572,0.27887827157974243
-2.9059929847717285,3.910161256790161,0.26375406980514526
-2.4611263275146484,3.4702699184417725,-0.1704428791999817
-2.434560537338257,3.488430976867676,-0.18091554939746857
-2.7615225315093994,4.0162224769592285,-0.21835100650787354
-2.7566940784454346,4.075560569763184,-0.23187285661697388
-1.3320643901824951,2.000398874282837,-0.11852337419986725
-2.1670174598693848,3.3046679496765137,-0.20322825014591217
-2.1546828746795654,3.34008526802063,-0.21284447610378265
-2.1598687171936035,3.4010770320892334,-0.2238895297050476
-2.126760959625244,3.4029581546783447,-0.23107542097568512
-1.2742034196853638,2.072873592376709,-0.14493617415428162
-2.048311233520508,3.3860347270965576,-0.24326401948928833
-2.0143086910247803,3.383174180984497,-0.24936552345752716
-1.9851813316345215,3.390773296356201,-0.25616011023521423
-1.9775580167770386,3.4352047443389893,-0.26576393842697144
-1.1985313892364502,2.115875720977783,-0.16732946038246155
-1.1906235218048096,2.1378538608551025,-0.1726803481578827
-2.0615618228912354,3.7661490440368652,-0.3105165362358093
-1.8282684087753296,3.3957531452178955,-0.2853649854660034
-1.7964457273483276,3.394528388977051,-0.29067495465278625
-1.7697820663452148,3.4035720825195312,-0.2966948449611664
-1.7470053434371948,3.419146776199341,-0.3032189905643463
-1.7439273595809937,3.4725396633148193,-0.3130507469177246
-1.7981998920440674,3.645014762878418,-0.3338375985622406
-1.771139144897461,3.6576478481292725,-0.34026822447776794
-1.7450199127197266,3.669602155685425,-0.34645354747772217
-1.7225146293640137,3.6882333755493164,-0.3532179892063141
-2.3055055141448975,5.029982089996338,-0.48834094405174255
-2.272134304046631,5.052886009216309,-0.4971502125263214
-2.247263193130493,5.092988967895508,-0.5075637102127075
-2.110405206680298,4.876082897186279,-0.4921763241291046
-2.037393569946289,4.800848007202148,-0.49038445949554443
-1.9459478855133057,4.678253173828125,-0.48347008228302
-1.879028558731079,4.608389854431152,-0.48166173696517944
-1.8495596647262573,4.627970218658447,-0.4890870451927185
-1.8074381351470947,4.618847370147705,-0.49336299300193787
-1.329266905784607,3.469642162322998,-0.37441956996917725
-1.310105562210083,3.4930174350738525,-0.3807244896888733
-2.0449230670928955,5.569725036621094,-0.6130383014678955
-1.9752331972122192,5.4991655349731445,-0.610950767993927
-1.6250889301300049,4.629262447357178,-0.5190033316612244
-1.589599370956421,4.632701873779297,-0.5239911675453186
-1.5596117973327637,4.65042781829834,-0.5305466651916504
-1.871411919593811,5.712320327758789,-0.6571976542472839
-0.9756456017494202,3.05098032951355,-0.35376328229904175
-0.9581277966499329,3.072381019592285,-0.3590693771839142
-0.815691351890564,2.6812522411346436,-0.31574684381484985
-0.7693329453468323,2.5935089588165283,-0.3077252507209778
-0.7552651166915894,2.6134777069091797,-0.3122384548187256
-0.7524643540382385,2.674476385116577,-0.3216873109340668
-0.741791844367981,2.709319591522217,-0.328061044216156
-0.7225077748298645,2.7141852378845215,-0.3308650851249695
-0.7083014845848083,2.737639904022217,-0.3358320891857147
-0.6822779774665833,2.7159457206726074,-0.3351094722747803
-0.6694534420967102,2.7467756271362305,-0.3408845365047455
-0.6520542502403259,2.758618116378784,-0.34431537985801697
-1.3747985363006592,6.005722522735596,-0.7539675831794739
-1.3769479990005493,6.215242862701416,-0.7841978073120117
-1.3306721448898315,6.21279239654541,-0.7877345085144043
-1.2713000774383545,6.145440101623535,-0.7830135226249695
-1.2298765182495117,6.161147594451904,-0.7888496518135071
-1.1735522747039795,6.104434013366699,-0.7853124141693115
-1.129127860069275,6.104389667510986,-0.7884863615036011
-1.0718802213668823,6.031536102294922,-0.7822486758232117
-0.962692141532898,5.644949913024902,-0.7350818514823914
-0.9721181988716125,5.949245452880859,-0.7778613567352295
-0.9381557703018188,6.009115695953369,-0.7885332703590393
-0.4708162248134613,3.1608057022094727,-0.41611596941947937
-0.44378960132598877,3.1292779445648193,-0.41331246495246887
-0.4178459644317627,3.10135817527771,-0.41097110509872437
-0.39621061086654663,3.103969097137451,-0.41268372535705566
-0.38236311078071594,3.1718428134918213,-0.42275944352149963
-0.361507773399353,3.189690589904785,-0.42620614171028137
-0.33920323848724365,3.191956043243408,-0.4275771379470825
-0.32343658804893494,3.2595601081848145,-0.43774107098579407
-0.3003537952899933,3.2577052116394043,-0.43852096796035767
-0.2798526883125305,3.2865967750549316,-0.4431475102901459
-0.25827738642692566,3.311525344848633,-0.4472855031490326
-0.23877659440040588,3.363307476043701,-0.45507359504699707
-0.216892272233963,3.3879268169403076,-0.45922398567199707
-0.19462260603904724,3.4124338626861572,-0.46317058801651
-0.17337940633296967,3.4638824462890625,-0.4705938398838043
-0.1494690328836441,3.480409860610962,-0.4733131229877472
-0.1261323094367981,3.5044901371002197,-0.4770779609680176
-0.06685157120227814,2.3019790649414062,-0.313713014125824
-0.07868361473083496,3.563828706741333,-0.4858638346195221
-0.05460982769727707,3.6107075214385986,-0.4923587739467621
-0.02958923764526844,3.6767756938934326,-0.5015003681182861
-0.004068442154675722,3.684610605239868,-0.502723753452301
0.021884405985474586,3.7425825595855713,-0.510805606842041
0.04829145595431328,3.7733428478240967,-0.5147199034690857
0.07550925016403198,3.8232650756835938,-0.5212671160697937
0.10228674858808517,3.8304290771484375,-0.5220059156417847
0.12964433431625366,3.8373899459838867,-0.5227378010749817
0.16027262806892395,3.9331417083740234,-0.5354504585266113
0.18943974375724792,3.9707090854644775,-0.5398815870285034
0.21977046132087708,4.019655704498291,-0.5458711385726929
0.2505522072315216,4.064509391784668,-0.551315426826477
0.2817149758338928,4.097508907318115,-0.5551541447639465
0.3075391948223114,4.060865879058838,-0.5493189096450806
0.33506399393081665,4.051103115081787,-0.5469099879264832
0.3617764115333557,4.033441066741943,-0.543467104434967
0.39540690183639526,4.088817596435547,-0.5498782992362976
0.4235049784183502,4.078405857086182,-0.5474391579627991
0.4470738172531128,4.033276557922363,-0.5399953722953796
0.47590625286102295,4.038022994995117,-0.5391637086868286
0.5029394030570984,4.027189254760742,-0.5362756848335266
0.5289308428764343,4.008481025695801,-0.5323682427406311
0.553030252456665,3.974202871322632,-0.5263729691505432
0.582764744758606,3.9859166145324707,-0.5260800123214722
0.6050260066986084,3.9476380348205566,-0.5192248821258545
0.6263002753257751,3.905393362045288,-0.5118975043296814
0.6618332266807556,3.9509060382843018,-0.5160865187644958
0.6845911145210266,3.9198215007781982,-0.510118842124939
0.7094100117683411,3.900017738342285,-0.505337119102478
0.7349192500114441,3.887758731842041,-0.5016109943389893
0.7589887380599976,3.867689847946167,-0.4968988597393036
0.7789813280105591,3.828474283218384,-0.48977550864219666
0.8078498244285583,3.834756374359131,-0.4882134199142456
0.832310676574707,3.8180253505706787,-0.4835776686668396
0.8570300936698914,3.805001735687256,-0.4794844388961792
0.8879396319389343,3.8182120323181152,-0.47869598865509033
0.916333794593811,3.8198745250701904,-0.4764321744441986
1.1390119791030884,4.608309268951416,-0.5713909268379211
1.1646275520324707,4.574429035186768,-0.5637951493263245
1.1993646621704102,4.578003406524658,-0.5608851909637451
1.2262420654296875,4.551318168640137,-0.5542891025543213
1.259831428527832,4.550736904144287,-0.550676703453064
1.2826564311981201,4.512662410736084,-0.5423584580421448
1.3121006488800049,4.496677875518799,-0.5366845726966858
1.3412766456604004,4.480525970458984,-0.5310419797897339
1.3702870607376099,4.464180946350098,-0.5254125595092773
1.396283745765686,4.440441608428955,-0.5185778141021729
1.4244310855865479,4.423928260803223,-0.5126272439956665
1.454483985900879,4.410654067993164,-0.5069742798805237
1.477834939956665,4.378890037536621,-0.49929434061050415
1.5080982446670532,4.36916446685791,-0.49397844076156616
1.2627495527267456,3.5790438652038574,-0.40108057856559753
1.282120943069458,3.5561373233795166,-0.39495667815208435
1.3123835325241089,3.5621535778045654,-0.39200517535209656
1.6059588193893433,4.266107082366943,-0.4650135934352875
1.6421382427215576,4.27376127243042,-0.46121832728385925
1.661468744277954,4.237691402435303,-0.4527337849140167
1.69101881980896,4.226609230041504,-0.4468834400177002
1.7176474332809448,4.208078384399414,-0.4402604103088379
1.7469286918640137,4.19665002822876,-0.4340904951095581
1.7725062370300293,4.1780900955200195,-0.42727580666542053
1.7922157049179077,4.144888401031494,-0.41893497109413147
1.8211966753005981,4.13286018371582,-0.4127388894557953
1.8399313688278198,4.099608421325684,-0.4043096601963043
1.8714975118637085,4.094486713409424,-0.3985412120819092
1.8997355699539185,4.08208703994751,-0.3920850455760956
1.9182884693145752,4.048200607299805,-0.38353657722473145
1.9493274688720703,4.0426130294799805,-0.3775929808616638
1.9766573905944824,4.029938697814941,-0.37093043327331543
2.0014336109161377,4.009622573852539,-0.3633880913257599
2.0277531147003174,3.9926304817199707,-0.35618525743484497
2.051401138305664,3.9723851680755615,-0.34860745072364807
2.0781774520874023,3.9590513706207275,-0.341627299785614
2.0981712341308594,3.9314510822296143,-0.3333117365837097
2.121951103210449,3.910412073135376,-0.32552117109298706
2.144867420196533,3.8896024227142334,-0.3175847828388214
2.138500928878784,3.817939043045044,-0.30570706725120544
2.165192127227783,3.8034591674804688,-0.2982373833656311
2.179778814315796,3.768707752227783,-0.2891846299171448
2.204911470413208,3.7546281814575195,-0.28170204162597656
2.2308812141418457,3.739832878112793,-0.27393847703933716
2.257033586502075,3.724677324295044,-0.2660873532295227
2.2655861377716064,3.6834607124328613,-0.2563830316066742
2.310582399368286,3.701993227005005,-0.25082600116729736
2.323991060256958,3.666471242904663,-0.24118180572986603
2.345076084136963,3.6442947387695312,-0.23232825100421906
2.3775200843811035,3.6423799991607666,-0.2248825579881668
2.389765739440918,3.606839656829834,-0.21499210596084595
2.4142467975616455,3.5910139083862305,-0.20621821284294128
2.4507551193237305,3.595065116882324,-0.19852998852729797
2.4626407623291016,3.5590097904205322,-0.18800079822540283
2.4864230155944824,3.542921304702759,-0.17861469089984894
2.5182723999023438,3.539996385574341,-0.16983790695667267
2.5293385982513428,3.5037293434143066,-0.1587236374616623
2.574941635131836,3.5192925930023193,-0.14993490278720856
2.1796576976776123,2.938060998916626,-0.11676347255706787
2.7745108604431152,3.8907926082611084,0.3145518898963928
2.7614974975585938,3.9372453689575195,0.3280908465385437
2.7328245639801025,3.9563140869140625,0.3386165201663971
2.6816353797912598,3.9432802200317383,0.34601470828056335
2.6636667251586914,3.982689619064331,0.35788851976394653
2.6436192989349365,4.013847351074219,0.3683958649635315
2.6095387935638428,4.025947570800781,0.37710967659950256
2.582580089569092,4.051673412322998,0.3868267238140106
2.565356969833374,4.089372158050537,0.39735785126686096
2.5241737365722656,4.086678504943848,0.40375420451164246
2.4969723224639893,4.1116509437561035,0.4126100540161133
2.4811086654663086,4.156703472137451,0.4236103296279907
2.4478907585144043,4.166552543640137,0.4304984211921692
2.4315199851989746,4.206827640533447,0.4404976963996887
2.395857334136963,4.2175116539001465,0.4472334086894989
2.3644216060638428,4.234434604644775,0.45456555485725403
2.274143695831299,4.141421794891357,0.44977766275405884
2.2332563400268555,4.136391639709473,0.45421239733695984
2.2203309535980225,4.186681270599365,0.46453484892845154
2.1818933486938477,4.188593864440918,0.4694994390010834
2.164891242980957,4.227308750152588,0.47834157943725586
2.1450891494750977,4.262801647186279,0.4869551658630371
2.1030609607696533,4.257026672363281,0.4904755651950836
2.0781846046447754,4.285820960998535,0.49799925088882446
2.054166316986084,4.313936710357666,0.5053433775901794
2.023803472518921,4.327603816986084,0.5109630823135376
1.98932683467865,4.3343658447265625,0.5156139731407166
1.9694499969482422,4.376873016357422,0.5244438052177429
1.999729871749878,4.5327582359313965,0.5469720959663391
1.9648205041885376,4.538902759552002,0.5513752698898315
1.9480880498886108,4.587669849395752,0.5610108375549316
1.9088678359985352,4.586695194244385,0.5643161535263062
1.8906558752059937,4.639739513397217,0.5742542743682861
1.852344274520874,4.642018795013428,0.5778911709785461
1.819895625114441,4.654244422912598,0.5826340317726135
1.797036051750183,4.691615104675293,0.5905748605728149
1.7579090595245361,4.689277648925781,0.59326171875
1.3320510387420654,3.6345486640930176,0.46207401156425476
1.308225154876709,3.651001214981079,0.46639689803123474
1.2799986600875854,3.652355432510376,0.46873939037323
1.625233769416809,4.742894649505615,0.611520528793335
1.6174274682998657,4.8309760093688965,0.6255913972854614
1.5914305448532104,4.871725082397461,0.6333886981010437
1.5608351230621338,4.897380352020264,0.6392364501953125
1.5191149711608887,4.885628700256348,0.64018315076828
1.4826633930206299,4.888218879699707,0.6429882049560547
1.4385566711425781,4.864523887634277,0.6423463821411133
1.415342926979065,4.915254592895508,0.6511445641517639
1.3876540660858154,4.954886436462402,0.6585353016853333
1.3539541959762573,4.971782207489014,0.6629195213317871
1.2864707708358765,4.857096195220947,0.6496775150299072
1.2583677768707275,4.888028144836426,0.6558992266654968
1.227732539176941,4.911367893218994,0.6610228419303894
1.1983543634414673,4.946138858795166,0.6673986315727234
1.1682662963867188,4.9768266677856445,0.6732457876205444
1.1379549503326416,5.007297992706299,0.6791060566902161
1.1046687364578247,5.022304058074951,0.6828775405883789
