X,Y,Z
-1.3885419368743896,2.3752810955047607,-0.18846990168094635
-1.3637189865112305,2.371229887008667,-0.19269630312919617
-1.3502349853515625,2.3874640464782715,-0.19844722747802734
-1.3439089059829712,2.4173715114593506,-0.20537614822387695
-1.326712727546692,2.4264209270477295,-0.21040603518486023
-1.3131273984909058,2.4422123432159424,-0.2159784585237503
-1.3039727210998535,2.468703031539917,-0.2225675731897354
-1.2932313680648804,2.491457939147949,-0.2287629097700119
-1.2792565822601318,2.506962537765503,-0.23420856893062592
-1.271634817123413,2.536538600921631,-0.24096223711967468
-1.2135958671569824,2.4649696350097656,-0.2379923313856125
-1.214311957359314,2.5117955207824707,-0.24638700485229492
-1.1849695444107056,2.495208263397217,-0.24847103655338287
-1.1750987768173218,2.5209054946899414,-0.25465941429138184
-1.2004525661468506,2.624415636062622,-0.26888006925582886
-1.1675314903259277,2.600446939468384,-0.27004873752593994
-1.1883951425552368,2.6970951557159424,-0.2838062644004822
-1.1330909729003906,2.6231913566589355,-0.2795554995536804
-1.1141277551651,2.630842924118042,-0.28383931517601013
-1.1029777526855469,2.6561362743377686,-0.28998857736587524
-1.0930571556091309,2.684965133666992,-0.2965613007545471
-1.0852158069610596,2.7211835384368896,-0.3038638234138489
-1.0708924531936646,2.7430691719055176,-0.30969518423080444
-1.0515645742416382,2.750077486038208,-0.31374531984329224
-1.0418230295181274,2.7823688983917236,-0.32070842385292053
-1.0272737741470337,2.8038711547851562,-0.32629480957984924
-1.0150913000106812,2.8326077461242676,-0.3327679932117462
-0.9998320937156677,2.8540213108062744,-0.3384614586830139
-0.9860889911651611,2.878859043121338,-0.3445349633693695
-0.9803903698921204,2.9295077323913574,-0.3535991609096527
-0.9618738293647766,2.9433529376983643,-0.3582321107387543
-0.9480597972869873,2.9718213081359863,-0.36467355489730835
-0.932644784450531,2.996551752090454,-0.37072840332984924
-0.922794759273529,3.0397114753723145,-0.37895190715789795
-0.8989779949188232,3.0383141040802,-0.38152456283569336
-0.9353901147842407,3.245382308959961,-0.41046634316444397
-0.9503905773162842,3.3857648372650146,-0.43125492334365845
-0.995141327381134,3.6424007415771484,-0.46718066930770874
-0.9877886176109314,3.7201619148254395,-0.4801899790763855
-0.9730337262153625,3.7716031074523926,-0.48987123370170593
-0.9559536576271057,3.815430164337158,-0.4986274540424347
-0.937510073184967,3.855396270751953,-0.5069471001625061
-0.9192142486572266,3.8991355895996094,-0.515569269657135
-0.8972257971763611,3.9315969944000244,-0.5226761102676392
-0.8778242468833923,3.975177526473999,-0.5312835574150085
-0.8581371307373047,4.018609523773193,-0.5399223566055298
-0.838623046875,4.065760135650635,-0.5490531325340271
-0.8129750490188599,4.086332321166992,-0.5542741417884827
-0.7880770564079285,4.114423751831055,-0.5606051087379456
-0.7725666165351868,4.19174861907959,-0.5736764669418335
-0.7405849695205688,4.181352138519287,-0.5747963190078735
-0.43117305636405945,2.5375735759735107,-0.35018280148506165
-0.6973671317100525,4.286064624786377,-0.5936099886894226
-0.6554498076438904,4.217888355255127,-0.5863293409347534
-0.6192802786827087,4.176037788391113,-0.5826207399368286
-0.5810050368309021,4.114749908447266,-0.576119065284729
-0.5481107831001282,4.087737560272217,-0.5739288330078125
-0.514160692691803,4.048957347869873,-0.5700859427452087
-0.4840357005596161,4.036791801452637,-0.5699933767318726
-0.4653838872909546,4.128231048583984,-0.5846129059791565
-0.42395955324172974,4.011877059936523,-0.5695253610610962
-0.39813917875289917,4.037623882293701,-0.5743415355682373
-0.3698960244655609,4.0400896072387695,-0.5758796334266663
-0.33919450640678406,4.011517524719238,-0.573005199432373
-0.3155910074710846,4.075284004211426,-0.5833798050880432
-0.28259968757629395,4.011654376983643,-0.575042188167572
-0.25585514307022095,4.032680034637451,-0.5787972807884216
-0.22951793670654297,4.06510591506958,-0.5842251777648926
-0.19933466613292694,4.0278425216674805,-0.5796632170677185
-0.17147721350193024,4.044478893280029,-0.5827593803405762
-0.141798734664917,4.003007888793945,-0.5770764946937561
-0.11410319805145264,4.011565208435059,-0.578631579875946
-0.08677566051483154,4.039255619049072,-0.5829766392707825
-0.05904519930481911,4.062891960144043,-0.5867689251899719
-0.030392328277230263,4.078655242919922,-0.5891205668449402
-0.0019880691543221474,4.047855377197266,-0.5845390558242798
0.02630305103957653,4.070984363555908,-0.5877741575241089
0.054741356521844864,4.078450679779053,-0.5887754559516907
0.08175521343946457,4.012276649475098,-0.5791750550270081
0.11061376333236694,4.046482563018799,-0.5835787057876587
0.1402815282344818,4.076608657836914,-0.5873651504516602
0.16991406679153442,4.106534481048584,-0.5911523699760437
0.19866269826889038,4.109211444854736,-0.591041088104248
0.22850996255874634,4.131012916564941,-0.5935494899749756
0.2595934271812439,4.16809606552124,-0.5978617072105408
0.2863613963127136,4.127760410308838,-0.591080904006958
0.32859736680984497,4.303217887878418,-0.6152141094207764
0.37649887800216675,4.516833305358887,-0.6447432041168213
0.41097405552864075,4.549022197723389,-0.6479694247245789
0.44850507378578186,4.6079325675964355,-0.6547784209251404
0.4838217496871948,4.631866455078125,-0.6565915942192078
0.5169036984443665,4.63635778427124,-0.6556907892227173
0.5491607189178467,4.632928848266602,-0.6536991000175476
0.5802918076515198,4.621696949005127,-0.6500494480133057
0.6077325940132141,4.583405494689941,-0.642639696598053
0.642219066619873,4.594693183898926,-0.6421839594841003
0.671988308429718,4.575149059295654,-0.6374757289886475
0.7014484405517578,4.555449962615967,-0.6325765252113342
0.7342473864555359,4.5585503578186035,-0.6305215358734131
0.7619872689247131,4.530877590179443,-0.6242486238479614
0.7888180613517761,4.499203205108643,-0.6174728274345398
0.8151574730873108,4.46345853805542,-0.610152542591095
0.8417321443557739,4.435354709625244,-0.6035678386688232
0.7250030040740967,3.6814606189727783,-0.4986248016357422
0.7504872679710388,3.6767520904541016,-0.49565309286117554
0.7697082161903381,3.6415159702301025,-0.48859313130378723
0.798816442489624,3.651519775390625,-0.48750627040863037
0.8274592161178589,3.661472797393799,-0.4861432611942291
0.8509968519210815,3.648566484451294,-0.48176267743110657
0.8745667338371277,3.6354663372039795,-0.47737255692481995
0.8962153792381287,3.6146678924560547,-0.47200238704681396
0.9197657108306885,3.601229190826416,-0.4673295319080353
0.9426616430282593,3.587773561477661,-0.46262070536613464
0.9695143103599548,3.5891237258911133,-0.45983657240867615
0.9904311895370483,3.5677990913391113,-0.45414918661117554
1.0152816772460938,3.5612943172454834,-0.4503140151500702
1.042442798614502,3.562046527862549,-0.44708526134490967
1.0625343322753906,3.540422201156616,-0.4411344528198242
1.0849013328552246,3.5260283946990967,-0.43609368801116943
1.1048929691314697,3.504055976867676,-0.4301431477069855
1.1314753293991089,3.504249095916748,-0.42671167850494385
1.1559892892837524,3.496781826019287,-0.4222400486469269
1.1801878213882446,3.4892215728759766,-0.4178161919116974
1.195713996887207,3.455723762512207,-0.41029447317123413
1.2844345569610596,3.630878448486328,-0.4272882640361786
1.4862300157546997,4.11187744140625,-0.47941508889198303
1.5036996603012085,4.073067665100098,-0.47045642137527466
1.5354033708572388,4.070189476013184,-0.46553605794906616
1.5637673139572144,4.0600266456604,-0.459830641746521
1.5915449857711792,4.0498857498168945,-0.45391222834587097
1.6192539930343628,4.039547920227051,-0.4479930102825165
1.6414788961410522,4.0144429206848145,-0.4403938055038452
1.6760401725769043,4.017658233642578,-0.43581223487854004
1.753649115562439,4.124842166900635,-0.4422217905521393
1.9687892198562622,4.54512882232666,-0.481506884098053
1.9186776876449585,4.347118854522705,-0.45490655303001404
1.933226227760315,4.298792362213135,-0.4442153871059418
1.959895372390747,4.278887748718262,-0.43626296520233154
1.9824352264404297,4.252049922943115,-0.42773011326789856
1.5831562280654907,3.3355963230133057,-0.33089834451675415
1.6403733491897583,3.3950486183166504,-0.3320060670375824
2.1269190311431885,4.32741117477417,-0.4169098734855652
2.233316659927368,4.466556072235107,-0.4236755073070526
2.288965940475464,4.500288963317871,-0.42012283205986023
2.3222556114196777,4.488353252410889,-0.4121668338775635
2.370612621307373,4.50780725479126,-0.40691450238227844
1.725492000579834,3.2285194396972656,-0.2863677740097046
1.740559697151184,3.2032527923583984,-0.2789047658443451
1.7273074388504028,3.1266727447509766,-0.2669740319252014
1.7615950107574463,3.139317512512207,-0.26278406381607056
1.7944458723068237,3.148118734359741,-0.25814682245254517
1.3477591276168823,2.3266749382019043,-0.18665118515491486
0.9465494155883789,1.6090723276138306,-0.12618494033813477
0.9514787197113037,1.59282386302948,-0.1219668835401535
0.9665676951408386,1.5931050777435303,-0.1189630851149559
0.9795575141906738,1.5899944305419922,-0.11565693467855453
0.983853816986084,1.5738153457641602,-0.11141107976436615
1.000811219215393,1.577214002609253,-0.10846612602472305
1.0119754076004028,1.5703338384628296,-0.10463757067918777
1.0158886909484863,1.5540897846221924,-0.10025296360254288
1.026318073272705,1.5474642515182495,-0.09644164890050888
1.041429877281189,1.546993613243103,-0.0928632989525795
1.0624566078186035,1.556541919708252,-0.08983708918094635
2.548292875289917,3.6796000003814697,-0.20333676040172577
2.582575798034668,3.6752727031707764,-0.19373482465744019
2.6153199672698975,3.671757936477661,-0.18411864340305328
2.594672441482544,3.59102463722229,-0.17020927369594574
2.632068395614624,3.5932843685150146,-0.16015365719795227
2.687878131866455,3.6205217838287354,-0.1508031040430069
2.637838125228882,3.7011525630950928,0.29741573333740234
2.6085352897644043,3.720980167388916,0.30826687812805176
2.5720937252044678,3.7264890670776367,0.31733402609825134
1.0533649921417236,1.5499645471572876,0.13535527884960175
1.058526635169983,1.583714246749878,0.14165949821472168
1.0555347204208374,1.6040518283843994,0.14661958813667297
1.0436265468597412,1.6114805936813354,0.15035903453826904
1.0144262313842773,1.5928698778152466,0.15150241553783417
1.002647876739502,1.5999823808670044,0.15492692589759827
1.007686734199524,1.6331994533538818,0.16081081330776215
0.9830964207649231,1.620543360710144,0.1620878428220749
0.9625219106674194,1.6144217252731323,0.1640165001153946
0.9590076804161072,1.6342802047729492,0.16835710406303406
1.35365891456604,2.3450512886047363,0.24483491480350494
1.817674994468689,3.203981876373291,0.33878687024116516
1.7615437507629395,3.1591012477874756,0.33818528056144714
1.757607102394104,3.2051491737365723,0.34713491797447205
1.773137092590332,3.289085865020752,0.36015406250953674
1.7557487487792969,3.3154401779174805,0.36683568358421326
2.367847204208374,4.552065849304199,0.5088301301002502
2.337555408477783,4.571314811706543,0.5158785581588745
2.3113391399383545,4.601267337799072,0.5241793990135193
2.2701635360717773,4.603664875030518,0.5289971232414246
2.239232063293457,4.626686096191406,0.5362069606781006
2.2062571048736572,4.641788959503174,0.542335033416748
2.1801657676696777,4.670543193817139,0.5500432848930359
2.1395490169525146,4.671518802642822,0.5542055368423462
2.1107189655303955,4.700952529907227,0.5617397427558899
2.0762360095977783,4.715601444244385,0.5674442648887634
2.036987543106079,4.715118408203125,0.571174681186676
1.772170066833496,4.181764125823975,0.5099199414253235
1.7161662578582764,4.133151054382324,0.5069615244865417
1.6794970035552979,4.130878448486328,0.5097078680992126
1.6524187326431274,4.149598121643066,0.5149827003479004
1.6317667961120605,4.182234287261963,0.5219355821609497
1.602401852607727,4.193042755126953,0.5261812806129456
1.5785841941833496,4.22228479385376,0.5324211716651917
1.5445491075515747,4.226085662841797,0.5355343222618103
1.5165512561798096,4.243952751159668,0.5403924584388733
1.4894059896469116,4.261287689208984,0.5451318025588989
1.462091088294983,4.278445720672607,0.5498838424682617
1.4287312030792236,4.281075477600098,0.552443265914917
1.4019731283187866,4.305771350860596,0.5578635334968567
1.3707760572433472,4.31535530090332,0.5613250136375427
1.3427664041519165,4.3318328857421875,0.5656471252441406
1.3147180080413818,4.348089694976807,0.5699666142463684
1.2882955074310303,4.371738910675049,0.5750929117202759
1.256790280342102,4.380506992340088,0.5780810713768005
1.2267847061157227,4.3966498374938965,0.5821067690849304
1.1954997777938843,4.404868125915527,0.5850623846054077
1.169628620147705,4.431458950042725,0.5904638767242432
1.140600323677063,4.446630001068115,0.5943808555603027
1.108824610710144,4.454317569732666,0.5969394445419312
1.0781874656677246,4.469458103179932,0.6005122065544128
1.047935962677002,4.484264373779297,0.6040503978729248
1.0214961767196655,4.513853549957275,0.6095940470695496
0.9883413314819336,4.512966156005859,0.6110433340072632
0.9583009481430054,4.527030944824219,0.6144775748252869
0.7814306616783142,3.82792592048645,0.5206062197685242
0.7526242136955261,3.8255650997161865,0.5213139653205872
0.7311340570449829,3.861021041870117,0.527206301689148
0.8345777988433838,4.581827640533447,0.6268919706344604
0.8046595454216003,4.59868860244751,0.6304898858070374
0.7770077586174011,4.634578227996826,0.6366221904754639
0.7441847324371338,4.639740943908691,0.6382277607917786
0.7124501466751099,4.652329921722412,0.6408898234367371
0.6817411780357361,4.672353744506836,0.6446114182472229
0.6491518020629883,4.676773548126221,0.6462006568908691
0.6190688610076904,4.704048156738281,0.6509998440742493
0.5866144895553589,4.711904525756836,0.6529843807220459
0.555202305316925,4.731138229370117,0.6562474966049194
0.5243958830833435,4.757852554321289,0.6605860590934753
0.4908595681190491,4.761270999908447,0.6617259383201599
0.45987749099731445,4.787529945373535,0.6660687923431396
0.4280383884906769,4.813628673553467,0.6704400181770325
0.3950961232185364,4.824065208435059,0.6725454330444336
0.36210334300994873,4.838200092315674,0.6748256087303162
0.328669935464859,4.8482489585876465,0.6765702962875366
0.29511332511901855,4.858066082000732,0.6783170700073242
0.26189664006233215,4.883121013641357,0.6822322607040405
0.22938770055770874,4.915647029876709,0.6872208714485168
0.1956089735031128,4.928633213043213,0.6894779801368713
0.16141493618488312,4.937586784362793,0.6907462477684021
0.12735764682292938,4.954036235809326,0.6930967569351196
0.09257733821868896,4.977996826171875,0.6965343952178955
0.05811212211847305,5.001705169677734,0.6999704241752625
0.02332107536494732,5.001962184906006,0.7001585364341736
-0.01153283566236496,5.029056549072266,0.7041381001472473
-0.04676565155386925,5.052099704742432,0.7071324586868286
-0.08274038136005402,5.067160129547119,0.7089808583259583
-0.11820074915885925,5.074239730834961,0.7097501158714294
-0.15370877087116241,5.081072807312012,0.710519015789032
-0.189317524433136,5.0876569747924805,0.7112869620323181
-0.22587887942790985,5.113316535949707,0.7147551774978638
-0.2628915011882782,5.142630100250244,0.7184141278266907
-0.2990846335887909,5.140768527984619,0.7175796627998352
-0.2851240336894989,4.37811803817749,0.6106723546981812
-0.3084646463394165,4.279661178588867,0.5965259671211243
-0.3403506278991699,4.304508686065674,0.599600076675415
-0.37089160084724426,4.309847831726074,0.599983274936676
-0.395845890045166,4.249467372894287,0.5910252332687378
-0.42127570509910583,4.208288669586182,0.5845760703086853
-0.4457447826862335,4.163112640380859,0.5776128768920898
-0.4682956635951996,4.106263160705566,0.5690731406211853
-0.49495211243629456,4.0876922607421875,0.56587153673172
-0.5145516395568848,4.011300086975098,0.5546944737434387
-0.5402007102966309,3.9924700260162354,0.5513859391212463
-0.5605126619338989,3.939051628112793,0.5430845022201538
-0.5812598466873169,3.893195867538452,0.5358726978302002
-0.6031975150108337,3.8587114810943604,0.5302676558494568
-0.6204556822776794,3.7934255599975586,0.5204514265060425
-0.6435942649841309,3.770124673843384,0.5164511799812317
-0.6655980944633484,3.7429139614105225,0.5118498206138611
-0.6827505826950073,3.692821979522705,0.5038970708847046
-0.7014006972312927,3.6540801525115967,0.4975419044494629
-0.7188348770141602,3.611447811126709,0.4906996488571167
-0.7388054728507996,3.5799753665924072,0.4853849709033966
-0.747484028339386,3.499241590499878,0.47345906496047974
-0.7691323161125183,3.4828836917877197,0.470199316740036
-0.7893586754798889,3.4627299308776855,0.46622204780578613
-0.8093462586402893,3.4424593448638916,0.46226146817207336
-0.82403564453125,3.399390935897827,0.4552583694458008
-0.844840407371521,3.382563591003418,0.45180371403694153
-0.8683797121047974,3.376857280731201,0.44985857605934143
-0.8797836899757385,3.326108455657959,0.4418249726295471
-0.900300920009613,3.3128767013549805,0.43863022327423096
-0.9127342700958252,3.2695536613464355,0.4314665198326111
-0.9275274872779846,3.2374658584594727,0.4258515238761902
-0.9413389563560486,3.201462984085083,0.4197338819503784
-0.9614401459693909,3.187676191329956,0.4165634512901306
-0.9763411283493042,3.159116506576538,0.41130703687667847
-0.9875239133834839,3.119382381439209,0.4045189321041107
-1.0014666318893433,3.090801954269409,0.39924919605255127
-1.01777184009552,3.069448232650757,0.39493033289909363
-1.0416572093963623,3.0699315071105957,0.39341774582862854
-1.0579029321670532,3.0482728481292725,0.38906702399253845
-1.0667774677276611,3.0085084438323975,0.38220924139022827
-1.0899989604949951,3.0087671279907227,0.3804421126842499
-1.0940983295440674,2.9580283164978027,0.372294545173645
-1.1229982376098633,2.972417116165161,0.3723073899745941
-1.1298068761825562,2.9286270141601562,0.36505988240242004
-1.1454116106033325,2.9104063510894775,0.3608679473400116
-1.1421422958374023,2.8452513217926025,0.3508066236972809
-1.1523888111114502,2.8163204193115234,0.34531867504119873
-1.1614224910736084,2.7835440635681152,0.3393440842628479
-1.139855980873108,2.679243803024292,0.32473236322402954
-1.1288223266601562,2.60404896736145,0.3136729300022125
-1.1606507301330566,2.62862491607666,0.3145354092121124
-1.1750348806381226,2.614065408706665,0.31074583530426025
-1.1930382251739502,2.606257438659668,0.3077165186405182
-1.227643370628357,2.633420705795288,0.30877381563186646
-1.245509386062622,2.6253926753997803,0.3055700659751892
-1.2564489841461182,2.603315591812134,0.30062103271484375
-1.2702783346176147,2.5883166790008545,0.29656174778938293
-1.3125718832015991,2.628476858139038,0.2986833453178406
-1.2869718074798584,2.532970905303955,0.2854195833206177
-1.3003528118133545,2.517772912979126,0.2811570465564728
-1.3097851276397705,2.4957191944122314,0.276134729385376
-1.3158481121063232,2.466513156890869,0.2702871263027191
-1.3256686925888062,2.4439656734466553,0.26515763998031616
-1.338612675666809,2.4284183979034424,0.260760098695755
-1.352620005607605,2.4165866374969482,0.25667136907577515
-1.3569345474243164,2.3877501487731934,0.250812292098999
-1.373882532119751,2.37845778465271,0.24681031703948975
-1.390437364578247,2.3692290782928467,0.24283143877983093
-1.3939868211746216,2.3404173851013184,0.23675599694252014
-1.4254015684127808,2.3582828044891357,0.23540371656417847
-1.4132531881332397,2.302299737930298,0.22652839124202728
-1.4335013628005981,2.299353837966919,0.22281716763973236
-1.4483489990234375,2.290447473526001,0.21848800778388977
-1.4485607147216797,2.258408784866333,0.21196380257606506
-1.4644370079040527,2.248582124710083,0.20729514956474304
-1.4751673936843872,2.2326550483703613,0.2020118534564972
-1.4854339361190796,2.2168943881988525,0.1966504007577896
-1.5048940181732178,2.213597059249878,0.19224432110786438
-1.4802525043487549,2.145902156829834,0.18219496309757233
-1.489405870437622,2.1304776668548584,0.17664429545402527
-1.4923069477081299,2.1050310134887695,0.17010986804962158
-1.5070137977600098,2.0949747562408447,0.1645062118768692
-1.515531301498413,2.0796072483062744,0.15851567685604095
-1.5202217102050781,2.057260751724243,0.15169382095336914
-1.4963594675064087,2.097083806991577,-0.09937858581542969
-1.510433554649353,2.1489856243133545,-0.10769879072904587
-1.498778223991394,2.166306972503662,-0.1142951175570488
-1.4957040548324585,2.1964828968048096,-0.12150593847036362
-1.4583691358566284,2.1742935180664062,-0.1254572719335556
-1.4762470722198486,2.2370340824127197,-0.1343439370393753
-1.459669828414917,2.2475345134735107,-0.14009790122509003
-1.4477046728134155,2.2641780376434326,-0.14599941670894623
-1.4306472539901733,2.2746341228485107,-0.15150901675224304
-1.4245142936706543,2.3010873794555664,-0.15791743993759155
-1.4202144145965576,2.330822229385376,-0.16451504826545715
-1.402529001235962,2.3411264419555664,-0.16984012722969055
-1.3776694536209106,2.3373875617980957,-0.1739187240600586
-1.3846067190170288,2.38714337348938,-0.18191403150558472
-1.3707808256149292,2.403703451156616,-0.18741613626480103
-1.3455393314361572,2.399681329727173,-0.19126620888710022
-1.3359050750732422,2.4224860668182373,-0.19716289639472961
-1.3238956928253174,2.441986560821533,-0.20272599160671234
-1.309613823890686,2.458111524581909,-0.20802271366119385
-1.2957346439361572,2.4738621711730957,-0.21319586038589478
-1.2889481782913208,2.5033223628997803,-0.21954655647277832
-1.2738423347473145,2.519367218017578,-0.22475379705429077
-1.2450846433639526,2.5072431564331055,-0.22736480832099915
-1.177952766418457,2.4140639305114746,-0.2223309725522995
-1.1741894483566284,2.450092077255249,-0.22906367480754852
-1.194458246231079,2.539173126220703,-0.24086087942123413
-1.1859396696090698,2.5685009956359863,-0.24710863828659058
-1.19490385055542,2.636730670928955,-0.25718724727630615
-1.155541181564331,2.598555326461792,-0.25677919387817383
-1.1787514686584473,2.702693462371826,-0.2704482972621918
-1.1257281303405762,2.6319706439971924,-0.2666296064853668
-1.1072009801864624,2.6394152641296387,-0.27058765292167664
-1.0968623161315918,2.6685631275177,-0.2767747938632965
-1.089203119277954,2.7048561573028564,-0.2836526334285736
-1.0755493640899658,2.726630210876465,-0.28904375433921814
-1.0634406805038452,2.751816749572754,-0.29478421807289124
-1.043958067893982,2.7588648796081543,-0.29852044582366943
-1.0346406698226929,2.7951414585113525,-0.3054187297821045
-1.0199588537216187,2.8166635036468506,-0.3107089400291443
-1.010612964630127,2.8526222705841064,-0.3175938129425049
-0.9943400025367737,2.8702683448791504,-0.32243412733078003
-0.9862966537475586,2.913684844970703,-0.33007386326789856
-0.9651139974594116,2.920362949371338,-0.33365383744239807
-0.9541622996330261,2.9562220573425293,-0.34051457047462463
-0.9404658079147339,2.9846386909484863,-0.3465770184993744
-0.9317699074745178,3.0316848754882812,-0.35463273525238037
-0.910193681716919,3.0378427505493164,-0.3579563498497009
-0.8974670767784119,3.073596715927124,-0.3647879362106323
-0.8830024600028992,3.1056344509124756,-0.37127062678337097
-0.8672614693641663,3.1338517665863037,-0.3771260380744934
-0.8510457277297974,3.1620373725891113,-0.3829175531864166
-0.8394567966461182,3.208888292312622,-0.39102911949157715
-0.8227496147155762,3.2368552684783936,-0.396877259016037
-0.8071160912513733,3.2723746299743652,-0.4036943316459656
-0.8200810551643372,3.4285120964050293,-0.4252282977104187
-0.8282527327537537,3.5736207962036133,-0.44560858607292175
-0.8838353157043457,3.9383678436279297,-0.4937150180339813
-0.8538617491722107,3.9326539039611816,-0.4956241250038147
-0.834500253200531,3.979994535446167,-0.5040209889411926
-0.822584867477417,4.065184593200684,-0.5171241164207458
-0.8028644919395447,4.116138935089111,-0.5259668231010437
-0.7806211113929749,4.155524730682373,-0.5333786010742188
-0.7585314512252808,4.198614120483398,-0.5412838459014893
-0.7357783317565918,4.245584011077881,-0.5493723750114441
-0.7110419869422913,4.280879974365234,-0.555975615978241
-0.6902073621749878,4.342798709869385,-0.566098690032959
-0.665775716304779,4.385450839996338,-0.5737741589546204
-0.6434608101844788,4.44718074798584,-0.5837550759315491
-0.6159784197807312,4.4820556640625,-0.5900450348854065
-0.5910475254058838,4.535899639129639,-0.5988649129867554
-0.5669989585876465,4.6011152267456055,-0.6092479825019836
-0.538979172706604,4.639271259307861,-0.6161128282546997
-0.5106979012489319,4.681186676025391,-0.623041570186615
-0.4747990667819977,4.653592586517334,-0.6206775903701782
-0.39340806007385254,4.147782325744629,-0.5544276237487793
-0.36896395683288574,4.200354099273682,-0.5626809597015381
-0.3387637734413147,4.191051006317139,-0.5625720620155334
-0.3132396638393402,4.243366718292236,-0.5703495740890503
-0.2988380789756775,4.473219871520996,-0.6020691990852356
-0.29296818375587463,4.907897472381592,-0.6615256667137146
-0.22356818616390228,4.240858554840088,-0.5724509954452515
-0.19735372066497803,4.315686225891113,-0.583141565322876
-0.19108924269676208,4.931926250457764,-0.6668272018432617
-0.1317160576581955,4.147637844085693,-0.561165988445282
-0.10162340849637985,4.117437362670898,-0.5574890375137329
-0.07229483872652054,4.075402736663818,-0.5522216558456421
-0.05306822061538696,4.915730953216553,-0.6660901308059692
-0.01616399735212326,4.1960062980651855,-0.5685071349143982
0.013063283637166023,4.2153754234313965,-0.5710995197296143
0.043110400438308716,4.230664253234863,-0.5731666684150696
0.07222031056880951,4.207052230834961,-0.5699185132980347
0.09889928996562958,4.0981669425964355,-0.5546960830688477
0.1279161423444748,4.112929344177246,-0.556247353553772
0.16435988247394562,4.317032337188721,-0.5834101438522339
0.19713449478149414,4.377739429473877,-0.5911965370178223
0.22805887460708618,4.376349449157715,-0.5903668999671936
0.2794060707092285,4.730364799499512,-0.6371279358863831
0.31220725178718567,4.7284770011901855,-0.6359084844589233
0.3450731635093689,4.7263569831848145,-0.6346862316131592
0.37545448541641235,4.693131923675537,-0.6293236017227173
0.4105958938598633,4.713730335235596,-0.6307647824287415
0.4229503870010376,4.495121002197266,-0.6001500487327576
0.4728357195854187,4.677237033843994,-0.6230746507644653
0.5028688907623291,4.650971412658691,-0.6182183027267456
0.5276803374290466,4.582193851470947,-0.6077468991279602
0.5571773052215576,4.555598258972168,-0.6023716330528259
0.5926914811134338,4.58266019821167,-0.6041519045829773
0.5208480358123779,3.818812370300293,-0.5019703507423401
0.5402911901473999,3.765493392944336,-0.4935187101364136
0.5676114559173584,3.7695772647857666,-0.49246281385421753
0.588126540184021,3.7275230884552,-0.48510411381721497
0.6151942610740662,3.731306552886963,-0.4837818443775177
0.6411190629005432,3.727240800857544,-0.48145508766174316
0.6684137582778931,3.7306172847747803,-0.48010727763175964
0.6928291916847229,3.718613386154175,-0.47650742530822754
0.7184990048408508,3.7140870094299316,-0.473787784576416
0.7400672435760498,3.68648362159729,-0.4681185781955719
0.7649648785591125,3.6777842044830322,-0.46491026878356934
0.7889308929443359,3.6651363372802734,-0.4611838161945343
0.8125463128089905,3.6524176597595215,-0.4571411907672882
0.8360233306884766,3.6395444869995117,-0.45311102271080017
0.8635165691375732,3.6414835453033447,-0.45089155435562134
0.8852039575576782,3.6206884384155273,-0.4459173381328583
0.9121907949447632,3.622389554977417,-0.4435444176197052
0.9352197647094727,3.608919143676758,-0.4391822814941406
0.9581053853034973,3.5952985286712646,-0.4348340928554535
0.9815789461135864,3.581341505050659,-0.4303983747959137
1.0044656991958618,3.567344903945923,-0.4260219931602478
1.029030680656433,3.560786008834839,-0.4222506582736969
1.0535517930984497,3.554054021835327,-0.4184788763523102
1.0759624242782593,3.5396664142608643,-0.4138084948062897
1.094175100326538,3.5101382732391357,-0.4073443114757538
1.1869333982467651,3.7174816131591797,-0.42811092734336853
1.3632804155349731,4.171130657196045,-0.47652751207351685
1.3919720649719238,4.162195205688477,-0.4716905951499939
1.418531894683838,4.145563125610352,-0.46595191955566406
1.4474198818206787,4.13612174987793,-0.4609891176223755
1.473637580871582,4.119187831878662,-0.45490115880966187
1.4965592622756958,4.094941139221191,-0.44811704754829407
1.527735948562622,4.092281341552734,-0.4436701834201813
1.5618374347686768,4.096600532531738,-0.4399615228176117
1.584228277206421,4.071901798248291,-0.4329253137111664
1.6096463203430176,4.054149627685547,-0.4265592396259308
1.6405525207519531,4.050716400146484,-0.4217485785484314
1.6570223569869995,4.010952949523926,-0.41313865780830383
1.693701982498169,4.021524429321289,-0.40958356857299805
1.942015528678894,4.525169372558594,-0.4555625915527344
1.9253461360931396,4.401641845703125,-0.43781235814094543
1.919710636138916,4.306962966918945,-0.42318564653396606
1.9284390211105347,4.24821138381958,-0.41215458512306213
1.565490484237671,3.3878047466278076,-0.3244042992591858
1.5787299871444702,3.356370210647583,-0.3171137869358063
2.108827829360962,4.4022016525268555,-0.410062700510025
2.1749160289764404,4.46172571182251,-0.4096502363681793
2.2327864170074463,4.503360748291016,-0.4073626697063446
2.2741150856018066,4.509490489959717,-0.4017114043235779
2.305654525756836,4.494129180908203,-0.39399680495262146
2.3362748622894287,4.478964328765869,-0.38622114062309265
1.7263615131378174,3.2555928230285645,-0.2759086489677429
1.7450298070907593,3.2372653484344482,-0.26951825618743896
1.724613070487976,3.146855354309082,-0.2571795880794525
1.734352707862854,3.1152355670928955,-0.24973544478416443
1.7724547386169434,3.1345326900482178,-0.24636340141296387
1.3265615701675415,2.3079795837402344,-0.17754501104354858
1.2814977169036865,2.1947784423828125,-0.16517610847949982
0.9521976709365845,1.6063454151153564,-0.1181754544377327
0.9610980749130249,1.5967230796813965,-0.11469527333974838
0.9743101000785828,1.5935050249099731,-0.11159466952085495
0.9829928278923035,1.5838099718093872,-0.10798308253288269
0.9955746531486511,1.5807675123214722,-0.10486530512571335
1.0108643770217896,1.5805342197418213,-0.10175072401762009
1.0150686502456665,1.564129114151001,-0.09759651124477386
1.0253336429595947,1.5576356649398804,-0.09408090263605118
1.0385106801986694,1.5538018941879272,-0.090481698513031
1.046597957611084,1.5438669919967651,-0.08658242970705032
2.5486438274383545,3.7080495357513428,-0.19989371299743652
2.570110559463501,3.6842005252838135,-0.1898844689130783
2.5985820293426514,3.674224615097046,-0.18059441447257996
2.605062484741211,3.6317527294158936,-0.16933809220790863
2.620736598968506,3.6016366481781006,-0.1583680510520935
2.671358823776245,3.6230688095092773,-0.14962153136730194
2.6292433738708496,3.7181901931762695,0.2802620232105255
2.600163459777832,3.7378058433532715,0.29045045375823975
2.573704242706299,3.755349636077881,0.2996717393398285
1.0607906579971313,1.5738595724105835,0.128843754529953
1.048781156539917,1.5815799236297607,0.13257089257240295
1.0461329221725464,1.6016876697540283,0.13713781535625458
1.0338754653930664,1.609329104423523,0.14058959484100342
1.0090489387512207,1.5971331596374512,0.14224989712238312
0.9975945949554443,1.6040292978286743,0.14540868997573853
0.9857387542724609,1.611061692237854,0.1484856754541397
0.9734548330307007,1.6182304620742798,0.15154044330120087
0.9616876840591431,1.6249767541885376,0.15445367991924286
1.3420755863189697,2.3041906356811523,0.22213588654994965
1.34946608543396,2.357966184616089,0.23039217293262482
1.8009308576583862,3.202162742614746,0.3169505298137665
1.7555819749832153,3.1734886169433594,0.3178882300853729
1.7870514392852783,3.2844300270080566,0.3328345715999603
1.7624341249465942,3.2972044944763184,0.33775901794433594
2.388103485107422,4.54996395111084,0.4711720645427704
2.3539211750030518,4.562697887420654,0.4772414565086365
2.3217813968658447,4.5784687995910645,0.48359814286231995
2.284287691116333,4.587955474853516,0.48898226022720337
2.2552406787872314,4.614637851715088,0.49620455503463745
2.2279744148254395,4.644465446472168,0.5037678480148315
2.1887478828430176,4.64526891708374,0.5080049633979797
2.1617748737335205,4.674402713775635,0.5151666402816772
2.1272053718566895,4.689629554748535,0.5206575989723206
2.09256649017334,4.704577922821045,0.5261417627334595
2.0594961643218994,4.718563556671143,0.5313611626625061
1.9998583793640137,4.671789646148682,0.5297701358795166
1.740410566329956,4.14830207824707,0.4733368158340454
1.7055801153182983,4.149658679962158,0.47637853026390076
1.6724187135696411,4.15427303314209,0.4797931909561157
1.6461575031280518,4.172628402709961,0.484706848859787
1.6191636323928833,4.191020488739014,0.4897117614746094
1.590059518814087,4.205855369567871,0.4939439296722412
1.5593583583831787,4.216888427734375,0.4977371096611023
1.5273762941360474,4.224002838134766,0.5010824203491211
1.5017186403274536,4.245116233825684,0.5060223937034607
1.474021077156067,4.262585163116455,0.5106087327003479
1.4408289194107056,4.265320301055908,0.5131112337112427
1.4147555828094482,4.289988040924072,0.5182088017463684
1.3860629796981812,4.307096004486084,0.5224285125732422
1.3557771444320679,4.316332817077637,0.525661051273346
1.3296864032745361,4.340277194976807,0.5307384729385376
1.3033815622329712,4.364072322845459,0.5356211066246033
1.272011399269104,4.372965335845947,0.5384990572929382
1.2426507472991943,4.389107704162598,0.5423030853271484
1.2093486785888672,4.39000129699707,0.5442308187484741
1.1846885681152344,4.420468807220459,0.549825131893158
1.1542502641677856,4.432165145874023,0.5531537532806396
1.1244094371795654,4.44752311706543,0.5565493106842041
1.0943663120269775,4.462690830230713,0.5599337816238403
1.0659562349319458,4.4851975440979,0.5642755031585693
1.03617525100708,4.499826431274414,0.5676319003105164
1.005922555923462,4.514322757720947,0.5710204839706421
0.9692980051040649,4.498248100280762,0.5704278945922852
0.9467207193374634,4.550323009490967,0.578213095664978
0.7678897380828857,3.827012777328491,0.48731693625450134
0.7420955300331116,3.839777708053589,0.4899831712245941
0.8494249582290649,4.568716049194336,0.5842618942260742
0.8203139901161194,4.589528560638428,0.58819180727005
0.7913573384284973,4.614041328430176,0.5924323797225952
0.7599142789840698,4.62697696685791,0.5949844717979431
0.7270772457122803,4.632047653198242,0.5965579152107239
0.6972099542617798,4.659941673278809,0.601118266582489
0.6647777557373047,4.664478778839111,0.6026690602302551
0.6353870034217834,4.691832542419434,0.6072035431861877
0.6035026907920837,4.703680515289307,0.6095301508903503
0.5717488527297974,4.719207763671875,0.6121531128883362
0.5402448773384094,4.738368988037109,0.615281343460083
0.5071223974227905,4.749670505523682,0.6174342632293701
0.47559264302253723,4.76835823059082,0.6205616593360901
0.4431120455265045,4.779120445251465,0.6226912140846252
0.4110736548900604,4.7974162101745605,0.6256137490272522
0.38012123107910156,4.834848403930664,0.6308420300483704
0.34610679745674133,4.845076560974121,0.6325621008872986
0.3131376802921295,4.862753868103027,0.6352806091308594
0.27975431084632874,4.872457027435303,0.6369870901107788
0.24697932600975037,4.897407054901123,0.6407212018966675
0.21352975070476532,4.914419174194336,0.6432626247406006
0.17913499474525452,4.931264877319336,0.6455343961715698
0.1448075771331787,4.936235427856445,0.6462825536727905
0.11097195744514465,4.96807336807251,0.6505810022354126
0.07655508071184158,4.976438999176025,0.6518373489379883
0.04203903675079346,4.992311477661133,0.6541098952293396
0.006719653494656086,5.015707492828369,0.6572718620300293
-0.028207553550601006,5.023407459259033,0.6580682396888733
-0.06334426254034042,5.034736156463623,0.6593707799911499
-0.09901867806911469,5.065181255340576,0.6632075905799866
-0.134190171957016,5.064400672912598,0.662987232208252
-0.16987350583076477,5.078859806060791,0.6647937893867493
-0.2067149579524994,5.100790023803711,0.6675466895103455
-0.24327091872692108,5.126412868499756,0.6703886389732361
-0.28045654296875,5.155638694763184,0.6737273931503296
-0.31468331813812256,5.130471229553223,0.6699903607368469
-0.2935639023780823,4.297375679016113,0.5608456134796143
-0.3240131437778473,4.295266151428223,0.560240626335144
-0.35453301668167114,4.300705909729004,0.560653030872345
-0.3842603862285614,4.298280239105225,0.5596644282341003
-0.40760496258735657,4.230102062225342,0.5501450896263123
-0.4328584372997284,4.188775062561035,0.5441588163375854
-0.4568118453025818,4.135692596435547,0.5366734862327576
-0.48100605607032776,4.094066619873047,0.5307214260101318
-0.5012925863265991,4.025391101837158,0.5213019251823425
-0.5254107117652893,3.9951231479644775,0.5165683627128601
-0.5517528057098389,3.9839138984680176,0.5142841339111328
-0.5695314407348633,3.9111108779907227,0.5040740966796875
-0.5936008095741272,3.8880960941314697,0.5003331899642944
-0.6095929741859436,3.8151631355285645,0.49020513892173767
-0.6329346299171448,3.7918782234191895,0.4864959120750427
-0.6496132612228394,3.734189987182617,0.47813689708709717
-0.6751589775085449,3.7298545837402344,0.47658392786979675
-0.690345048904419,3.6681315898895264,0.4677198827266693
-0.7096840143203735,3.6330454349517822,0.4623064398765564
-0.7303335070610046,3.605419158935547,0.4578697979450226
-0.7450610995292664,3.5511221885681152,0.4500865042209625
-0.7594605088233948,3.500706195831299,0.44256529211997986
-0.7829172015190125,3.491792917251587,0.44025880098342896
-0.7979631423950195,3.4488258361816406,0.43371522426605225
-0.8217355608940125,3.443464756011963,0.4319204092025757
-0.8345648050308228,3.3927037715911865,0.42445656657218933
-0.8552986979484558,3.3757593631744385,0.42126181721687317
-0.8707674145698547,3.3400094509124756,0.4154375493526459
-0.8874327540397644,3.3117871284484863,0.4106115698814392
-0.9037221074104309,3.2834975719451904,0.40581586956977844
-0.9211402535438538,3.258755683898926,0.4014696776866913
-0.9351752996444702,3.222705125808716,0.3957596719264984
-0.9533662796020508,3.201444625854492,0.3917989730834961
-0.9681759476661682,3.172943115234375,0.3868136703968048
-0.9815165996551514,3.1406702995300293,0.38140690326690674
-0.9980718493461609,3.119427442550659,0.37737202644348145
-1.014976978302002,3.097914457321167,0.373295396566391
-1.032042145729065,3.076181173324585,0.3691966235637665
-1.0416195392608643,3.0363340377807617,0.3628132939338684
-1.0595020055770874,3.0222086906433105,0.3594752848148346
-1.0825046300888062,3.022587776184082,0.35787659883499146
-1.0979746580123901,3.0007688999176025,0.3536366820335388
-1.10528564453125,2.9569642543792725,0.34683117270469666
-1.1204614639282227,2.934934139251709,0.3425145745277405
-1.140133261680603,2.9276621341705322,0.3398211598396301
-1.1325191259384155,2.8516716957092285,0.3292097747325897
-1.140272855758667,2.8153889179229736,0.323230504989624
-1.1584620475769043,2.8040621280670166,0.32010582089424133
-1.1450608968734741,2.717357873916626,0.3083832859992981
-1.1432899236679077,2.6635403633117676,0.3003346920013428
-1.1548576354980469,2.6419014930725098,0.29597216844558716
-1.1727536916732788,2.6343183517456055,0.29318124055862427
-1.187969446182251,2.619278907775879,0.28951650857925415
-1.1983133554458618,2.593493938446045,0.2846275866031647
-1.2403788566589355,2.638549327850342,0.2873774468898773
-1.2713552713394165,2.6586153507232666,0.28735101222991943
-1.289412260055542,2.650245189666748,0.2841950058937073
-1.2733535766601562,2.571838140487671,0.27354657649993896
-1.3121525049209595,2.6049704551696777,0.2746870517730713
-1.3151592016220093,2.568894863128662,0.268469899892807
-1.3051588535308838,2.508737325668335,0.25982528924942017
-1.3188769817352295,2.493102788925171,0.2557414472103119
-1.3289616107940674,2.4704320430755615,0.25093886256217957
-1.3340933322906494,2.4414455890655518,0.24538493156433105
-1.344759464263916,2.4225966930389404,0.240828275680542
-1.357367753982544,2.4069764614105225,0.2365850806236267
-1.3704259395599365,2.390958786010742,0.23222967982292175
-1.3825709819793701,2.3753132820129395,0.22784562408924103
-1.3902416229248047,2.353119373321533,0.22282366454601288
-1.3983192443847656,2.3305487632751465,0.2176884114742279
-1.430795669555664,2.3476827144622803,0.2161925584077835
-1.4340225458145142,2.318650484085083,0.21034640073776245
-1.4407154321670532,2.2964885234832764,0.20513887703418732
-1.4520689249038696,2.2804677486419678,0.2003631889820099
-1.4598615169525146,2.2573351860046387,0.1948123425245285
-1.4722621440887451,2.2449822425842285,0.1901744306087494
-1.4608744382858276,2.1968295574188232,0.18256697058677673
-1.4980055093765259,2.2192463874816895,0.18055585026741028
-1.5126134157180786,2.2096962928771973,0.17583560943603516
-1.4868426322937012,2.1426148414611816,0.16654804348945618
-1.4970883131027222,2.1263234615325928,0.161065936088562
-1.4998711347579956,2.100831985473633,0.15480390191078186
-1.513059377670288,2.091721773147583,0.14974914491176605
-1.5275598764419556,2.081550121307373,0.14416338503360748
-1.5223333835601807,2.046998977661133,0.13683965802192688
-1.498441457748413,2.114858627319336,-0.09790721535682678
-1.5025042295455933,2.154658317565918,-0.10524643212556839
-1.4998071193695068,2.1847097873687744,-0.1120234951376915
-1.4575397968292236,2.1565439701080322,-0.11560346186161041
-1.4843215942382812,2.232243061065674,-0.12472058087587357
-1.4641013145446777,2.2359352111816406,-0.1296393871307373
-1.4562057256698608,2.259366273880005,-0.1356339156627655
-1.441268801689148,2.2732245922088623,-0.14108186960220337
-1.4373184442520142,2.30304217338562,-0.14736086130142212
-1.428667426109314,2.3264241218566895,-0.15318739414215088
-1.4153255224227905,2.3433494567871094,-0.15861870348453522
-1.3986896276474,2.352992057800293,-0.16336524486541748
-1.3895987272262573,2.376126527786255,-0.1690235137939453
-1.3794236183166504,2.3997061252593994,-0.1748073846101761
-1.350677728652954,2.388833999633789,-0.17788025736808777
-1.3376226425170898,2.4047586917877197,-0.1828407198190689
-1.3273961544036865,2.4278602600097656,-0.18833127617835999
-1.3188679218292236,2.454298734664917,-0.19411198794841766
-1.3049861192703247,2.4701778888702393,-0.19901634752750397
-1.2979950904846191,2.4998815059661865,-0.20497214794158936
-1.283248782157898,2.5158796310424805,-0.20981764793395996
-1.2722113132476807,2.5385663509368896,-0.21518707275390625
-1.2268377542495728,2.4911746978759766,-0.21450674533843994
-1.1864076852798462,2.454221487045288,-0.21456988155841827
-1.1651790142059326,2.455411195755005,-0.21784554421901703
-1.1856096982955933,2.5444185733795166,-0.22892646491527557
-1.1838871240615845,2.5877418518066406,-0.23602034151554108
-1.1715123653411865,2.6100926399230957,-0.24115191400051117
-1.1855137348175049,2.6929545402526855,-0.2519952356815338
-1.1415133476257324,2.6438448429107666,-0.2504894435405731
-1.1259392499923706,2.6586129665374756,-0.25490695238113403
-1.1037702560424805,2.659120559692383,-0.2578410804271698
-1.0875136852264404,2.673858880996704,-0.2621684968471527
-1.1017961502075195,2.7642033100128174,-0.27395057678222656
-1.079275131225586,2.7643582820892334,-0.27691394090652466
-1.0677785873413086,2.7934648990631104,-0.2825841009616852
-1.0368438959121704,2.7715508937835693,-0.2831002175807953
-1.0306257009506226,2.814960479736328,-0.2902701199054718
-1.0135260820388794,2.829068899154663,-0.2944521903991699
-1.0006998777389526,2.858006000518799,-0.300101637840271
-0.9827645421028137,2.8720955848693848,-0.30414965748786926
-0.9784308075904846,2.9265506267547607,-0.312512069940567
-0.9652009606361389,2.955129623413086,-0.3181549310684204
-0.9514450430870056,2.9837238788604736,-0.32373130321502686
-0.9332895874977112,3.0013186931610107,-0.32809075713157654
-0.9209862947463989,3.0372676849365234,-0.33445897698402405
-0.901921272277832,3.0507454872131348,-0.3383643329143524
-0.8848168253898621,3.0715816020965576,-0.34308525919914246
-0.8766066431999207,3.1260809898376465,-0.35140490531921387
-0.8584674000740051,3.1468873023986816,-0.356000155210495
-0.8478877544403076,3.1976492404937744,-0.36406081914901733
-0.8265041708946228,3.206921100616455,-0.367397278547287
-0.8152266144752502,3.2575371265411377,-0.3753207325935364
-0.7976592183113098,3.2855470180511475,-0.38060981035232544
-0.7860126495361328,3.3398993015289307,-0.38900989294052124
-0.7640166878700256,3.3526418209075928,-0.3926306664943695
-0.743887186050415,3.3727524280548096,-0.3970620036125183
-0.7281771898269653,3.4155845642089844,-0.4039278030395508
-0.7126537561416626,3.4621591567993164,-0.4113011360168457
-0.6914170384407043,3.4819986820220947,-0.41553443670272827
-0.674726665019989,3.5284335613250732,-0.42301738262176514
-0.6570479273796082,3.5709495544433594,-0.4298493266105652
-0.6305825710296631,3.5675854682922363,-0.4310394823551178
-0.44277507066726685,2.6118345260620117,-0.31674522161483765
-0.6328276991844177,3.8971195220947266,-0.47438010573387146
-0.6717879772186279,4.3304338455200195,-0.5291424989700317
-0.643695056438446,4.350122928619385,-0.5331222414970398
-0.6245384812355042,4.434908390045166,-0.545112669467926
-0.5960763692855835,4.458123207092285,-0.5495942831039429
-0.5738362073898315,4.5311360359191895,-0.560264527797699
-0.5501025319099426,4.600214004516602,-0.5703945159912109
-0.5229861736297607,4.653885364532471,-0.5783090591430664
-0.48962512612342834,4.649508476257324,-0.5790284872055054
-0.4284103512763977,4.359399795532227,-0.5441047549247742
-0.38186419010162354,4.184508323669434,-0.5234553813934326
-0.352681428194046,4.186913013458252,-0.5246955752372742
-0.3235098719596863,4.19691276550293,-0.5267086625099182
-0.29771533608436584,4.249204158782959,-0.5340526103973389
-0.319580078125,5.067214488983154,-0.6378223299980164
-0.28383827209472656,5.061422824859619,-0.6380821466445923
-0.2464185655117035,5.020604610443115,-0.6334627866744995
-0.20976287126541138,4.998913288116455,-0.6311869025230408
-0.17611953616142273,5.035031318664551,-0.6362338662147522
-0.14080587029457092,5.024430274963379,-0.6354086399078369
-0.1050318256020546,4.98646879196167,-0.6310966610908508
-0.06979890912771225,4.948321342468262,-0.6262516379356384
-0.03446395695209503,4.9060564041137695,-0.620916485786438
-0.00033713853918015957,4.882918357849121,-0.6180316805839539
0.03358577936887741,4.882795333862305,-0.618089497089386
0.06703219562768936,4.851462364196777,-0.6140285730361938
0.1006372943520546,4.847071170806885,-0.613019585609436
0.13321849703788757,4.807581424713135,-0.6076048612594604
0.16831399500370026,4.837569713592529,-0.6109941005706787
0.1997181475162506,4.7821364402771,-0.6036322712898254
0.23292914032936096,4.780738353729248,-0.6028014421463013
0.220676451921463,3.9626212120056152,-0.4989357888698578
0.2445424199104309,3.9030797481536865,-0.4907640814781189
0.27268657088279724,3.9090960025787354,-0.49085551500320435
0.2992558479309082,3.8994855880737305,-0.48902031779289246
0.322395920753479,3.851120710372925,-0.48197826743125916
0.34906741976737976,3.8489573001861572,-0.48068079352378845
0.3765099048614502,3.8543217182159424,-0.4803433418273926
0.4021912217140198,3.836300849914551,-0.47709572315216064
0.4280133545398712,3.825870990753174,-0.4747947156429291
0.45406273007392883,3.8191747665405273,-0.47260764241218567
0.48052412271499634,3.8161466121673584,-0.4708985984325409
