X,Y,Z
-1.0750067234039307,2.743086338043213,-0.2019510567188263
-1.0468904972076416,2.728733539581299,-0.20273859798908234
-1.01224946975708,2.695857286453247,-0.20211268961429596
-0.9853646159172058,2.6807336807250977,-0.20273786783218384
-0.952165961265564,2.6470301151275635,-0.20192497968673706
-0.9226210117340088,2.6242926120758057,-0.20181310176849365
-0.8962714672088623,2.608544111251831,-0.20217648148536682
-0.8704988360404968,2.592456102371216,-0.20247113704681396
-0.8366177082061768,2.55018949508667,-0.20067919790744781
-0.8139076828956604,2.5410232543945312,-0.20139376819133759
-0.7873607277870178,2.5206785202026367,-0.2011566311120987
-0.764936625957489,2.5111498832702637,-0.20174184441566467
-0.7363342046737671,2.4789443016052246,-0.2004646211862564
-0.7071153521537781,2.4427318572998047,-0.19883307814598083
-0.6929442882537842,2.4588024616241455,-0.2013101428747177
-0.6682618260383606,2.4372448921203613,-0.20069970190525055
-0.6428387761116028,2.411722183227539,-0.1997513771057129
-0.626036524772644,2.4160149097442627,-0.20124025642871857
-0.6034436821937561,2.397554636001587,-0.20078177750110626
-0.5818819403648376,2.382734537124634,-0.2005048543214798
-0.5578494071960449,2.3563714027404785,-0.19924768805503845
-0.5428211688995361,2.3677573204040527,-0.20118899643421173
-0.5229144096374512,2.3561770915985107,-0.20116738975048065
-0.49651673436164856,2.3140275478363037,-0.1984243094921112
-0.4880477786064148,2.3555006980895996,-0.20279017090797424
-0.46380072832107544,2.320619821548462,-0.20059064030647278
-0.4436913728713989,2.3046395778656006,-0.2000178098678589
-0.42908450961112976,2.3152289390563965,-0.2017422765493393
-0.4073610007762909,2.2874507904052734,-0.19998838007450104
-0.3860360085964203,2.2594902515411377,-0.19817931950092316
-0.36769524216651917,2.246699094772339,-0.19769524037837982
-0.3451911211013794,2.2068729400634766,-0.19483163952827454
-0.3252502381801605,2.1783547401428223,-0.19294390082359314
-0.3121647536754608,2.1959316730499268,-0.19498063623905182
-0.30198797583580017,2.2365658283233643,-0.1990809589624405
-0.28880825638771057,2.2578604221343994,-0.20148180425167084
-0.27075526118278503,2.2404403686523438,-0.20043517649173737
-0.2513464093208313,2.2113163471221924,-0.1983347088098526
-0.23500987887382507,2.205242156982422,-0.19813577830791473
-0.21954119205474854,2.206791400909424,-0.19863034784793854
-0.20413853228092194,2.2082252502441406,-0.19912248849868774
-0.1861152946949005,2.178536891937256,-0.19681181013584137
-0.17126329243183136,2.1875176429748535,-0.197977215051651
-0.1565214842557907,2.1963951587677,-0.1989843100309372
-0.1401674747467041,2.1818783283233643,-0.19788096845149994
-0.1238580271601677,2.1633543968200684,-0.19641955196857452
-0.10919942706823349,2.1719071865081787,-0.19742459058761597
-0.09467727690935135,2.1920337677001953,-0.1994611620903015
-0.07898477464914322,2.1809654235839844,-0.19852770864963531
-0.0637732744216919,2.1814515590667725,-0.198655366897583
-0.04826904088258743,2.166273593902588,-0.1973651796579361
-0.03274025768041611,2.135427713394165,-0.19465495645999908
-0.017770634964108467,2.151158094406128,-0.19615881145000458
-0.002828211523592472,2.1590147018432617,-0.19681493937969208
0.012047025375068188,2.1356465816497803,-0.19463446736335754
0.027203822508454323,2.1588547229766846,-0.19670823216438293
0.042208947241306305,2.158618450164795,-0.19665493071079254
0.05702069774270058,2.150503635406494,-0.19585184752941132
0.07275310903787613,2.1656196117401123,-0.1970359832048416
0.08715743571519852,2.1495349407196045,-0.1953943967819214
0.10209895670413971,2.148897409439087,-0.19516751170158386
0.11744039505720139,2.155926465988159,-0.19564595818519592
0.1338443160057068,2.1783814430236816,-0.19748666882514954
0.1481158286333084,2.1618967056274414,-0.19567370414733887
0.16309180855751038,2.1608545780181885,-0.19527529180049896
0.1787373572587967,2.1674604415893555,-0.19557562470436096
0.1955414116382599,2.1855766773223877,-0.19692003726959229
0.20998692512512207,2.176459789276123,-0.19576703011989594
0.22692763805389404,2.1904587745666504,-0.19656769931316376
0.24208061397075653,2.1888880729675293,-0.19598586857318878
0.25818830728530884,2.194934606552124,-0.19609232246875763
0.2734288275241852,2.1931405067443848,-0.19550621509552002
0.29168710112571716,2.214395046234131,-0.19692088663578033
0.3050954341888428,2.1969428062438965,-0.1947813332080841
0.32024088501930237,2.1948530673980713,-0.19402801990509033
0.3390348255634308,2.21571946144104,-0.1953025758266449
0.3581344187259674,2.2364306449890137,-0.1965610533952713
0.3710741400718689,2.2186126708984375,-0.19436824321746826
0.391055166721344,2.2429192066192627,-0.19577594101428986
0.40609484910964966,2.2363734245300293,-0.19448037445545197
0.4281497895717621,2.2679970264434814,-0.19651001691818237
0.44841837882995605,2.2879631519317627,-0.19752098619937897
0.46114957332611084,2.269636869430542,-0.19514517486095428
0.4815624952316284,2.2893621921539307,-0.1959799826145172
0.4942978024482727,2.2708117961883545,-0.19352814555168152
0.5169367790222168,2.297795295715332,-0.19496692717075348
0.5311663746833801,2.2866525650024414,-0.19317160546779633
0.5514512062072754,2.301973819732666,-0.1935035139322281
0.5691153407096863,2.3058013916015625,-0.19282792508602142
0.596795916557312,2.3471453189849854,-0.19525432586669922
0.6190707683563232,2.3656394481658936,-0.19576573371887207
0.6406005024909973,2.3801817893981934,-0.1959429532289505
0.6610462665557861,2.3908751010894775,-0.19564564526081085
0.6774301528930664,2.3864104747772217,-0.1941063106060028
0.6985877156257629,2.3966619968414307,-0.19373397529125214
0.7264422178268433,2.429173707962036,-0.19515694677829742
0.7467083930969238,2.4353766441345215,-0.194407656788826
0.7703484892845154,2.452648639678955,-0.19443897902965546
0.7918934226036072,2.4622886180877686,-0.19385240972042084
0.8214895129203796,2.493765115737915,-0.19491977989673615
0.8450654745101929,2.5065813064575195,-0.1945292055606842
0.8723890781402588,2.5303432941436768,-0.1948717087507248
0.8896030783653259,2.5244953632354736,-0.19288524985313416
0.9201555848121643,2.5551257133483887,-0.19365669786930084
0.952757716178894,2.589026689529419,-0.194616436958313
0.984749436378479,2.618863582611084,-0.1951766163110733
1.0108916759490967,2.63411021232605,-0.19455915689468384
1.041568398475647,2.660001277923584,-0.19469866156578064
1.0629873275756836,2.660081386566162,-0.1928858757019043
1.1094924211502075,2.721339225769043,-0.19546471536159515
1.140304684638977,2.742555856704712,-0.19498223066329956
1.1679675579071045,2.75648832321167,-0.19396917521953583
1.1390330791473389,2.637608289718628,-0.18364888429641724
1.1542240381240845,2.6226539611816406,-0.1806425154209137
1.1625717878341675,2.5935254096984863,-0.17663443088531494
1.168953776359558,2.5608601570129395,-0.17235250771045685
1.1913573741912842,2.5635926723480225,-0.17047461867332458
1.2192201614379883,2.5765421390533447,-0.1692153811454773
1.2758082151412964,2.649090051651001,-0.17175975441932678
1.483992099761963,3.029391288757324,-0.19381307065486908
1.55886709690094,3.1274595260620117,-0.1973048895597458
1.5947474241256714,3.1445610523223877,-0.19555729627609253
1.6358915567398071,3.171926736831665,-0.1943657249212265
1.4288544654846191,2.7258455753326416,-0.16449113190174103
1.432705283164978,2.6887028217315674,-0.15968474745750427
1.4551342725753784,2.685697555541992,-0.1568712294101715
1.466102957725525,2.6621155738830566,-0.15278306603431702
1.476130723953247,2.638885259628296,-0.1487695425748825
1.4537724256515503,2.557615041732788,-0.14148153364658356
1.457952618598938,2.523921012878418,-0.13689155876636505
1.4667775630950928,2.5009000301361084,-0.13289660215377808
1.3758563995361328,2.3100333213806152,-0.12013702839612961
1.3495386838912964,2.230410099029541,-0.11337459832429886
1.372810959815979,2.2346608638763428,-0.11093440651893616
1.3626651763916016,2.1860146522521973,-0.10588741302490234
1.373464584350586,2.170166254043579,-0.10236755013465881
1.3927992582321167,2.167248010635376,-0.09937380999326706
1.4025462865829468,2.1517863273620605,-0.09584446251392365
1.417096495628357,2.142380475997925,-0.09246677905321121
1.4318679571151733,2.1326839923858643,-0.0889914408326149
1.4301906824111938,2.1009716987609863,-0.08462657779455185
1.4313275814056396,2.071932315826416,-0.08021916449069977
1.4453569650650024,2.0623090267181396,-0.07656297832727432
1.4539121389389038,2.046847343444824,-0.0727023184299469
1.4771456718444824,2.049565553665161,-0.06919192522764206
1.471996545791626,2.0148353576660156,-0.06441054493188858
1.4805365800857544,1.9989848136901855,-0.060122065246105194
2.5076682567596436,3.5096077919006348,0.16005536913871765
3.1288158893585205,4.446938514709473,0.21012304723262787
2.245833158493042,3.2446019649505615,0.15849383175373077
2.214212656021118,3.24711537361145,0.1632939726114273
2.1788487434387207,3.2472026348114014,0.1678679883480072
2.154348134994507,3.263235569000244,0.1731070727109909
2.1395599842071533,3.2913169860839844,0.17877495288848877
1.6292599439620972,2.5476081371307373,0.14147210121154785
1.6391535997390747,2.605811834335327,0.1477765589952469
1.6045089960098267,2.5904440879821777,0.14972083270549774
3.0231847763061523,4.960412979125977,0.29196280241012573
2.9730117321014404,4.9629902839660645,0.29734012484550476
2.9614148139953613,5.0239667892456055,0.30586954951286316
2.922349452972412,5.037405490875244,0.3114643394947052
2.820955753326416,4.946871280670166,0.31033849716186523
2.7688140869140625,4.940145015716553,0.31432634592056274
2.6940207481384277,4.887667179107666,0.31514662504196167
2.620443820953369,4.834211826324463,0.31569424271583557
2.567877769470215,4.822280406951904,0.3187177777290344
2.5177948474884033,4.813109397888184,0.3218579888343811
2.4538066387176514,4.771310806274414,0.3225705027580261
2.3827850818634033,4.715292930603027,0.3222809433937073
2.3201828002929688,4.676573276519775,0.32282814383506775
1.2409454584121704,2.548177719116211,0.17764028906822205
1.2264573574066162,2.5636720657348633,0.18037381768226624
1.2019054889678955,2.5578978061676025,0.181611567735672
1.186606526374817,2.573464870452881,0.18426956236362457
1.164149522781372,2.574993133544922,0.1859256625175476
1.1583373546600342,2.611609935760498,0.1900731325149536
1.1260731220245361,2.5873231887817383,0.1897597759962082
2.0610849857330322,4.828077793121338,0.35676437616348267
2.04087233543396,4.878664016723633,0.36298370361328125
2.0119707584381104,4.911445617675781,0.36797210574150085
1.9832252264022827,4.939663887023926,0.3725164532661438
2.4194529056549072,6.149714469909668,0.4667835235595703
2.3757100105285645,6.166429042816162,0.4709365963935852
2.3048110008239746,6.113922595977783,0.46960559487342834
1.9752912521362305,5.359134674072266,0.4140315055847168
1.9404957294464111,5.379858493804932,0.41791820526123047
1.952171802520752,5.532608509063721,0.4321439862251282
2.0717251300811768,6.006365776062012,0.4715479612350464
2.0134189128875732,5.976592063903809,0.4714117646217346
1.9646170139312744,5.976145267486572,0.47363126277923584
1.904919981956482,5.933851718902588,0.47242528200149536
1.8832887411117554,6.009922504425049,0.4806632995605469
1.854620337486267,6.067470073699951,0.4873795211315155
1.820991039276123,6.113994598388672,0.49301376938819885
1.7922126054763794,6.1790452003479,0.5001941919326782
1.7594774961471558,6.232730388641357,0.5065070986747742
1.7262808084487915,6.282164573669434,0.5124698877334595
1.697507619857788,6.350244045257568,0.5200077295303345
1.669686198234558,6.429845809936523,0.5281700491905212
0.8222882151603699,3.262239933013916,0.26880908012390137
1.5502020120620728,6.343081474304199,0.524337887763977
0.7992562055587769,3.3718695640563965,0.2795924246311188
1.4399648904800415,6.2687668800354,0.5214262008666992
1.4009792804718018,6.301338195800781,0.5255997776985168
1.3446879386901855,6.25767707824707,0.5232318639755249
1.2978339195251465,6.259434223175049,0.5246976017951965
1.2378811836242676,6.188042640686035,0.5199997425079346
1.1822454929351807,6.1313581466674805,0.5165237784385681
1.1352741718292236,6.116307735443115,0.5165616869926453
1.0893038511276245,6.108706474304199,0.5169156193733215
1.050459623336792,6.146963596343994,0.5211411118507385
0.9886756539344788,6.042708396911621,0.5132797360420227
0.9411759376525879,6.0147013664245605,0.5118796825408936
0.9067638516426086,6.071021556854248,0.5176838636398315
0.851808488368988,5.988436222076416,0.5116105079650879
0.8109056949615479,6.009723663330078,0.5140849947929382
0.7645614147186279,5.98430871963501,0.5125772356987
0.6152620315551758,5.100684642791748,0.4374784827232361
0.5678911209106445,5.000345230102539,0.4294620156288147
0.5504471659660339,5.166636943817139,0.4443727731704712
0.5182244181632996,5.209007263183594,0.4485733211040497
0.37619102001190186,4.0770063400268555,0.3513743579387665
0.35121265053749084,4.122157573699951,0.3555639982223511
0.3281311094760895,4.198189735412598,0.3624425530433655
0.29699599742889404,4.173150539398193,0.36061450839042664
0.2674715220928192,4.16730260848999,0.3604593873023987
0.2390570342540741,4.188485145568848,0.3625425100326538
0.3901651203632355,7.793151378631592,0.6747406721115112
0.33442452549934387,7.764542102813721,0.6724845170974731
0.27868133783340454,7.723868370056152,0.6692139506340027
0.22424794733524323,7.702243328094482,0.6676232814788818
0.1686590313911438,7.656911373138428,0.6640132665634155
0.11491967737674713,7.6306471824646,0.6618272662162781
0.061274901032447815,7.58457088470459,0.6577075123786926
0.008426335640251637,7.600386619567871,0.6589875221252441
-0.044241830706596375,7.561351299285889,0.6555439829826355
-0.09719786047935486,7.525834083557129,0.6524373888969421
-0.14895251393318176,7.5016398429870605,0.6503446102142334
-0.2005951702594757,7.484892845153809,0.6486619114875793
-0.2518807649612427,7.467813968658447,0.6467662453651428
-0.3025422692298889,7.438716411590576,0.6438624858856201
-0.35614436864852905,7.479248523712158,0.6470157504081726
-0.29702597856521606,5.42868709564209,0.4693857431411743
-0.3347693383693695,5.426524639129639,0.4689859449863434
-0.3702264428138733,5.393065929412842,0.4656963050365448
-0.4063171148300171,5.374919414520264,0.46361351013183594
-0.44275984168052673,5.364293575286865,0.4622044563293457
-0.47399479150772095,5.287448883056641,0.4551088511943817
-0.4467151165008545,4.621640682220459,0.39741069078445435
-0.47838881611824036,4.614612102508545,0.39643633365631104
-0.5076391100883484,4.5880632400512695,0.3936122953891754
-0.5373992919921875,4.569076061248779,0.3913624882698059
-0.5674325823783875,4.549834728240967,0.3891039192676544
-0.5989331603050232,4.54587459564209,0.3881792426109314
-0.6262170076370239,4.510839939117432,0.3846219778060913
-0.6586630940437317,4.514162063598633,0.384356826543808
-0.6897095441818237,4.509620666503906,0.383211612701416
-0.7155894041061401,4.470214366912842,0.3790518343448639
-0.744909942150116,4.457630157470703,0.37720605731010437
-0.7758306860923767,4.452455043792725,0.37599629163742065
-0.8039805889129639,4.431735515594482,0.3734935224056244
-0.34489142894744873,1.8286014795303345,0.15380461513996124
-0.3588709235191345,1.8338944911956787,0.15384303033351898
-0.3762652575969696,1.8542981147766113,0.15513862669467926
-0.3889365792274475,1.8517333269119263,0.1545218676328659
-0.39683103561401367,1.8262110948562622,0.15199533104896545
-0.4060782194137573,1.8082700967788696,0.15011589229106903
-0.42208126187324524,1.820646047592163,0.15073324739933014
-0.42922547459602356,1.7950230836868286,0.14812567830085754
-0.4330196678638458,1.7580989599227905,0.14461638033390045
-0.46133431792259216,1.8193131685256958,0.14917394518852234
-0.4779062569141388,1.8311936855316162,0.1496659815311432
-0.4906274080276489,1.8278874158859253,0.14892001450061798
-0.50334233045578,1.8244942426681519,0.1480948030948639
-1.1873674392700195,4.193050861358643,0.3390350043773651
-1.217924952507019,4.192546367645264,0.3376886248588562
-1.2447125911712646,4.176704406738281,0.3350938856601715
-1.2623891830444336,4.1308465003967285,0.3301140069961548
-1.2937678098678589,4.129455089569092,0.3286508619785309
-1.3263888359069824,4.1356329917907715,0.3276313841342926
-1.3542557954788208,4.126765727996826,0.32543155550956726
-1.3824769258499146,4.117573261260986,0.3231988847255707
-1.400998830795288,4.078547477722168,0.31862470507621765
-1.4319192171096802,4.076229572296143,0.316943883895874
-1.4678239822387695,4.088476181030273,0.31617239117622375
-1.4926148653030396,4.071382999420166,0.3131343126296997
-1.514689326286316,4.04677677154541,0.3095305562019348
-1.5399911403656006,4.029068946838379,0.3064338266849518
-1.5707851648330688,4.025722503662109,0.304444283246994
-1.592651128768921,4.00055456161499,0.30065202713012695
-1.6222753524780273,3.9972481727600098,0.2984912395477295
-1.6461362838745117,3.979250192642212,0.2952346205711365
-1.6677736043930054,3.9535248279571533,0.29135915637016296
-1.6983706951141357,3.9491710662841797,0.28907641768455505
-1.7222931385040283,3.9305050373077393,0.28557896614074707
-1.7341604232788086,3.8871164321899414,0.2803039848804474
-1.7636016607284546,3.8826262950897217,0.2778318524360657
-1.7873632907867432,3.8633763790130615,0.27424705028533936
-1.8176182508468628,3.8580737113952637,0.2716630697250366
-1.830162763595581,3.817809581756592,0.266437292098999
-1.8520426750183105,3.7987921237945557,0.2627671957015991
-1.8780324459075928,3.7862374782562256,0.2594839632511139
-1.9008595943450928,3.766324043273926,0.255672425031662
-1.9299678802490234,3.760488271713257,0.2527509331703186
-1.9510948657989502,3.7410082817077637,0.2488315999507904
-1.9837689399719238,3.741685628890991,0.24617798626422882
-1.9913684129714966,3.693641185760498,0.2402675598859787
-2.0468478202819824,3.734743356704712,0.24013443291187286
-1.718532681465149,3.0875799655914307,0.1961050182580948
-1.7350083589553833,3.0695929527282715,0.1925416886806488
-0.84727543592453,1.4745965003967285,0.0912383422255516
-0.8535047769546509,1.4620712995529175,0.0892285630106926
-0.8550330996513367,1.4431681632995605,0.08680136501789093
-0.8725351691246033,1.4509912729263306,0.08597144484519958
-0.8745308518409729,1.431636095046997,0.08345076441764832
-0.9008979797363281,1.45215904712677,0.08320982754230499
-0.9019760489463806,1.4331825971603394,0.08069365471601486
-0.9115908741950989,1.4271881580352783,0.07887142151594162
-0.8917840123176575,1.3750715255737305,0.07449987530708313
-0.900699257850647,1.369347095489502,0.07266182452440262
-0.9226675629615784,1.3829809427261353,0.07177876681089401
-2.414041519165039,3.5642380714416504,0.18053390085697174
-1.458748698234558,2.094835042953491,0.10072639584541321
-1.2097344398498535,1.7118194103240967,0.07986845076084137
-1.3558109998703003,1.9250668287277222,-0.06424715369939804
-1.3017067909240723,1.877013921737671,-0.06570599228143692
-1.2721279859542847,1.8640692234039307,-0.06821433454751968
-1.208945631980896,1.7982923984527588,-0.06844046711921692
-1.2363892793655396,1.869036316871643,-0.07382111251354218
-1.226714849472046,1.8846036195755005,-0.07706991583108902
-1.2219198942184448,1.906173586845398,-0.08043920248746872
-1.1076428890228271,1.7566720247268677,-0.07638216763734818
-1.1813483238220215,1.903831958770752,-0.08511574566364288
-2.138549566268921,3.677332878112793,-0.1810944527387619
-0.8001812696456909,1.3990836143493652,-0.07036691904067993
-0.9256303906440735,1.6463686227798462,-0.08450604230165482
-1.7106379270553589,3.0939414501190186,-0.16188950836658478
-1.999988317489624,3.6782479286193848,-0.19602246582508087
-1.9967869520187378,3.7373664379119873,-0.20270416140556335
-1.897286057472229,3.6132357120513916,-0.19929705560207367
-1.8309043645858765,3.5464138984680176,-0.19875745475292206
-1.7804334163665771,3.510669231414795,-0.19985473155975342
-1.7148569822311401,3.4429962635040283,-0.19893178343772888
-1.6029589176177979,3.276167631149292,-0.19200225174427032
-1.503954291343689,3.128904342651367,-0.18591633439064026
-1.4598183631896973,3.0935771465301514,-0.18624605238437653
-1.4373093843460083,3.103916883468628,-0.18926361203193665
-1.452079176902771,3.1956472396850586,-0.1972903162240982
-1.4138809442520142,3.169890880584717,-0.19803687930107117
-1.3677411079406738,3.1261446475982666,-0.19752196967601776
-1.3251651525497437,3.0891664028167725,-0.1973351091146469
-1.2821778059005737,3.047943115234375,-0.1967722475528717
-1.2546144723892212,3.042356252670288,-0.1984846293926239
-1.2199127674102783,3.0184547901153564,-0.19887979328632355
-1.1781389713287354,2.9762134552001953,-0.19796977937221527
-1.1443265676498413,2.951615810394287,-0.19816939532756805
-1.1098946332931519,2.922914743423462,-0.19802917540073395
-1.0767632722854614,2.897725820541382,-0.1980915516614914
-1.045345425605774,2.875901460647583,-0.19821907579898834
-1.0247385501861572,2.883161783218384,-0.20034490525722504
-0.9892435073852539,2.8459157943725586,-0.19932293891906738
-0.9555723667144775,2.8120107650756836,-0.19849802553653717
-0.9327326416969299,2.8113210201263428,-0.1999034881591797
-0.8982235789299011,2.773285388946533,-0.1985866278409958
-0.8727909922599792,2.7608346939086914,-0.19906176626682281
-0.8420546650886536,2.729480504989624,-0.19814062118530273
-0.8206628561019897,2.7277262210845947,-0.19931040704250336
-0.7913743853569031,2.699723482131958,-0.1984512209892273
-0.7675437331199646,2.6902716159820557,-0.1989648938179016
-0.7425496578216553,2.672907590866089,-0.1988404095172882
-0.7127290964126587,2.6365280151367188,-0.19728459417819977
-0.6941447257995605,2.641375780105591,-0.1986996829509735
-0.6696184277534485,2.623479127883911,-0.19835710525512695
-0.6433131694793701,2.597853660583496,-0.19743049144744873
-0.6197643280029297,2.579439878463745,-0.19701193273067474
-0.5991540551185608,2.572207450866699,-0.19744394719600677
-0.5792792439460754,2.5686824321746826,-0.19800737500190735
-0.551194429397583,2.526946783065796,-0.19561071693897247
-0.537970781326294,2.5535950660705566,-0.19852013885974884
-0.5123863816261292,2.5190305709838867,-0.19665664434432983
-0.4947916269302368,2.5224616527557373,-0.1977275311946869
-0.47046560049057007,2.491375684738159,-0.19595706462860107
-0.4549725353717804,2.506054162979126,-0.1977889984846115
-0.43649280071258545,2.505311965942383,-0.19842074811458588
-0.4113509953022003,2.462122917175293,-0.19567269086837769
-0.39541110396385193,2.4725534915924072,-0.19712986052036285
-0.37923189997673035,2.482907295227051,-0.19847440719604492
-0.3561744689941406,2.4469170570373535,-0.19611819088459015
-0.33509692549705505,2.4223198890686035,-0.19467535614967346
-0.31974226236343384,2.436119556427002,-0.19631552696228027
-0.2965025007724762,2.3880057334899902,-0.1929032802581787
-0.28154632449150085,2.405453681945801,-0.19469332695007324
-0.26638081669807434,2.4228055477142334,-0.1964896321296692
-0.2495184987783432,2.424556016921997,-0.19702985882759094
-0.2316494584083557,2.418461799621582,-0.1969469040632248
-0.2134426385164261,2.4044642448425293,-0.1961427479982376
-0.19536815583705902,2.390345811843872,-0.19523608684539795
-0.17868244647979736,2.3916218280792236,-0.1955944150686264
-0.16253535449504852,2.4005484580993652,-0.19658848643302917
-0.14505700767040253,2.3938374519348145,-0.1963159739971161
-0.12753276526927948,2.3792171478271484,-0.19531911611557007
-0.11091413348913193,2.380034923553467,-0.1954999715089798
-0.09321180731058121,2.353505849838257,-0.1934426724910736
-0.07630714029073715,2.3385190963745117,-0.1923408806324005
-0.06014649569988251,2.354553461074829,-0.19380226731300354
-0.04331999272108078,2.331552267074585,-0.19198249280452728
-0.02718573436141014,2.3395822048187256,-0.19262878596782684
-0.010884993709623814,2.339714288711548,-0.19263409078121185
0.005413694307208061,2.3475191593170166,-0.193280428647995
0.021922562271356583,2.3396360874176025,-0.19264473021030426
0.038303736597299576,2.3472177982330322,-0.1932222843170166
0.05505603551864624,2.3663690090179443,-0.19465865194797516
0.071135513484478,2.354269027709961,-0.19353315234184265
0.0869460254907608,2.3381686210632324,-0.1920892596244812
0.10388920456171036,2.3530783653259277,-0.19320251047611237
0.1201217919588089,2.3445279598236084,-0.19233189523220062
0.13728046417236328,2.35921311378479,-0.19327017664909363
0.15312987565994263,2.350461959838867,-0.19229692220687866
0.16890548169612885,2.341601848602295,-0.19132503867149353
0.1864079385995865,2.3559234142303467,-0.19225578010082245
0.20337645709514618,2.3584601879119873,-0.1921675205230713
0.21788331866264343,2.3376543521881104,-0.1900843232870102
0.23601405322551727,2.3555006980895996,-0.19115279614925385
0.2531984746456146,2.361588716506958,-0.19127093255519867
0.2687314748764038,2.3520753383636475,-0.1901341825723648
0.2853078544139862,2.350168466567993,-0.1895591914653778
0.2980605363845825,2.3211607933044434,-0.18671421706676483
0.31512975692749023,2.326817750930786,-0.18667079508304596
0.33349084854125977,2.340045213699341,-0.18723571300506592
0.3503425717353821,2.3415729999542236,-0.1868688464164734
0.36928844451904297,2.3544883728027344,-0.1873462200164795
0.3842557668685913,2.344265937805176,-0.18590271472930908
0.40435096621513367,2.3646585941314697,-0.1868918091058731
0.41805747151374817,2.3465189933776855,-0.1848369538784027
0.4386287331581116,2.3665971755981445,-0.1857994943857193
0.45501741766929626,2.363572597503662,-0.1848836988210678
0.47611647844314575,2.3833279609680176,-0.1856541484594345
0.4980386197566986,2.406771421432495,-0.18671706318855286
0.5164119601249695,2.4109437465667725,-0.18627452850341797
0.5416057705879211,2.445401191711426,-0.188166543841362
0.5637151002883911,2.464468479156494,-0.1887783259153366
0.5889843702316284,2.4946837425231934,-0.1901509016752243
0.6061174869537354,2.4906694889068604,-0.18892641365528107
0.6310315728187561,2.516711950302124,-0.18996740877628326
0.6582849025726318,2.5500729084014893,-0.19154484570026398
0.6757900714874268,2.545593023300171,-0.190169557929039
0.6986334323883057,2.559725046157837,-0.19013091921806335
0.7225675582885742,2.5774667263031006,-0.19036352634429932
0.7448362112045288,2.5874502658843994,-0.19000360369682312
0.7694616913795471,2.6047303676605225,-0.19017265737056732
0.792881429195404,2.6181795597076416,-0.18991494178771973
0.8249470591545105,2.6573798656463623,-0.19148045778274536
0.8527626395225525,2.6814396381378174,-0.19193598628044128
0.875045895576477,2.6866719722747803,-0.19102458655834198
0.9034563899040222,2.71026349067688,-0.19135943055152893
0.9319623708724976,2.733689069747925,-0.19157367944717407
0.9595459699630737,2.753171920776367,-0.19149138033390045
0.9869146347045898,2.7684597969055176,-0.19104072451591492
1.01951265335083,2.798281192779541,-0.19159932434558868
1.0413097143173218,2.7987048625946045,-0.19003137946128845
1.0810537338256836,2.8463783264160156,-0.19162069261074066
1.1034599542617798,2.8462772369384766,-0.18994252383708954
1.142290472984314,2.8856492042541504,-0.19082482159137726
1.1855605840682983,2.9356839656829834,-0.19234317541122437
1.215821385383606,2.9529764652252197,-0.1915961503982544
1.2569994926452637,2.9951353073120117,-0.19241684675216675
1.2456343173980713,2.9111714363098145,-0.18511304259300232
1.1430071592330933,2.6200644969940186,-0.1648503690958023
1.1432244777679443,2.573239326477051,-0.16012229025363922
1.1685621738433838,2.583390235900879,-0.1589636504650116
1.1832051277160645,2.5682737827301025,-0.15619482100009918
1.2077072858810425,2.5742292404174805,-0.15470238029956818
1.2320655584335327,2.5801074504852295,-0.1530977338552475
1.5936377048492432,3.280700206756592,-0.19219809770584106
1.6318446397781372,3.3012607097625732,-0.1908312737941742
1.7161717414855957,3.4119725227355957,-0.19454355537891388
1.7924352884292603,3.5047194957733154,-0.19697846472263336
1.4054899215698242,2.7035984992980957,-0.14972974359989166
1.4171648025512695,2.680013656616211,-0.14609503746032715
1.44316565990448,2.683990478515625,-0.14399434626102448
1.4535002708435059,2.6607890129089355,-0.14039786159992218
1.4275633096694946,2.5727641582489014,-0.1334630399942398
1.4013714790344238,2.4847218990325928,-0.12655897438526154
1.3624882698059082,2.376786231994629,-0.11876426637172699
1.3330118656158447,2.2902865409851074,-0.11222168058156967
1.334517240524292,2.257862091064453,-0.10838822275400162
1.338133692741394,2.228579521179199,-0.10468292236328125
1.3448454141616821,2.2063987255096436,-0.10132753849029541
1.3636125326156616,2.2041618824005127,-0.09884665161371231
1.3706287145614624,2.181516170501709,-0.09535206854343414
1.3728595972061157,2.152508497238159,-0.09160923957824707
1.3953320980072021,2.156752824783325,-0.0892825648188591
1.395068883895874,2.124427318572998,-0.08532906323671341
1.420636534690857,2.131040334701538,-0.08285246789455414
1.41465425491333,2.0928516387939453,-0.07869227230548859
1.4333282709121704,2.0897018909454346,-0.07571985572576523
1.4429367780685425,2.073688268661499,-0.07222330570220947
1.4651055335998535,2.0773394107818604,-0.06940372288227081
1.4752123355865479,2.0606954097747803,-0.06557151675224304
1.4564162492752075,2.0069611072540283,-0.060693949460983276
1.4742242097854614,2.0037286281585693,-0.057256389409303665
2.4913508892059326,3.5123112201690674,0.14429804682731628
2.4775147438049316,3.5504310131073,0.15118694305419922
2.231454849243164,3.245760917663574,0.14257782697677612
2.202082395553589,3.2561123371124268,0.14739112555980682
2.1669695377349854,3.2559468746185303,0.15145619213581085
2.144150972366333,3.2708067893981934,0.15596124529838562
2.1299731731414795,3.303086280822754,0.1612318456172943
1.6329028606414795,2.573791265487671,0.12842614948749542
1.631137490272522,2.611630916595459,0.13300810754299164
1.583268642425537,2.5768535137176514,0.13377662003040314
3.016622304916382,4.993398666381836,0.2640753388404846
2.961639165878296,4.980563163757324,0.2678600549697876
2.9517385959625244,5.044994354248047,0.2757822275161743
2.872263193130493,4.996061325073242,0.27743104100227356
2.7916386127471924,4.938436985015869,0.2782852351665497
2.7248668670654297,4.899557590484619,0.2799317538738251
2.665179967880249,4.874278545379639,0.28219208121299744
2.6030280590057373,4.845567226409912,0.2841111421585083
2.5366110801696777,4.805532932281494,0.2852415442466736
2.495854139328003,4.808994770050049,0.2887592017650604
2.4239847660064697,4.753596305847168,0.28859445452690125
2.3626418113708496,4.718790054321289,0.28951361775398254
2.3044865131378174,4.686445713043213,0.2904631197452545
1.2297180891036987,2.546133041381836,0.1593753546476364
1.2066590785980225,2.5440707206726074,0.16074968874454498
1.1879602670669556,2.5527305603027344,0.1627291440963745
1.1773781776428223,2.578951358795166,0.16584046185016632
1.15616774559021,2.5798635482788086,0.1672741323709488
1.1475396156311035,2.609168767929077,0.1705661118030548
2.0790350437164307,4.823106288909912,0.31771406531333923
2.046807050704956,4.845118522644043,0.3215097188949585
2.0181667804718018,4.873785495758057,0.3257201313972473
2.00030779838562,4.927245140075684,0.3315744996070862
1.980168342590332,4.977139949798584,0.3372079133987427
2.02117919921875,5.191208839416504,0.3539125621318817
2.0112602710723877,5.27836275100708,0.36205944418907166
1.9780527353286743,5.303166389465332,0.36592450737953186
1.9624375104904175,5.375194549560547,0.3730674088001251
1.9271740913391113,5.3960041999816895,0.3766326606273651
1.909262776374817,5.472391128540039,0.383940190076828
1.8772507905960083,5.50796365737915,0.3883984684944153
1.918476939201355,5.761197566986084,0.40826767683029175
1.9289332628250122,5.929872989654541,0.42228177189826965
1.8967959880828857,5.972740650177002,0.42736679315567017
1.8703930377960205,6.0420823097229,0.4341568946838379
1.8381885290145874,6.092475414276123,0.4396057724952698
1.811596393585205,6.161189079284668,0.4463958442211151
1.7868508100509644,6.237153053283691,0.45374441146850586
1.7538037300109863,6.2867889404296875,0.45922961831092834
1.720077633857727,6.340342044830322,0.46472176909446716
1.6877617835998535,6.405266284942627,0.4710938334465027
1.6421815156936646,6.416922569274902,0.47354745864868164
1.5936226844787598,6.412918567657471,0.47483494877815247
1.5370415449142456,6.374447345733643,0.47357526421546936
0.7881259322166443,3.372689723968506,0.2513229250907898
1.4259042739868164,6.308069705963135,0.4713517129421234
1.367587685585022,6.2570271492004395,0.4688175320625305
1.3253542184829712,6.273924827575684,0.4713633358478546
1.2785253524780273,6.267584800720215,0.47217750549316406
1.216055989265442,6.180629730224609,0.4669182300567627
1.1634966135025024,6.147010803222656,0.46534955501556396
1.1212689876556396,6.162652969360352,0.46750691533088684
1.0722990036010742,6.139610767364502,0.4667465090751648
1.0199378728866577,6.089173793792725,0.46389535069465637
0.9764087200164795,6.088299751281738,0.4648304879665375
0.9272282123565674,6.056471824645996,0.4633130431175232
0.8817476630210876,6.043490409851074,0.4629988670349121
0.8348296284675598,6.018604755401611,0.46179094910621643
0.7830199599266052,5.950841426849365,0.45729860663414
0.7386341094970703,5.932877540588379,0.4566407799720764
0.5928375124931335,5.048087120056152,0.3891720771789551
0.5577138066291809,5.059864044189453,0.3905697464942932
0.5328524708747864,5.168218612670898,0.39932042360305786
0.39712315797805786,4.13665246963501,0.31994137167930603
0.3616792559623718,4.0655741691589355,0.3147754967212677
0.34295862913131714,4.1843976974487305,0.3243304193019867
0.31185996532440186,4.16726016998291,0.3233780264854431
0.28326621651649475,4.177081108093262,0.3243308663368225
0.25403356552124023,4.178938388824463,0.324624627828598
0.2266274094581604,4.215593338012695,0.327639102935791
0.36347663402557373,7.768854141235352,0.6041359901428223
0.3079354465007782,7.75562047958374,0.6034761071205139
0.25283730030059814,7.722501277923584,0.6012900471687317
0.19806204736232758,7.685132026672363,0.5983887314796448
0.1438780426979065,7.651275157928467,0.595744252204895
0.09023497253656387,7.628720283508301,0.5940088033676147
0.036092959344387054,7.598006248474121,0.5916674733161926
-0.016691477969288826,7.574700355529785,0.5899306535720825
-0.06929270178079605,7.566606521606445,0.5894066095352173
-0.12141551822423935,7.538712024688721,0.5869261026382446
-0.1728847175836563,7.498780250549316,0.5835378766059875
-0.22458286583423615,7.481853008270264,0.5819696187973022
-0.27646586298942566,7.452863693237305,0.5794892311096191
-0.32823315262794495,7.450790882110596,0.5791347622871399
-0.27599385380744934,5.410272121429443,0.4203804135322571
-0.31429481506347656,5.423831939697266,0.4210135042667389
-0.3512834310531616,5.4138007164001465,0.41983500123023987
-0.38825350999832153,5.395701885223389,0.4180460274219513
-0.42515864968299866,5.38515043258667,0.4168682098388672
-0.45954644680023193,5.347188949584961,0.41359201073646545
-0.43714645504951477,4.704048156738281,0.36351361870765686
-0.4606740474700928,4.611845016479492,0.3558639883995056
-0.49215570092201233,4.60081672668457,0.3544979691505432
-0.5230392217636108,4.589626312255859,0.3531455993652344
-0.5521061420440674,4.562739849090576,0.3506028950214386
-0.5828037261962891,4.5511250495910645,0.34925377368927
-0.6121934056282043,4.531608581542969,0.3472316265106201
-0.6427317261695862,4.51958703994751,0.3456268012523651
-0.6720142364501953,4.503587245941162,0.3437487781047821
-0.7006863951683044,4.483522415161133,0.34157681465148926
-0.730593740940094,4.47092866897583,0.33998918533325195
-0.7616696953773499,4.465816020965576,0.33898791670799255
-0.788294792175293,4.437542915344238,0.3361051678657532
-0.8177355527877808,4.424386024475098,0.33425474166870117
-0.35387444496154785,1.8440290689468384,0.13896910846233368
-0.36206039786338806,1.8186521530151367,0.1367189735174179
-0.3715397119522095,1.8008701801300049,0.13505201041698456
-0.38894402980804443,1.8211396932601929,0.13624337315559387
-0.4099932909011841,1.8564808368682861,0.13846713304519653
-0.4191845953464508,1.8384934663772583,0.13670550286769867
-0.42458173632621765,1.805296540260315,0.13382960855960846
-0.4315708577632904,1.7796388864517212,0.13152463734149933
-0.43351948261260986,1.7350659370422363,0.12784196436405182
-0.4583008885383606,1.7810848951339722,0.13080908358097076
-0.48029825091362,1.8156667947769165,0.13285645842552185
-0.4925816059112549,1.812425971031189,0.1321314126253128
-0.5133611559867859,1.8390899896621704,0.13357914984226227
-1.2069227695465088,4.210474491119385,0.30467623472213745
-1.233456015586853,4.19072151184082,0.3020966947078705
-1.255228877067566,4.159969329833984,0.298605740070343
-1.28565514087677,4.158963680267334,0.2972160875797272
-1.3138107061386108,4.150292873382568,0.29528817534446716
-1.3401880264282227,4.133796691894531,0.29278799891471863
-1.3669289350509644,4.1169610023498535,0.29025834798812866
-1.3976017236709595,4.115026950836182,0.2887355089187622
-1.4124375581741333,4.06887149810791,0.2840192914009094
-1.4423880577087402,4.0667724609375,0.28239989280700684
-1.467782735824585,4.049536228179932,0.2797037959098816
-1.5013456344604492,4.053996562957764,0.27850544452667236
-1.5242671966552734,4.028923511505127,0.2752213776111603
-1.5456745624542236,4.004209518432617,0.27187079191207886
-1.5753884315490723,4.001153469085693,0.2700059711933136
-1.5999341011047363,3.9831626415252686,0.26710787415504456
-1.6246799230575562,3.9648709297180176,0.26418542861938477
-1.6554601192474365,3.9607386589050293,0.26214534044265747
-1.6787739992141724,3.942610502243042,0.2590813636779785
-1.7003998756408691,3.9207541942596436,0.2557901442050934
-1.730553150177002,3.9162404537200928,0.2535821497440338
-1.7514076232910156,3.89003324508667,0.24996468424797058
-1.755652904510498,3.828314781188965,0.2440056949853897
-1.787697672843933,3.830854892730713,0.2421141117811203
-1.819883108139038,3.833122730255127,0.2401985079050064
-1.8464996814727783,3.8205554485321045,0.23726722598075867
-1.8661128282546997,3.793816328048706,0.2334776371717453
-1.881284236907959,3.7603530883789062,0.22915096580982208
-1.9095923900604248,3.754992961883545,0.22657066583633423
-1.9351071119308472,3.7420947551727295,0.22347033023834229
-1.964802861213684,3.735595464706421,0.2206999659538269
-1.9937833547592163,3.729248046875,0.21787792444229126
-2.0070724487304688,3.695688247680664,0.21340984106063843
-1.7117571830749512,3.101437568664551,0.17690196633338928
-1.7257179021835327,3.075974702835083,0.17321769893169403
-0.842424213886261,1.4779075384140015,0.08213353902101517
-0.8442480564117432,1.4589402675628662,0.079967200756073
-0.8658257722854614,1.4735380411148071,0.07961516827344894
-0.872264564037323,1.4607367515563965,0.07770249247550964
-0.8820958733558655,1.4549018144607544,0.07617105543613434
-0.8914960026741028,1.4492411613464355,0.07463020831346512
-0.8971558809280396,1.436632513999939,0.07268325984477997
-0.8946365714073181,1.410632848739624,0.07004465162754059
-0.9039837718009949,1.4047435522079468,0.06837398558855057
-0.8896139860153198,1.3629735708236694,0.06500276178121567
-0.8990876078605652,1.3568248748779297,0.06327005475759506
-0.9581912755966187,1.4253965616226196,0.06493056565523148
-2.391709566116333,3.5096840858459473,0.15602651238441467
-1.3169538974761963,1.903836727142334,0.08231715857982635
-1.2780596017837524,1.8216171264648438,0.07652049511671066
-1.3173271417617798,1.885422945022583,-0.05850978195667267
-1.1887751817703247,1.727378487586975,-0.056023530662059784
-1.320354700088501,1.9494996070861816,-0.06593243032693863
-1.130351185798645,1.6960334777832031,-0.05960429087281227
-1.2620201110839844,1.9225009679794312,-0.06992434710264206
-1.1841225624084473,1.8333543539047241,-0.06890017539262772
-1.4156616926193237,2.227409601211548,-0.08630486577749252
-1.1720352172851562,1.8732328414916992,-0.07467847317457199
-0.8262150883674622,1.4340077638626099,-0.06445298343896866
-2.130981922149658,3.758734941482544,-0.17232578992843628
-1.7298569679260254,3.1019961833953857,-0.1449776440858841
-2.0484304428100586,3.737356424331665,-0.1779259294271469
-2.0531210899353027,3.8101322650909424,-0.184604212641716
-1.9950075149536133,3.7657744884490967,-0.1855880320072174
-1.9840412139892578,3.8110194206237793,-0.19086623191833496
-1.9366096258163452,3.787003517150879,-0.19265200197696686
-1.8836431503295898,3.7480504512786865,-0.19350768625736237
-1.8194758892059326,3.6839327812194824,-0.19294945895671844
-1.6323033571243286,3.3670215606689453,-0.1788005828857422
-1.487082839012146,3.124971628189087,-0.16816413402557373
-1.5081230401992798,3.2270565032958984,-0.1758568435907364
-1.4985630512237549,3.2657272815704346,-0.18017970025539398
-1.4716815948486328,3.2692246437072754,-0.1824856400489807
-1.4384653568267822,3.2582550048828125,-0.1839730441570282
-1.4075580835342407,3.250333309173584,-0.18557050824165344
-1.3925384283065796,3.277851104736328,-0.1891602724790573
-1.3675553798675537,3.283984422683716,-0.1914270520210266
-1.3439198732376099,3.293583869934082,-0.19388556480407715
-1.303362250328064,3.2593472003936768,-0.1937069445848465
-1.258890151977539,3.213888168334961,-0.19283145666122437
-1.2248884439468384,3.1934704780578613,-0.19331756234169006
-1.1758993864059448,3.132674217224121,-0.19126972556114197
-1.1509679555892944,3.1334826946258545,-0.19293369352817535
-1.12916100025177,3.1412792205810547,-0.1950017362833023
-1.0886626243591309,3.0976064205169678,-0.19385646283626556
-1.0665534734725952,3.1051692962646484,-0.19575567543506622
-1.030722737312317,3.071918249130249,-0.19507472217082977
-0.9995010495185852,3.04929256439209,-0.19501763582229614
-0.9627519249916077,3.0078017711639404,-0.1937251091003418
-0.9363797903060913,2.9996707439422607,-0.19448815286159515
-0.905855119228363,2.9763357639312744,-0.19419224560260773
-0.8748195767402649,2.9489195346832275,-0.19360147416591644
-0.8521060943603516,2.9473438262939453,-0.1946820765733719
-0.8209980130195618,2.9155783653259277,-0.1937468945980072
-0.4943873882293701,1.804625153541565,-0.12055734544992447
-0.7701757550239563,2.8929355144500732,-0.1943035125732422
-0.7479666471481323,2.890613079071045,-0.19516335427761078
-0.7164221405982971,2.850295305252075,-0.19344395399093628
-0.690925657749176,2.8324296474456787,-0.19317802786827087
-0.6708627343177795,2.837167978286743,-0.19435830414295197
-0.6495612263679504,2.8380401134490967,-0.19529685378074646
-0.6264246106147766,2.827191114425659,-0.1954037994146347
-0.5920379757881165,2.762807846069336,-0.19179470837116241
-0.5758146047592163,2.782083511352539,-0.1938944011926651
-0.5523413419723511,2.766903877258301,-0.19352823495864868
-0.5325058698654175,2.770721197128296,-0.19450592994689941
-0.5103791356086731,2.758965015411377,-0.194375678896904
-0.4870775043964386,2.739362955093384,-0.1936923712491989
-0.46523192524909973,2.727287530899048,-0.19343510270118713
-0.4435078799724579,2.715057134628296,-0.19311979413032532
-0.4228994846343994,2.710400342941284,-0.19335637986660004
-0.4000498652458191,2.686239242553711,-0.19218800961971283
-0.3747975826263428,2.6426076889038086,-0.18962132930755615
-0.35629838705062866,2.645120620727539,-0.1902429163455963
-0.334805428981781,2.6243197917938232,-0.18914955854415894
-0.3150194585323334,2.6149542331695557,-0.18888433277606964
-0.29559189081192017,2.60933780670166,-0.1889013946056366
-0.2757326662540436,2.5957982540130615,-0.1883436143398285
-0.25370702147483826,2.5588629245758057,-0.18596258759498596
-0.23718556761741638,2.5760693550109863,-0.18748129904270172
-0.22177812457084656,2.6086947917938232,-0.19013603031635284
-0.20031586289405823,2.5713255405426025,-0.1877000480890274
-0.18411487340927124,2.595942735671997,-0.18979132175445557
-0.16600659489631653,2.5971436500549316,-0.19006718695163727
-0.1478908658027649,2.5982210636138916,-0.190299853682518
-0.1305452287197113,2.6147358417510986,-0.19167345762252808
-0.11007535457611084,2.568868637084961,-0.18848352134227753
-0.09250611811876297,2.577341079711914,-0.18928438425064087
-0.07457438111305237,2.577913761138916,-0.1893988400697708
-0.05679783225059509,2.586155891418457,-0.19002804160118103
-0.03867644816637039,2.5786938667297363,-0.1895124912261963
-0.020342908799648285,2.5711076259613037,-0.18899758160114288
-0.0024514782708138227,2.5789742469787598,-0.18962714076042175
0.015454304404556751,2.571140766143799,-0.1890113651752472
0.033351656049489975,2.570979118347168,-0.18890085816383362
0.051402799785137177,2.5784823894500732,-0.18936245143413544
0.06911821663379669,2.570282220840454,-0.1886799931526184
0.08754606544971466,2.5775249004364014,-0.1891392320394516
0.10448779910802841,2.553513526916504,-0.18723350763320923
0.12294499576091766,2.568312168121338,-0.1881064772605896
0.14161249995231628,2.582977533340454,-0.1889762431383133
0.15907059609889984,2.574174404144287,-0.1881372034549713
0.1762176752090454,2.5574569702148438,-0.18672709167003632
0.19514566659927368,2.5717363357543945,-0.18751834332942963
0.2135711908340454,2.578122138977051,-0.18764910101890564
0.23211710155010223,2.584374189376831,-0.18777671456336975
0.2508281171321869,2.5904855728149414,-0.18790000677108765
0.2675377130508423,2.5731778144836426,-0.18632912635803223
0.28711506724357605,2.5867843627929688,-0.1869484931230545
0.30497246980667114,2.5847830772399902,-0.18635007739067078
0.32283851504325867,2.582655668258667,-0.18575090169906616
0.3407799303531647,2.580392837524414,-0.185148686170578
0.3622457683086395,2.6011173725128174,-0.18619336187839508
0.3791528642177582,2.590878486633301,-0.1849776655435562
0.39701953530311584,2.5882551670074463,-0.1842162162065506
0.41361096501350403,2.577816963195801,-0.1829097419977188
0.43280941247940063,2.5826199054718018,-0.18268851935863495
0.44943374395370483,2.5719218254089355,-0.18137891590595245
0.4752359390258789,2.6109206676483154,-0.18350878357887268
0.5004333853721619,2.6459450721740723,-0.18526357412338257
0.5186068415641785,2.6425089836120605,-0.18432478606700897
0.5447768568992615,2.6770873069763184,-0.18602688610553741
0.5658271908760071,2.6847341060638428,-0.18585342168807983
0.5897315144538879,2.703596830368042,-0.18637707829475403
0.6082926988601685,2.6995584964752197,-0.18525496125221252
0.630380392074585,2.7105722427368164,-0.1851687878370285
0.6546507477760315,2.7289466857910156,-0.1855742186307907
0.6801883578300476,2.750887393951416,-0.18621382117271423
0.7052221298217773,2.7688024044036865,-0.18647843599319458
0.7241463661193848,2.7640016078948975,-0.1851673424243927
0.7572762370109558,2.811755657196045,-0.18736453354358673
0.7799403071403503,2.8177802562713623,-0.1867525726556778
0.8059226870536804,2.8348746299743652,-0.1868712604045868
0.8344261050224304,2.8592188358306885,-0.18733727931976318
0.8617433905601501,2.879701852798462,-0.18752485513687134
0.8860903978347778,2.8887200355529785,-0.18694990873336792
0.9132001996040344,2.904897689819336,-0.18681703507900238
0.9357784390449524,2.905998468399048,-0.18570592999458313
0.9656533002853394,2.929182291030884,-0.18584471940994263
0.9855726957321167,2.92264986038208,-0.1841164380311966
1.0108590126037598,2.9306156635284424,-0.18328192830085754
1.020899772644043,2.894184112548828,-0.1796756237745285
1.0355534553527832,2.872509479522705,-0.17696231603622437
1.0833306312561035,2.9423787593841553,-0.17979805171489716
