X,Y,Z
-0.3770723342895508,3.5823144912719727,0.3703521490097046
-0.40759217739105225,3.6298718452453613,0.3749205470085144
-0.4320484697818756,3.623220920562744,0.3736301362514496
-0.45639631152153015,3.6124942302703857,0.37192845344543457
-0.4781493544578552,3.586249351501465,0.3686615228652954
-0.4987044334411621,3.5521485805511475,0.36460790038108826
-0.5256503820419312,3.5640666484832764,0.3652970790863037
-0.5456560254096985,3.5296926498413086,0.3612578809261322
-0.5683843493461609,3.5144121646881104,0.3589218556880951
-0.5924366116523743,3.5105535984039307,0.3577854335308075
-1.1105049848556519,6.316336631774902,0.6424323320388794
-1.1627100706100464,6.354569911956787,0.645014762878418
-1.219326376914978,6.411439418792725,0.6494918465614319
-1.266854166984558,6.418286323547363,0.6488715410232544
-1.3294188976287842,6.497171878814697,0.6550803184509277
-1.3858412504196167,6.545251369476318,0.6582080721855164
-1.4355669021606445,6.558670520782471,0.6578577160835266
-1.4725443124771118,6.510882377624512,0.6513760685920715
-1.5080430507659912,6.459109306335449,0.6445476412773132
-1.5388010740280151,6.388161659240723,0.6356940269470215
-0.6974561810493469,2.8115460872650146,0.2788800001144409
-0.7049931883811951,2.761667013168335,0.2730576694011688
-0.7238415479660034,2.7569186687469482,0.27171966433525085
-0.7409818768501282,2.7444405555725098,0.2696188986301422
-0.7687070369720459,2.7692418098449707,0.27117201685905457
-0.7769880890846252,2.726656436920166,0.2660435438156128
-0.969983696937561,3.3187975883483887,0.32257556915283203
-0.9902035593986511,3.3048818111419678,0.31999242305755615
-1.0060884952545166,3.2758564949035645,0.31595170497894287
-1.040964961051941,3.3059329986572266,0.31758517026901245
-1.0615359544754028,3.2913966178894043,0.31494730710983276
-1.0836812257766724,3.2843739986419678,0.3128330111503601
-1.0983465909957886,3.255072593688965,0.3086186945438385
-1.986972689628601,5.7598981857299805,0.5435898900032043
-2.0219333171844482,5.731581687927246,0.5383533239364624
-2.049410581588745,5.680831432342529,0.5310120582580566
-2.0813114643096924,5.648866653442383,0.5252827405929565
-2.1110260486602783,5.613271713256836,0.519139289855957
-1.4738471508026123,3.8406825065612793,0.35327044129371643
-1.5004595518112183,3.8306307792663574,0.35036399960517883
-1.5261703729629517,3.816540002822876,0.347061425447464
-1.559629201889038,3.824291229248047,0.3456777036190033
-2.3486459255218506,5.650978088378906,0.5075329542160034
-2.3742668628692627,5.606868267059326,0.500342845916748
-2.4005918502807617,5.562163352966309,0.4930531084537506
-1.607323408126831,3.6529924869537354,0.32159268856048584
-1.6162872314453125,3.6066901683807373,0.31525808572769165
-1.637009859085083,3.5890603065490723,0.31135547161102295
-1.5886801481246948,3.4229605197906494,0.2946964204311371
-1.5974689722061157,3.380420446395874,0.2887079417705536
-1.6214886903762817,3.369248390197754,0.2853800356388092
-1.6493417024612427,3.369002103805542,0.28288623690605164
-1.6959573030471802,3.4070956707000732,0.28352242708206177
-1.7486926317214966,3.4550182819366455,0.28487738966941833
-1.7655876874923706,3.429201126098633,0.28003108501434326
-1.789283275604248,3.4172000885009766,0.2763127088546753
-1.815752387046814,3.4123518466949463,0.2729882299900055
-1.8529791831970215,3.428065299987793,0.2713395953178406
-1.1747403144836426,2.138115882873535,0.16733048856258392
-1.1858469247817993,2.1232516765594482,0.164243683218956
-2.549696445465088,4.495578765869141,0.34348493814468384
-2.5717556476593018,4.465442180633545,0.3368115723133087
-2.5942814350128174,4.434771537780762,0.33002763986587524
-2.617316722869873,4.403522491455078,0.32312294840812683
-1.2567111253738403,2.0831222534179688,0.1506148874759674
-2.660602569580078,4.346401214599609,0.30951711535453796
-2.6578588485717773,4.275237560272217,0.29944008588790894
-2.9560420513153076,4.682486057281494,0.32243528962135315
-2.0733940601348877,3.2384557723999023,0.21903343498706818
-2.1113083362579346,3.251462697982788,0.21587155759334564
-2.1383845806121826,3.2434210777282715,0.21093668043613434
-2.1690754890441895,3.242121458053589,0.2062738686800003
-2.2357633113861084,3.296316146850586,0.2050641030073166
-2.2671940326690674,3.2941064834594727,0.19989657402038574
-2.302736759185791,3.298316717147827,0.19495657086372375
-2.330232858657837,3.2936558723449707,0.18939660489559174
-2.4053492546081543,3.3507158756256104,0.1867161989212036
-2.8683950901031494,3.940927505493164,0.212424635887146
-2.902090072631836,3.9360313415527344,0.204859659075737
-3.01041841506958,4.2121124267578125,-0.1570158451795578
-2.4484031200408936,3.480734348297119,-0.1370353251695633
-2.780688762664795,4.01500129699707,-0.16599908471107483
-2.7736353874206543,4.066863059997559,-0.1757618486881256
-2.738137722015381,4.0810770988464355,-0.18392761051654816
-2.210061550140381,3.344407320022583,-0.156386598944664
-1.3149019479751587,2.022160291671753,-0.09797319769859314
-1.3081380128860474,2.044912576675415,-0.10241395235061646
-1.2896246910095215,2.047239303588867,-0.10563329607248306
-1.2664114236831665,2.0431530475616455,-0.10847742110490799
-1.2592395544052124,2.065692663192749,-0.11272747069597244
-2.023298740386963,3.372615098953247,-0.18877114355564117
-2.002930164337158,3.393510580062866,-0.19454404711723328
-1.9835721254348755,3.41808819770813,-0.20052698254585266
-1.970847249031067,3.4521121978759766,-0.20691952109336853
-1.1881710290908813,2.115391254425049,-0.12942729890346527
-1.8658671379089355,3.3807013034820557,-0.211037278175354
-1.8208152055740356,3.356142282485962,-0.2135184109210968
-1.7972859144210815,3.3685033321380615,-0.2181694507598877
-1.7694668769836426,3.3740949630737305,-0.22232027351856232
-1.7590409517288208,3.4143683910369873,-0.22874242067337036
-2.449097156524658,4.839144229888916,-0.32946452498435974
-2.4186253547668457,4.862730026245117,-0.3361707329750061
-2.3901941776275635,4.893701553344727,-0.34328609704971313
-2.37300181388855,4.949225902557373,-0.3521672487258911
-1.7054277658462524,3.621762990951538,-0.2612227201461792
-1.6735819578170776,3.6191060543060303,-0.26450014114379883
-1.6437971591949463,3.62386155128479,-0.2682275176048279
-1.6112412214279175,3.621088743209839,-0.2713247239589691
-1.610673427581787,3.68917179107666,-0.27969685196876526
-2.1847164630889893,5.100528717041016,-0.3911861479282379
-2.1510159969329834,5.122865200042725,-0.3971936106681824
-2.209723711013794,5.372275352478027,-0.42107483744621277
-2.183448076248169,5.416188716888428,-0.4289167821407318
-2.152733087539673,5.448977947235107,-0.43589499592781067
-2.1195602416992188,5.478246688842773,-0.4424246847629547
-1.333949089050293,3.5222835540771484,-0.2870960831642151
-2.0621790885925293,5.565742015838623,-0.4578523337841034
-2.029902935028076,5.59788179397583,-0.4645807147026062
-1.948692798614502,5.494197368621826,-0.45986616611480713
-1.603205680847168,4.624619960784912,-0.3901989161968231
-1.5751248598098755,4.650362968444824,-0.39550313353538513
-1.8979510068893433,5.736713409423828,-0.4917398691177368
-1.8602665662765503,5.756807327270508,-0.49726396799087524
-0.9751774668693542,3.092664957046509,-0.2689943313598633
-0.9577293992042542,3.114194393157959,-0.2727334499359131
-0.8821127414703369,2.941685914993286,-0.2593764066696167
-0.8004163503646851,2.7383627891540527,-0.24306897819042206
-0.7711946964263916,2.7101528644561768,-0.24211810529232025
-0.7498459815979004,2.7078914642333984,-0.24334339797496796
-0.7366632223129272,2.735524892807007,-0.24727538228034973
-0.7175936102867126,2.740419626235962,-0.24914780259132385
-0.7013695240020752,2.7564923763275146,-0.25205451250076294
-1.4871573448181152,6.024983882904053,-0.5537826418876648
-1.4735146760940552,6.156085014343262,-0.5686425566673279
-1.4626941680908203,6.306175231933594,-0.5853908658027649
-1.4195139408111572,6.3196702003479,-0.5895299911499023
-1.3711844682693481,6.310081958770752,-0.5914682149887085
-1.316203236579895,6.273779392242432,-0.5905136466026306
-1.2633695602416992,6.240676403045654,-0.589813232421875
-1.2122299671173096,6.210885047912598,-0.5894009470939636
-1.1610573530197144,6.1768269538879395,-0.5885699391365051
-1.1082245111465454,6.130919933319092,-0.5864099264144897
-1.0251494646072388,5.912359237670898,-0.5674045085906982
-0.9370089769363403,5.639139652252197,-0.5429883003234863
-0.9514474272727966,5.98324728012085,-0.5780420899391174
-0.9121872186660767,6.00484561920166,-0.582074761390686
-0.7064477801322937,4.879484176635742,-0.4743536412715912
-0.6769164204597473,4.922754764556885,-0.4797963798046112
-0.6328193545341492,4.853966236114502,-0.4743116796016693
-0.7241852879524231,5.8729248046875,-0.5753691792488098
-0.6909578442573547,5.943275451660156,-0.5837935209274292
-0.6452099084854126,5.909149169921875,-0.5816217660903931
-0.6010808348655701,5.886302471160889,-0.5804188251495361
-0.5554469227790833,5.851588726043701,-0.5780822038650513
-0.5133785605430603,5.839677333831787,-0.5779904127120972
-0.47051241993904114,5.815845489501953,-0.5767399668693542
-0.2545980215072632,3.446364164352417,-0.3421916961669922
-0.23285633325576782,3.4829108715057373,-0.34620681405067444
-0.20903347432613373,3.4999423027038574,-0.34831178188323975
-0.2997404932975769,5.682750225067139,-0.5662255883216858
-0.2594829201698303,5.669076919555664,-0.5655708312988281
-0.218037948012352,5.620210647583008,-0.5609675645828247
-0.17858657240867615,5.6137871742248535,-0.5605654120445251
-0.1374535858631134,5.560473918914795,-0.5555098056793213
-0.09876451641321182,5.561258792877197,-0.5558784604072571
-0.059693384915590286,5.526794910430908,-0.5527486801147461
-0.01722339726984501,4.473753929138184,-0.44731253385543823
0.013850100338459015,4.454343318939209,-0.44525083899497986
0.0552481971681118,5.42193078994751,-0.5418470501899719
0.09279901534318924,5.4136576652526855,-0.5409263372421265
0.13023751974105835,5.405125141143799,-0.5400060415267944
0.1251906156539917,4.032716751098633,-0.40250927209854126
0.19967707991600037,5.2553181648254395,-0.5240593552589417
0.18990814685821533,4.224836826324463,-0.42093515396118164
0.22257739305496216,4.27778434753418,-0.42585548758506775
0.251319944858551,4.260666847229004,-0.42380908131599426
0.2777400612831116,4.21236515045166,-0.4183253347873688
0.30519920587539673,4.187163829803467,-0.4151668846607208
0.33421528339385986,4.185031890869141,-0.41431859135627747
0.3672330975532532,4.221372604370117,-0.41727954149246216
0.4704383313655853,5.004508972167969,-0.49392855167388916
0.505073070526123,5.001276969909668,-0.49246424436569214
0.5384332537651062,4.986208915710449,-0.4898606538772583
0.5694730877876282,4.951596260070801,-0.48536720871925354
0.6045040488243103,4.947587013244629,-0.48388293385505676
0.6328494548797607,4.897150039672852,-0.47783327102661133
0.66510409116745,4.881282806396484,-0.47484835982322693
0.696576714515686,4.861359596252441,-0.4715011417865753
0.7291269898414612,4.848899841308594,-0.468900203704834
0.7585632801055908,4.81307315826416,-0.4640466570854187
0.7894006967544556,4.792536735534668,-0.4606136977672577
0.8289974927902222,4.8255228996276855,-0.46206820011138916
0.864976704120636,4.835221290588379,-0.4612956643104553
0.89710533618927,4.821666717529297,-0.45831170678138733
0.9262160658836365,4.79260778427124,-0.45388269424438477
0.9569369554519653,4.770933151245117,-0.4499896466732025
0.986598551273346,4.749242782592773,-0.4459488093852997
1.017641305923462,4.734974384307861,-0.4426356256008148
1.0496928691864014,4.724232196807861,-0.4396589398384094
1.0790724754333496,4.701887607574463,-0.4356292486190796
1.104907512664795,4.664168834686279,-0.4299579858779907
1.13507080078125,4.6491804122924805,-0.42633259296417236
1.1651180982589722,4.63398551940918,-0.42271310091018677
1.189615249633789,4.595878601074219,-0.4170101583003998
1.220646619796753,4.583974361419678,-0.41372150182724
1.2506051063537598,4.568116664886475,-0.40978169441223145
1.277721881866455,4.544727325439453,-0.4052046835422516
1.304758906364441,4.521125793457031,-0.40062975883483887
1.334032416343689,4.504745960235596,-0.39670321345329285
1.3652727603912354,4.495668411254883,-0.3933781087398529
0.5993390679359436,1.9253857135772705,-0.16727785766124725
0.6266859173774719,1.965882658958435,-0.16959863901138306
0.642739474773407,1.9690213203430176,-0.16865473985671997
0.6515098810195923,1.9498586654663086,-0.16580918431282043
0.6648958325386047,1.9454737901687622,-0.16416840255260468
0.670452892780304,1.9189743995666504,-0.16064263880252838
0.6864386200904846,1.9217287302017212,-0.1595553606748581
0.6998236179351807,1.9170359373092651,-0.15785250067710876
0.7240173816680908,1.9414616823196411,-0.1585206687450409
0.7399764657020569,1.943921446800232,-0.15728873014450073
1.6643321514129639,4.284661769866943,-0.34352749586105347
1.685921549797058,4.251412868499756,-0.33760926127433777
1.715539574623108,4.239873886108398,-0.33348679542541504
1.7429873943328857,4.224783420562744,-0.32895007729530334
1.7655353546142578,4.198841094970703,-0.3235517144203186
1.7820390462875366,4.15830135345459,-0.3170344829559326
1.8177934885025024,4.16015100479126,-0.31365570425987244
1.833672046661377,4.1194071769714355,-0.3070744574069977
1.8647165298461914,4.114341735839844,-0.30309486389160156
1.8992161750793457,4.1160407066345215,-0.29958605766296387
1.9212368726730347,4.088924884796143,-0.2939068675041199
1.9465010166168213,4.068658828735352,-0.288637638092041
1.9738117456436157,4.055815696716309,-0.2838873863220215
1.9890669584274292,4.018258094787598,-0.2774239182472229
2.0136024951934814,3.997626781463623,-0.2720397114753723
2.0446810722351074,3.9909186363220215,-0.26757630705833435
2.060577630996704,3.95670485496521,-0.2612135410308838
2.095078229904175,3.956540822982788,-0.25700536370277405
2.1078734397888184,3.914673089981079,-0.2500552833080292
2.145777702331543,3.9210524559020996,-0.24616341292858124
2.1282474994659424,3.828592538833618,-0.2360972911119461
2.1581249237060547,3.821115255355835,-0.23126165568828583
2.169719696044922,3.7789268493652344,-0.2241673618555069
2.194945812225342,3.7646467685699463,-0.21879304945468903
2.2277767658233643,3.7637693881988525,-0.2141781896352768
2.2458336353302,3.735142230987549,-0.20776894688606262
2.2672877311706543,3.7133290767669678,-0.2017386555671692
2.31260085105896,3.731578826904297,-0.1977388709783554
2.317068576812744,3.6830894947052,-0.19013665616512299
2.338484048843384,3.6605777740478516,-0.18378853797912598
2.375030994415283,3.665205955505371,-0.17875505983829498
2.390826463699341,3.636547803878784,-0.17197857797145844
2.412255048751831,3.613290786743164,-0.1651405245065689
2.4268698692321777,3.5849366188049316,-0.15819357335567474
2.4417672157287598,3.556163787841797,-0.15111012756824493
2.4753599166870117,3.5522003173828125,-0.14477677643299103
2.497971773147583,3.5366084575653076,-0.13794946670532227
2.517650604248047,3.5133044719696045,-0.13036321103572845
2.5319395065307617,3.4840006828308105,-0.12247830629348755
2.1742947101593018,2.9524307250976562,-0.09793435037136078
2.766279697418213,3.9040613174438477,0.20278741419315338
2.7355847358703613,3.925205945968628,0.21083760261535645
2.7199764251708984,3.9640560150146484,0.21942013502120972
2.677689552307129,3.964111566543579,0.22565169632434845
2.6599068641662598,4.003787040710449,0.23396724462509155
2.622570037841797,4.009313583374023,0.23987486958503723
2.593616008758545,4.027712345123291,0.24637344479560852
2.5752460956573486,4.0668134689331055,0.25405675172805786
2.528691291809082,4.058812618255615,0.258612722158432
2.512455463409424,4.095983028411865,0.2657882273197174
2.473412036895752,4.101089954376221,0.27073922753334045
2.4626288414001465,4.152596473693848,0.2787388265132904
2.4295454025268555,4.162643909454346,0.28371909260749817
2.398895502090454,4.180007457733154,0.2891893982887268
2.375087261199951,4.211125373840332,0.2954568564891815
2.300936460494995,4.149489879608154,0.295038104057312
2.2458107471466064,4.117172718048096,0.2964443862438202
2.2269983291625977,4.153594970703125,0.30267080664634705
2.1955459117889404,4.169957160949707,0.3074389398097992
2.1689274311065674,4.192305088043213,0.3125157952308655
2.150139808654785,4.2278923988342285,0.31850796937942505
2.1197519302368164,4.242879867553711,0.32287418842315674
2.084869146347046,4.251122951507568,0.3266219198703766
2.0616397857666016,4.283737659454346,0.3322846591472626
2.0349490642547607,4.304786682128906,0.33689790964126587
2.001387357711792,4.311585426330566,0.3403851091861725
1.9696643352508545,4.325863838195801,0.34424957633018494
1.9807246923446655,4.435953140258789,0.3558180332183838
4.4658026695251465,10.194448471069336,0.8239566683769226
1.9329149723052979,4.498805046081543,0.3663685619831085
1.9158902168273926,4.548077583312988,0.37298575043678284
1.8900855779647827,4.579642295837402,0.37805867195129395
1.8493245840072632,4.574957847595215,0.3801592290401459
1.8416732549667358,4.649044513702393,0.38874351978302
1.811454176902771,4.6689605712890625,0.3928896486759186
1.7848979234695435,4.699730396270752,0.3977515697479248
1.3452730178833008,3.6209006309509277,0.3081284463405609
1.3216276168823242,3.637671709060669,0.31125205755233765
1.2962216138839722,3.6465959548950195,0.3136579692363739
1.2831065654754639,3.6922619342803955,0.3192843198776245
1.6147781610488892,4.75540828704834,0.41319745779037476
1.5914380550384521,4.799947261810303,0.4189590811729431
1.5735297203063965,4.862908363342285,0.4263841509819031
1.5347012281417847,4.85872745513916,0.4279034733772278
1.5127462148666382,4.9101762771606445,0.4343789219856262
1.47135329246521,4.89811897277832,0.43510350584983826
1.4350277185440063,4.904606342315674,0.4372797906398773
0.5628662705421448,1.976312279701233,0.17685405910015106
0.5312082767486572,1.916398286819458,0.17212001979351044
1.312360167503357,4.865667343139648,0.43859127163887024
1.2729510068893433,4.855794429779053,0.4393247365951538
1.2468985319137573,4.898506164550781,0.4444936215877533
1.2137417793273926,4.914653778076172,0.4472751319408417
1.1786059141159058,4.923006534576416,0.44937214255332947
1.1513231992721558,4.961230278015137,0.4541928470134735
1.1195138692855835,4.984264850616455,0.45768243074417114
1.0869542360305786,5.003232955932617,0.4606691300868988
1.0641310214996338,5.07159423828125,0.4680446684360504
1.0172358751296997,5.025487422943115,0.4648812711238861
0.9907185435295105,5.078191757202148,0.4708707630634308
2.1728122234344482,11.572982788085938,1.0756946802139282
2.0644569396972656,11.434355735778809,1.065380573272705
1.9599543809890747,11.31032657623291,1.0558173656463623
1.8440605401992798,11.108765602111816,1.038771390914917
1.7433195114135742,10.982983589172363,1.0288066864013672
1.645869493484497,10.867929458618164,1.0198627710342407
1.549237608909607,10.732545852661133,1.0089701414108276
1.4507561922073364,10.569400787353516,0.9954643249511719
1.3699398040771484,10.528993606567383,0.9928739070892334
1.2730547189712524,10.352888107299805,0.977437436580658
1.1924822330474854,10.295733451843262,0.9732525944709778
1.097547173500061,10.102696418762207,0.9562482237815857
1.0232576131820679,10.071216583251953,0.9545294642448425
0.40900376439094543,4.324635982513428,0.41044074296951294
0.3759027123451233,4.296360492706299,0.40802180767059326
0.344510555267334,4.283336639404297,0.4070677161216736
0.31387555599212646,4.285639762878418,0.4075952470302582
0.2860431671142578,4.3187174797058105,0.41106438636779785
0.3314630389213562,5.593814849853516,0.5328735113143921
0.29027315974235535,5.553207874298096,0.5294562578201294
0.25582095980644226,5.652193069458008,0.5389859676361084
0.2156287431716919,5.653842926025391,0.5392639636993408
0.17607930302619934,5.655186653137207,0.5395374894142151
0.13829700648784637,5.7223358154296875,0.546116828918457
0.09885236620903015,5.746462345123291,0.5486193895339966
0.058838676661252975,5.746986389160156,0.5488823652267456
0.018106702715158463,5.739494323730469,0.5480042099952698
-0.01635313779115677,4.289065837860107,0.4094184637069702
-0.046110816299915314,4.27719259262085,0.40820562839508057
-0.07409777492284775,4.17957878112793,0.39883148670196533
-0.10197804868221283,4.132323741912842,0.3942837417125702
-0.12699201703071594,4.014925003051758,0.3830612301826477
-0.15695969760417938,4.056708812713623,0.38675856590270996
-0.18133531510829926,3.973982334136963,0.37861156463623047
-0.1870143711566925,3.557147264480591,0.3386819660663605
-0.211688831448555,3.555795907974243,0.3383525311946869
-0.23974566161632538,3.604713201522827,0.34281980991363525
-0.2866535186767578,3.8938333988189697,0.3701281249523163
-0.3091384470462799,3.837555408477783,0.3643375635147095
-0.3311603367328644,3.7850306034088135,0.35893306136131287
-0.34666138887405396,3.670433521270752,0.34767621755599976
-0.3639231324195862,3.5867397785186768,0.33938068151474
-0.3910121023654938,3.599593162536621,0.3402370512485504
-0.4227260947227478,3.6547963619232178,0.3451108932495117
-0.4436216950416565,3.6171374320983887,0.3409702777862549
-0.4675189256668091,3.606363534927368,0.3393869996070862
-0.4881294369697571,3.572309970855713,0.3356349766254425
-0.5089124441146851,3.5380566120147705,0.3318761885166168
-0.5334834456443787,3.5345144271850586,0.3310277462005615
-0.5567895174026489,3.5231235027313232,0.32944437861442566
-0.5859604477882385,3.5500333309173584,0.33123329281806946
-0.6043103337287903,3.511538028717041,0.3269357979297638
-1.1359407901763916,6.34092378616333,0.5891112089157104
-1.1870875358581543,6.367351531982422,0.590298593044281
-1.2431920766830444,6.420230865478516,0.5939666628837585
-1.302212119102478,6.484123229980469,0.5985685586929321
-1.3542991876602173,6.513411521911621,0.5996414422988892
-1.4093647003173828,6.553688049316406,0.601729691028595
-1.451540231704712,6.528764247894287,0.5978212952613831
-1.490824818611145,6.492194175720215,0.5928855538368225
-1.5386426448822021,6.493253231048584,0.5914186835289001
-0.68410325050354,2.8010013103485107,0.25437238812446594
-0.6974553465843201,2.7737529277801514,0.2510586977005005
-0.7127121686935425,2.753911256790161,0.24842560291290283
-0.7335999608039856,2.75658917427063,0.2478439062833786
-0.7527454495429993,2.751537561416626,0.24656641483306885
-0.7803070545196533,2.7763187885284424,0.24796414375305176
-0.7948878407478333,2.7561070919036865,0.24521173536777496
-0.9662447571754456,3.2657523155212402,0.2893810272216797
-0.9973536729812622,3.2890915870666504,0.29029664397239685
-1.02011239528656,3.2822604179382324,0.2885253131389618
-1.0358303785324097,3.2529869079589844,0.28479820489883423
-1.0582513809204102,3.2459213733673096,0.28297606110572815
-1.0977271795272827,3.2904648780822754,0.2854815423488617
-1.097245216369629,3.216839551925659,0.2777772843837738
-1.9948443174362183,5.720361232757568,0.49159476161003113
-2.0320820808410645,5.699279308319092,0.4873926043510437
-2.0624570846557617,5.659661293029785,0.4816427528858185
-2.095093250274658,5.631371021270752,0.4765690267086029
-1.4615838527679443,3.8479607105255127,0.32378438115119934
-1.4805594682693481,3.8200457096099854,0.3196169137954712
-1.5071243047714233,3.8098700046539307,0.31690526008605957
-1.539483666419983,3.81394100189209,0.3153846561908722
-2.327000617980957,5.655136585235596,0.46463584899902344
-2.356356620788574,5.6179914474487305,0.4584962725639343
-2.3848884105682373,5.580882549285889,0.45243871212005615
-2.420659303665161,5.557323455810547,0.4474021792411804
-1.632704734802246,3.678353786468506,0.2940674424171448
-1.6509171724319458,3.653366804122925,0.28985440731048584
-1.5681164264678955,3.408745050430298,0.2683190703392029
-1.5894289016723633,3.3947885036468506,0.26510629057884216
-1.609739899635315,3.376809597015381,0.26152509450912476
-1.6365224123001099,3.3728113174438477,0.2590236961841583
-1.700225591659546,3.4460110664367676,0.26225003600120544
-1.7304153442382812,3.4486515522003174,0.2600083351135254
-1.7451682090759277,3.4195969104766846,0.25534990429878235
-1.770821452140808,3.41102933883667,0.2521964907646179
-1.7937716245651245,3.399272918701172,0.24871987104415894
-1.8234707117080688,3.4013941287994385,0.24619323015213013
-1.857397437095642,3.409907579421997,0.24406541883945465
-1.1939584016799927,2.1554481983184814,0.15242767333984375
-2.5244836807250977,4.4850568771362305,0.3133097290992737
-2.5654478073120117,4.489075183868408,0.30958953499794006
-2.5911574363708496,4.465625762939453,0.3039431869983673
-2.6004674434661865,4.410853862762451,0.29599684476852417
-1.2503536939620972,2.0878138542175293,0.13803957402706146
-1.259813666343689,2.0731685161590576,0.13499027490615845
-2.675992727279663,4.3390727043151855,0.2780632972717285
-2.7145564556121826,4.333850860595703,0.2729865312576294
-2.0716817378997803,3.25923490524292,0.20164349675178528
-2.097219467163086,3.252431631088257,0.19744394719600677
-2.1321277618408203,3.2579565048217773,0.19382244348526
-2.1761534214019775,3.2759532928466797,0.19077344238758087
-2.2122228145599365,3.28497576713562,0.18705539405345917
-2.23820161819458,3.2770802974700928,0.1821986734867096
-2.292545795440674,3.3063108921051025,0.1789918839931488
-2.3201143741607666,3.301644802093506,0.17388658225536346
-2.386910915374756,3.3503055572509766,0.17129290103912354
-2.400956153869629,3.3213300704956055,0.16428932547569275
-2.875849962234497,3.9270660877227783,0.18760357797145844
-2.9485981464385986,3.970802068710327,0.18238824605941772
-2.4531519412994385,3.458772659301758,-0.12284953147172928
-2.4265501499176025,3.477222442626953,-0.13011805713176727
-2.7670488357543945,4.024753570556641,-0.15754546225070953
-2.7666916847229004,4.0908379554748535,-0.16721203923225403
-2.217402458190918,3.330819606781006,-0.14153380692005157
-2.172417163848877,3.313505172729492,-0.14585712552070618
-1.307474970817566,2.0272367000579834,-0.09228957444429398
-1.3179669380187988,2.0759761333465576,-0.09746898710727692
-1.2823054790496826,2.052151679992676,-0.09921534359455109
-1.2710537910461426,2.0681490898132324,-0.10277898609638214
-2.0194857120513916,3.3393821716308594,-0.17027723789215088
-2.018017530441284,3.3900694847106934,-0.17709244787693024
-2.0046608448028564,3.4248812198638916,-0.18308964371681213
-1.975284457206726,3.4326395988464355,-0.187673881649971
-1.211097002029419,2.1389729976654053,-0.11937972158193588
-1.9166897535324097,3.442873001098633,-0.1960008591413498
-1.844448447227478,3.371082305908203,-0.19563175737857819
-1.8058278560638428,3.356280565261841,-0.19829902052879333
-1.7818337678909302,3.368825912475586,-0.20257575809955597
-1.7571650743484497,3.381507635116577,-0.2067241370677948
-1.7361104488372803,3.400872230529785,-0.21127721667289734
-2.439908981323242,4.86279296875,-0.30671510100364685
-2.4019696712493896,4.872593879699707,-0.3118826150894165
-2.379453182220459,4.9179463386535645,-0.31933319568634033
-1.7183016538619995,3.617267608642578,-0.23811714351177216
-1.6929999589920044,3.6289196014404297,-0.24203373491764069
-1.6574392318725586,3.619325637817383,-0.24446848034858704
-1.6311931610107422,3.6309733390808105,-0.24825172126293182
-1.6051543951034546,3.6423025131225586,-0.2519930601119995
-2.199500560760498,5.0882134437561035,-0.3561321496963501
-2.1665055751800537,5.110466480255127,-0.36164984107017517
-1.613676905632019,3.883788824081421,-0.27773791551589966
-1.543154001235962,3.7903151512145996,-0.2738652527332306
-1.4892200231552124,3.7319633960723877,-0.27234071493148804
-1.434186577796936,3.669644832611084,-0.2704506516456604
-1.368827223777771,3.577697277069092,-0.2660740911960602
-1.321258306503296,3.5288071632385254,-0.2648060619831085
-1.2992119789123535,3.5450592041015625,-0.26834699511528015
-1.2770839929580688,3.561143636703491,-0.27189019322395325
-1.2538483142852783,3.5774269104003906,-0.2753525376319885
-1.2332864999771118,3.600825071334839,-0.27932310104370117
-1.2102949619293213,3.6166160106658936,-0.282704621553421
-1.185064435005188,3.6247448921203613,-0.2854765057563782
-0.9748009443283081,3.053898572921753,-0.24225333333015442
-0.9734870791435242,3.1276466846466064,-0.24980124831199646
-0.9444220066070557,3.1119561195373535,-0.25021272897720337
-0.8044255375862122,2.7187132835388184,-0.22002732753753662
-0.792987585067749,2.7503013610839844,-0.22403652966022491
-0.7598016858100891,2.7069668769836426,-0.22179794311523438
-0.7384704947471619,2.7046520709991455,-0.2228761911392212
-0.7230471968650818,2.72479248046875,-0.2258301079273224
-0.7128207087516785,2.763551712036133,-0.2303226888179779
-0.6869179010391235,2.741878032684326,-0.2297596037387848
-1.4665195941925049,6.034064769744873,-0.5080655813217163
-1.4782851934432983,6.275151252746582,-0.5309126973152161
-1.443102478981018,6.326973915100098,-0.5379025936126709
-1.4056954383850098,6.366996765136719,-0.5438904166221619
-1.345597505569458,6.304089069366455,-0.540888249874115
-1.291633129119873,6.26743221282959,-0.5398674011230469
-1.2405825853347778,6.2417755126953125,-0.5397911071777344
-1.1859849691390991,6.196657657623291,-0.5380439758300781
-1.135036826133728,6.162420272827148,-0.5371938943862915
-1.0849970579147339,6.131689071655273,-0.5363534688949585
-0.9630066156387329,5.674712657928467,-0.497955858707428
-0.7882626056671143,4.851452827453613,-0.4270778000354767
-0.7664096355438232,4.937504768371582,-0.43606892228126526
-0.727485716342926,4.911757469177246,-0.4351962208747864
-0.6952112913131714,4.93201208114624,-0.43810757994651794
-0.6487371921539307,4.847930431365967,-0.4316740334033966
-0.606411337852478,4.786609649658203,-0.42725515365600586
-0.7066426277160645,5.907105445861816,-0.5285701155662537
-0.5408810377120972,4.809864044189453,-0.43148425221443176
-0.6233956217765808,5.916192054748535,-0.5316661596298218
-0.5785098671913147,5.885451316833496,-0.5298057794570923
-0.5337826609611511,5.8504958152771,-0.5275793671607971
-0.49020183086395264,5.819057941436768,-0.5256772041320801
-0.44787779450416565,5.806746482849121,-0.5255370140075684
-0.2432863414287567,3.4694931507110596,-0.3143259882926941
-0.22006544470787048,3.4865944385528564,-0.316196084022522
-0.3200439214706421,5.7019877433776855,-0.5176566243171692
-0.2796083092689514,5.688464641571045,-0.517000138759613
-0.23754118382930756,5.647477149963379,-0.5138770341873169
-0.19733649492263794,5.625641345977783,-0.512061357498169
-0.1572258025407791,5.595745086669922,-0.5095186233520508
-0.11775456368923187,5.573342800140381,-0.5076808929443359
-0.07853437215089798,5.538992881774902,-0.5047765970230103
-0.039042484015226364,5.492702960968018,-0.5008096098899841
-0.000701061449944973,4.4425225257873535,-0.4049154818058014
0.02779717743396759,4.0923285484313965,-0.37287506461143494
0.07483675330877304,5.44180154800415,-0.4956948459148407
0.11222071945667267,5.417828559875488,-0.49339738488197327
0.11149860918521881,4.02867317199707,-0.3668212294578552
0.18385295569896698,5.291379928588867,-0.4813241958618164
0.21802635490894318,5.227837562561035,-0.47509315609931946
0.2080196738243103,4.27425479888916,-0.3880837559700012
0.23642168939113617,4.2494425773620605,-0.3855012059211731
0.2635166049003601,4.208911418914795,-0.3815160095691681
0.29212483763694763,4.191497325897217,-0.37929561734199524
0.3208450973033905,4.185568332672119,-0.3781341314315796
0.35147905349731445,4.202701091766357,-0.37907132506370544
0.4534216523170471,5.002300262451172,-0.4504842162132263
0.4896944761276245,5.014604091644287,-0.4509037733078003
0.5241928100585938,5.003415584564209,-0.448827862739563
0.5531961917877197,4.949521064758301,-0.44296449422836304
0.5856093168258667,4.930238246917725,-0.4402337074279785
0.615522563457489,4.891419887542725,-0.43578487634658813
0.6500041484832764,4.891003131866455,-0.4347795844078064
0.6853737235069275,4.894186019897461,-0.4337172508239746
0.7162691950798035,4.870246410369873,-0.43029820919036865
0.7475844025611877,4.849939823150635,-0.42722511291503906
0.7751008868217468,4.806354522705078,-0.42212972044944763
0.8097763657569885,4.808680057525635,-0.42106491327285767
0.8523073792457581,4.856832981109619,-0.4236892759799957
0.8835305571556091,4.835608959197998,-0.42024216055870056
0.9125967025756836,4.8066205978393555,-0.416174054145813
0.9429713487625122,4.7850661277771,-0.4127745032310486
0.9730138182640076,4.763341426849365,-0.40932610630989075
1.0040957927703857,4.749134063720703,-0.40628865361213684
1.0355842113494873,4.734605312347412,-0.4032180905342102
1.064067006111145,4.708535671234131,-0.3992096781730652
1.0933583974838257,4.686034202575684,-0.39552316069602966
1.122177243232727,4.663412094116211,-0.391742080450058
1.150472640991211,4.640695095062256,-0.3877760171890259
1.1809693574905396,4.625219821929932,-0.38440921902656555
1.2071571350097656,4.594527721405029,-0.3798220455646515
1.2381291389465332,4.5824689865112305,-0.376800537109375
1.2655389308929443,4.559046745300293,-0.37270641326904297
1.2903332710266113,4.528040885925293,-0.3679186701774597
1.3197202682495117,4.511692047119141,-0.36431166529655457
1.3511070013046265,4.502633571624756,-0.3613201677799225
0.6116140484809875,1.9879465103149414,-0.15853141248226166
0.6205106973648071,1.9689706563949585,-0.15593227744102478
0.6387205719947815,1.9796302318572998,-0.15567687153816223
0.6501366496086121,1.9678221940994263,-0.15362855792045593
0.6588447690010071,1.948594570159912,-0.15102742612361908
0.6646764278411865,1.9220094680786133,-0.14785350859165192
0.6907209157943726,1.9542943239212036,-0.14913678169250488
0.6907832026481628,1.9130144119262695,-0.14481154084205627
0.7148556709289551,1.9375288486480713,-0.1454537808895111
0.7395917773246765,1.9616954326629639,-0.1460142433643341
1.6570887565612793,4.306248188018799,-0.3176635205745697
1.6720491647720337,4.258893013000488,-0.3112999200820923
1.6969047784805298,4.236728668212891,-0.3067919611930847
1.7264362573623657,4.225053310394287,-0.30301788449287415
1.7590653896331787,4.220299243927002,-0.2996244728565216
1.775404930114746,4.179868698120117,-0.2936793565750122
1.8037546873092651,4.167986869812012,-0.28976473212242126
1.8327566385269165,4.1555938720703125,-0.2857481837272644
1.855129361152649,4.128839015960693,-0.28075313568115234
1.88338303565979,4.1163129806518555,-0.2765524685382843
1.9077626466751099,4.096745014190674,-0.27195626497268677
1.9328316450119019,4.076629161834717,-0.267243891954422
1.9578267335891724,4.05630350112915,-0.2625286281108856
1.9849944114685059,4.0433573722839355,-0.25819161534309387
1.9968492984771729,3.9985997676849365,-0.25180092453956604
2.028076410293579,3.9918830394744873,-0.2477790117263794
2.055901527404785,3.9779014587402344,-0.24328583478927612
2.082418441772461,3.964362144470215,-0.23871402442455292
2.108869791030884,3.9506285190582275,-0.23413747549057007
2.1213958263397217,3.9087233543395996,-0.22777880728244781
2.137512445449829,3.8734984397888184,-0.22177377343177795
2.1383755207061768,3.815251588821411,-0.2145315408706665
2.160048484802246,3.7943115234375,-0.2094087451696396
2.1942896842956543,3.7929253578186035,-0.20520606637001038
2.2041451930999756,3.751309633255005,-0.19881366193294525
2.2292840480804443,3.7366890907287598,-0.19379056990146637
2.271003007888794,3.748297929763794,-0.19001981616020203
2.284681558609009,3.7127726078033447,-0.18377891182899475
2.313079833984375,3.704608678817749,-0.17887644469738007
2.337735414505005,3.689354181289673,-0.17354774475097656
2.359682083129883,3.666339874267578,-0.1675664186477661
2.3709652423858643,3.631363868713379,-0.1611327826976776
2.399071216583252,3.6224701404571533,-0.15582454204559326
2.4243199825286865,3.6058738231658936,-0.14986759424209595
2.430305004119873,3.564345121383667,-0.1429140269756317
2.4584693908691406,3.554716110229492,-0.13707511126995087
2.487661838531494,3.5441343784332275,-0.13094152510166168
2.5011203289031982,3.5157277584075928,-0.12416420131921768
2.519956350326538,3.4928550720214844,-0.11731937527656555
2.547954559326172,3.482391834259033,-0.11062221229076385
2.174469232559204,2.9331889152526855,-0.08775781095027924
2.7793424129486084,3.895983934402466,0.17800535261631012
2.743043899536133,3.902223825454712,0.1845671385526657
2.7218732833862305,3.9356746673583984,0.19232986867427826
2.6794376373291016,3.9360544681549072,0.19817091524600983
2.6406612396240234,3.9383764266967773,0.2037278413772583
2.6467862129211426,4.0136399269104,0.21300241351127625
2.6041500568389893,4.01322078704834,0.218133807182312
2.571640968322754,4.0245537757873535,0.2235698252916336
2.5409345626831055,4.043688774108887,0.22931517660617828
2.51507830619812,4.068678379058838,0.23527801036834717
2.4987010955810547,4.105874538421631,0.2417476326227188
2.46368670463562,4.117573261260986,0.24669583141803741
2.436509847640991,4.142451763153076,0.25232812762260437
2.415006637573242,4.1727614402771,0.25806066393852234
2.373903751373291,4.169070243835449,0.26163896918296814
2.342628002166748,4.18642520904541,0.26638588309288025
2.2677724361419678,4.125063419342041,0.26609766483306885
2.242582082748413,4.147399425506592,0.27089643478393555
2.2130935192108154,4.16292667388916,0.2752159833908081
2.189361095428467,4.192780017852783,0.2803618013858795
2.1583776473999023,4.208530902862549,0.28457120060920715
2.128417491912842,4.223487377166748,0.2886265218257904
2.1056182384490967,4.252037048339844,0.29355722665786743
2.0776445865631104,4.274179935455322,0.2979002594947815
2.0427093505859375,4.282078742980957,0.30126968026161194
2.01580810546875,4.303159236907959,0.30545517802238464
1.9857597351074219,4.316848278045654,0.30910807847976685
1.974811315536499,4.377259254455566,0.3160308301448822
1.9852697849273682,4.487592697143555,0.32654857635498047
1.9668283462524414,4.5337090492248535,0.33244287967681885
1.9382041692733765,4.554238319396973,0.3364177346229553
1.9182599782943726,4.596222400665283,0.3419894874095917
1.859106183052063,4.548731327056885,0.3407183587551117
1.834611415863037,4.583616733551025,0.3455791175365448
1.8033944368362427,4.5999345779418945,0.3490166962146759
1.771280288696289,4.612161159515381,0.3521197736263275
1.7730435132980347,4.715457439422607,0.36216849088668823
1.3309154510498047,3.6201705932617188,0.27958786487579346
1.304667353630066,3.6295385360717773,0.2818381190299988
1.2789418697357178,3.638512134552002,0.2840379774570465
1.625771403312683,4.730282306671143,0.3712018132209778
1.6135996580123901,4.804140567779541,0.3789059817790985
0.602935254573822,1.8396421670913696,0.1457526534795761
1.548262119293213,4.841541290283203,0.38530680537223816
1.5069125890731812,4.829891681671143,0.38607609272003174
1.4732379913330078,4.840069770812988,0.3885701894760132
1.437278151512146,4.842545032501221,0.39046210050582886
0.5731302499771118,1.9829185009002686,0.16046719253063202
1.3871625661849976,4.933681488037109,0.4007413387298584
1.3365545272827148,4.886915683746338,0.39839497208595276
1.2794162034988403,4.809386730194092,0.39348703622817993
1.2585656642913818,4.8670148849487305,0.3996434807777405
1.2298210859298706,4.898285865783691,0.4034985601902008
1.1941986083984375,4.906933307647705,0.4054187536239624
1.166291356086731,4.945494174957275,0.4098174571990967
1.1367464065551758,4.976179599761963,0.41357696056365967
1.102126955986023,4.98380708694458,0.4154338836669922
1.071488618850708,5.010238170623779,0.41886529326438904
1.0368455648422241,5.025339603424072,0.42109033465385437
1.008772611618042,5.070619583129883,0.4258568286895752
0.9683886766433716,5.054574012756348,0.42549726366996765
2.1259958744049072,11.530978202819824,0.9729424715042114
2.0117053985595703,11.353550910949707,0.9602322578430176
1.9058382511138916,11.221516609191895,0.9510919451713562
1.8006521463394165,11.076984405517578,0.9404215216636658
1.7030991315841675,10.966137886047363,0.9326155185699463
1.5984135866165161,10.792821884155273,0.91949063539505
1.498314619064331,10.626165390014648,0.9069023132324219
1.405013918876648,10.50125789642334,0.897902250289917
1.3157449960708618,10.387104988098145,0.8893700838088989
1.2273668050765991,10.26842212677002,0.8802165985107422
1.1414896249771118,10.15676498413086,0.871685802936554
1.0634715557098389,10.098553657531738,0.8677578568458557
0.9896791577339172,10.070709228515625,0.8664661049842834
0.3924260437488556,4.3061137199401855,0.37098658084869385
0.35799169540405273,4.258297920227051,0.36714956164360046
0.3280754089355469,4.260669231414795,0.3675897419452667
0.30008870363235474,4.290004253387451,0.3703755736351013
0.2745301127433777,4.361870288848877,0.3768564462661743
0.24197208881378174,4.332576274871826,0.3746214210987091
0.21075749397277832,4.310790538787842,0.3730449080467224
0.1810031533241272,4.319914817810059,0.3739161193370819
0.14721792936325073,4.216046333312988,0.36497992277145386
0.15722185373306274,5.629095077514648,0.4874028265476227
0.11984642595052719,5.75066614151001,0.4980539083480835
0.06113117188215256,4.4049530029296875,0.3816167712211609
0.030569011345505714,4.413041114807129,0.3824484050273895
-0.00015849802002776414,4.346996307373047,0.3766273856163025
-0.028806481510400772,4.121188163757324,0.35695764422416687
-0.05726524069905281,4.0703043937683105,0.35246166586875916
-0.0868358463048935,4.12817907333374,0.3574022948741913
-0.11575593799352646,4.135265350341797,0.35796213150024414
-0.14219585061073303,4.068252086639404,0.3521254062652588
-0.17011000216007233,4.059420585632324,0.35109999775886536
-0.1760210245847702,3.6033811569213867,0.3114185929298401
-0.1977430284023285,3.5360214710235596,0.30537378787994385
-0.2217911183834076,3.5268237590789795,0.304375022649765
-0.26559877395629883,3.8008735179901123,0.32782095670700073
-0.30274975299835205,3.938662528991699,0.33950886130332947
-0.31823503971099854,3.7969093322753906,0.3268851637840271
-0.33820828795433044,3.7209877967834473,0.3199452757835388
-0.35592150688171387,3.637270450592041,0.3123739957809448
-0.3738600015640259,3.5650851726531982,0.30582109093666077
-0.40859586000442505,3.6514124870300293,0.31287842988967896
-0.43489575386047363,3.6562626361846924,0.312960147857666
-0.45604920387268066,3.6184496879577637,0.3091660141944885
-0.4788598120212555,3.5998642444610596,0.30704572796821594
-0.5014365315437317,3.581136465072632,0.30493220686912537
-0.5189340114593506,3.527571678161621,0.2998709976673126
-0.5434603095054626,3.523944139480591,0.2990756928920746
-0.5596579313278198,3.466287136077881,0.2936800718307495
-0.5943950414657593,3.5277116298675537,0.29820141196250916
-0.6044227480888367,3.443122386932373,0.29039669036865234
-0.6091235280036926,3.335583209991455,0.2807046175003052
-1.214454174041748,6.398802757263184,0.5373022556304932
-1.2663838863372803,6.4285688400268555,0.5386328101158142
-1.3216314315795898,6.469274520874023,0.540744423866272
-1.3721184730529785,6.490782737731934,0.5410103797912598
-1.428778052330017,6.538528919219971,0.5434678792953491
-1.4675517082214355,6.502190589904785,0.5389459729194641
-1.495108962059021,6.416170120239258,0.5303318500518799
-0.6637253761291504,2.7598676681518555,0.2274782955646515
-0.6957652568817139,2.8082504272460938,0.23073425889015198
-0.6984930634498596,2.7394042015075684,0.22430743277072906
-0.7259987592697144,2.768584966659546,0.2259262353181839
-0.7389970421791077,2.7410471439361572,0.2229132056236267
-0.7646304965019226,2.7583601474761963,0.22353821992874146
-0.7880566716194153,2.7680559158325195,0.2235575020313263
-0.8111373782157898,2.7777223587036133,0.2234165072441101
-0.9885589480400085,3.302098512649536,0.2645036280155182
-1.010945200920105,3.295443058013916,0.2628897726535797
-1.034242033958435,3.2883400917053223,0.2612067461013794
-1.0523109436035156,3.2663676738739014,0.2583795189857483
-1.081921100616455,3.2814364433288574,0.2583865523338318
-1.1089839935302734,3.2889814376831055,0.2577180862426758
-1.1133462190628052,3.230015754699707,0.2518637478351593
-2.014836072921753,5.717278003692627,0.4435841143131256
-2.0499989986419678,5.68846321105957,0.43908581137657166
-2.0797102451324463,5.648873805999756,0.4337529242038727
-1.4336659908294678,3.815056085586548,0.2912629544734955
-1.456434726715088,3.7982592582702637,0.2883160412311554
-1.4880584478378296,3.8029091358184814,0.2869744598865509
-1.5207799673080444,3.8069236278533936,0.2855228781700134
-2.2912473678588867,5.62255859375,0.4191117286682129
-2.343750476837158,5.643392086029053,0.4178392291069031
-2.366210699081421,5.592008590698242,0.41124197840690613
-2.401272773742676,5.568850040435791,0.4066975712776184
-2.4407095909118652,5.551982879638672,0.40252771973609924
-1.6536860466003418,3.6925854682922363,0.2657546401023865
-1.5699111223220825,3.4440553188323975,0.2459149956703186
-1.5829944610595703,3.4124865531921387,0.24172274768352509
-1.60139799118042,3.3911542892456055,0.23822660744190216
-1.6271251440048218,3.383410692214966,0.23563353717327118
-1.7031307220458984,3.481069803237915,0.24027805030345917
-1.7192083597183228,3.4559528827667236,0.23632875084877014
-1.729852318763733,3.4202826023101807,0.231682687997818
-1.7572615146636963,3.4152653217315674,0.22902615368366241
-1.777367115020752,3.396254777908325,0.22543296217918396
-1.8055768013000488,3.394815683364868,0.22282914817333221
-1.8353095054626465,3.396787405014038,0.22048449516296387
-1.167749047279358,2.1262972354888916,0.136394202709198
-1.182547926902771,2.1182405948638916,0.13423274457454681
-2.554651975631714,4.506044864654541,0.2818947732448578
-2.5767617225646973,4.475742340087891,0.2762676775455475
-2.5954182147979736,4.438157558441162,0.27013394236564636
-2.612309455871582,4.396803379058838,0.263742595911026
-1.2530535459518433,2.0780205726623535,0.12275295704603195
-1.2441033124923706,2.0333845615386963,0.1182408258318901
-2.6628198623657227,4.284836292266846,0.24487458169460297
-2.053074359893799,3.2536213397979736,0.18266557157039642
-2.0949947834014893,3.273442506790161,0.1803736835718155
-2.1334009170532227,3.286057472229004,0.177565798163414
-2.1434741020202637,3.2517313957214355,0.17198266088962555
-2.197749137878418,3.286203384399414,0.16989052295684814
-2.223076820373535,3.2787933349609375,0.16561956703662872
-2.2590720653533936,3.28281569480896,0.1615598499774933
-2.323174476623535,3.3288676738739014,0.1593986451625824
-2.3665874004364014,3.3463165760040283,0.15571081638336182
-2.394695281982422,3.33614444732666,0.15013325214385986
-2.8824691772460938,3.961652994155884,0.17219427227973938
-2.8984060287475586,3.930925130844116,0.1645936667919159
-3.0109758377075195,4.212514400482178,-0.1338285505771637
-2.444119691848755,3.4749417304992676,-0.11645016819238663
-2.7900850772857666,4.028444766998291,-0.14153751730918884
-2.760899782180786,4.048253536224365,-0.14847970008850098
-1.3073674440383911,1.9485224485397339,-0.07443453371524811
-2.202080249786377,3.3319973945617676,-0.13191528618335724
-2.1642651557922363,3.3285648822784424,-0.13642126321792603
-1.3042457103729248,2.0388662815093994,-0.08629325032234192
-1.302477478981018,2.0676052570343018,-0.0900798887014389
-1.2708240747451782,2.050431251525879,-0.09184722602367401
-1.2596485614776611,2.0663323402404785,-0.09505298733711243
-2.015991687774658,3.3603243827819824,-0.15843722224235535
-2.0868594646453857,3.535938262939453,-0.1706465780735016
-2.0566656589508057,3.5443389415740967,-0.17493785917758942
-1.9948022365570068,3.4941742420196533,-0.17609183490276337
-1.196191668510437,2.1299498081207275,-0.10950737446546555
-1.8739666938781738,3.395995855331421,-0.17803402245044708
