X,Y,Z
0.31664907932281494,3.9701008796691895,-0.5710355639457703
0.3658137619495392,4.210656642913818,-0.6045212149620056
0.40090271830558777,4.269813537597656,-0.6119309663772583
0.4395069479942322,4.35566520690918,-0.6228901147842407
0.48549407720565796,4.498921871185303,-0.641681969165802
0.5114086270332336,4.4496355056762695,-0.633004367351532
0.5475795269012451,4.484602928161621,-0.6363144516944885
0.5817059278488159,4.504008769989014,-0.6374551653862
0.6238711476325989,4.580735683441162,-0.6462038159370422
0.6555432677268982,4.576697826385498,-0.643452525138855
0.6849623322486877,4.557124137878418,-0.6385499238967896
0.7148693799972534,4.5372538566589355,-0.6336022019386292
0.7464569807052612,4.532565116882324,-0.6307269930839539
0.7765514850616455,4.5201096534729,-0.6263787150382996
0.8051812648773193,4.4998250007629395,-0.620985746383667
0.8357628583908081,4.490760803222656,-0.6171762943267822
0.8611491918563843,4.454872131347656,-0.6097266674041748
0.894097626209259,4.4567742347717285,-0.6071044206619263
0.9217679500579834,4.4358296394348145,-0.6012625098228455
0.9541100263595581,4.437419891357422,-0.5985058546066284
0.9724404215812683,4.374454498291016,-0.5870835781097412
0.8330173492431641,3.6281096935272217,-0.48447108268737793
0.8567368388175964,3.6150949001312256,-0.47990602254867554
0.8798897862434387,3.6020164489746094,-0.4754146933555603
0.9086880087852478,3.611306667327881,-0.47388043999671936
0.9319398403167725,3.5978331565856934,-0.46936383843421936
0.9568750262260437,3.5917694568634033,-0.4656195640563965
0.9779735207557678,3.5705196857452393,-0.4597337543964386
1.0047335624694824,3.571636199951172,-0.45680516958236694
1.0275280475616455,3.5575764179229736,-0.4519231617450714
1.0479228496551514,3.5359489917755127,-0.44607746601104736
1.0722736120224,3.52917218208313,-0.44185683131217957
1.0947035551071167,3.514690637588501,-0.4366404116153717
1.121511459350586,3.5149011611938477,-0.43329668045043945
1.1413037776947021,3.492727518081665,-0.4271995425224304
1.1679219007492065,3.492648124694824,-0.4236130118370056
1.1894632577896118,3.4777190685272217,-0.41816991567611694
1.2096750736236572,3.458953857421875,-0.4122888147830963
1.2343041896820068,3.450798988342285,-0.407598078250885
1.2609007358551025,3.449993371963501,-0.4037449359893799
1.2818129062652588,3.4345545768737793,-0.3980537950992584
1.3841807842254639,3.6331138610839844,-0.41695284843444824
1.580020785331726,4.061972618103027,-0.46147236227989197
1.6059669256210327,4.044106960296631,-0.45463648438453674
1.6277861595153809,4.019293308258057,-0.4469287693500519
1.6552705764770508,4.008726596832275,-0.4408438205718994
1.680186152458191,3.9905929565429688,-0.43386366963386536
1.4796406030654907,3.4471435546875,-0.37044745683670044
1.9756664037704468,4.516683578491211,-0.479329913854599
1.9273234605789185,4.326270580291748,-0.4534167945384979
1.957377314567566,4.313502311706543,-0.4462664723396301
1.5616729259490967,3.3788928985595703,-0.344973623752594
1.5912795066833496,3.3828446865081787,-0.34059423208236694
1.6045880317687988,3.3512818813323975,-0.3325709402561188
1.634690761566162,3.3546106815338135,-0.32801249623298645
1.6616464853286743,3.3506152629852295,-0.322677880525589
2.2521722316741943,4.465895175933838,-0.4233141243457794
2.3054678440093994,4.496334552764893,-0.4193587601184845
2.3511929512023926,4.508539199829102,-0.4134041965007782
2.3867275714874268,4.499444961547852,-0.4052620232105255
1.7406960725784302,3.2293202877044678,-0.2855982482433319
1.751288890838623,3.197519063949585,-0.2775300443172455
1.7414419651031494,3.1278634071350098,-0.2661353647708893
1.762807011604309,3.116410493850708,-0.2597600817680359
1.8131015300750732,3.155552387237549,-0.2573896050453186
1.3534572124481201,2.3189680576324463,-0.18495285511016846
0.9562176465988159,1.6125013828277588,-0.1256011724472046
0.9609352350234985,1.5963318347930908,-0.12131544202566147
0.973652184009552,1.593442440032959,-0.11804406344890594
0.9829490780830383,1.5834118127822876,-0.11405103653669357
0.9894542098045349,1.570406198501587,-0.10991018265485764
1.0061196088790894,1.5739388465881348,-0.10691814124584198
1.017045259475708,1.5671610832214355,-0.10304058343172073
1.0255305767059326,1.5572056770324707,-0.09892791509628296
1.0315725803375244,1.5440818071365356,-0.0945756658911705
1.0487905740737915,1.5468474626541138,-0.09106765687465668
1.0680372714996338,1.5528435707092285,-0.08763933181762695
2.55574107170105,3.665201187133789,-0.19784800708293915
2.5947012901306152,3.6670095920562744,-0.18820783495903015
2.619112968444824,3.6501598358154297,-0.17731134593486786
2.6108815670013428,3.5892035961151123,-0.16432952880859375
2.663256883621216,3.6094164848327637,-0.15440356731414795
2.6223204135894775,3.7095601558685303,0.328296422958374
2.5928595066070557,3.7292211055755615,0.3393656015396118
1.0668878555297852,1.5587905645370483,0.14550061523914337
1.0553970336914062,1.5662004947662354,0.14967136085033417
1.043168544769287,1.5739789009094238,0.15374813973903656
1.048476219177246,1.6073757410049438,0.16023091971874237
1.0159605741500854,1.5816824436187744,0.16066287457942963
1.0120348930358887,1.6022645235061646,0.16566738486289978
0.9996575117111206,1.6096341609954834,0.16933462023735046
0.9882572889328003,1.6163029670715332,0.17269699275493622
0.96817946434021,1.6099250316619873,0.17457853257656097
0.9716920256614685,1.6436938047409058,0.18080106377601624
1.3486722707748413,2.31925630569458,0.2585389018058777
1.870619535446167,3.269839286804199,0.3692457973957062
1.8041164875030518,3.208573818206787,0.36665719747543335
1.7554218769073486,3.1772096157073975,0.3673269748687744
1.78632652759552,3.2881381511688232,0.384334534406662
1.7558292150497437,3.2862725257873535,0.3881957232952118
2.395191192626953,4.564657211303711,0.5446181297302246
2.353846549987793,4.567770481109619,0.5502569675445557
2.320645809173584,4.583874702453613,0.5573142170906067
2.288381338119507,4.599233150482178,0.5641481876373291
2.2617952823638916,4.628836154937744,0.5725409984588623
2.223376989364624,4.63797664642334,0.5783394575119019
2.1889469623565674,4.653509616851807,0.5848678350448608
2.1594865322113037,4.6750264167785645,0.5919428467750549
2.1297895908355713,4.696364402770996,0.5990428924560547
2.0982911586761475,4.71826171875,0.605850875377655
2.063446044921875,4.732846260070801,0.6117500066757202
1.9994580745697021,4.679433345794678,0.6088451743125916
1.7417514324188232,4.156116962432861,0.5441346764564514
1.7020550966262817,4.142565727233887,0.5456774830818176
1.675995111465454,4.16511869430542,0.5516495108604431
1.6453930139541626,4.176697254180908,0.5562092661857605
1.6146715879440308,4.188060760498047,0.5607740879058838
1.588065505027771,4.205924987792969,0.5660986304283142
1.5638859272003174,4.230921745300293,0.5723955035209656
1.5330376625061035,4.241650104522705,0.5764310956001282
1.5021549463272095,4.252136707305908,0.5804609060287476
1.4733226299285889,4.2698516845703125,0.5855472087860107
1.4458959102630615,4.28685998916626,0.5904413461685181
1.4183024168014526,4.303689002990723,0.5953481793403625
1.3826173543930054,4.298519134521484,0.5968943238258362
1.360723614692688,4.337489604949951,0.6045167446136475
1.3287667036056519,4.346885681152344,0.608100950717926
1.3003236055374146,4.3630781173706055,0.6125736236572266
1.2741347551345825,4.386445045471191,0.6180763840675354
1.2442574501037598,4.3985700607299805,0.6219046711921692
1.212605595588684,4.4069743156433105,0.6249247193336487
1.1848963499069214,4.4301018714904785,0.6300712823867798
1.1545219421386719,4.44567346572876,0.634212076663971
1.1272715330123901,4.468204021453857,0.6393042206764221
1.0960811376571655,4.475534915924072,0.6422589421272278
1.0679410696029663,4.497852802276611,0.6471127867698669
1.0323083400726318,4.489924907684326,0.6474695205688477
1.0046336650848389,4.519604206085205,0.6533143520355225
0.975849449634552,4.541367530822754,0.6580190658569336
0.930030345916748,4.479538917541504,0.6506006121635437
0.7681176066398621,3.8333864212036133,0.5580960512161255
0.7423982620239258,3.8460652828216553,0.5610023736953735
0.8443564772605896,4.550583362579346,0.6649700999259949
0.8194648027420044,4.5980401039123535,0.6731314063072205
0.7883707880973816,4.611020565032959,0.676281213760376
0.7586767673492432,4.631372928619385,0.6805405020713806
0.7311791777610779,4.6668009757995605,0.6870589256286621
0.6987756490707397,4.679333686828613,0.6898549199104309
0.6672840714454651,4.695411205291748,0.6931064128875732
0.6324993371963501,4.688292980194092,0.6929685473442078
0.6019676327705383,4.711564064025879,0.697352945804596
0.5719574689865112,4.738430500030518,0.7023018002510071
0.5407297015190125,4.757424354553223,0.7061259150505066
0.5075613260269165,4.768670082092285,0.708477258682251
0.4755003750324249,4.787347793579102,0.7118332982063293
0.44325336813926697,4.8058037757873535,0.7151946425437927
0.4111503064632416,4.827887058258057,0.7191345691680908
0.3775682747364044,4.830470085144043,0.720201313495636
0.3455333411693573,4.8636932373046875,0.7258896231651306
0.3110182285308838,4.858164310455322,0.725504994392395
0.2787012457847595,4.891000270843506,0.7306764125823975
0.2451680302619934,4.908185005187988,0.7335480451583862
0.2116267830133438,4.928995132446289,0.7369996309280396
0.17679056525230408,4.930282115936279,0.7375730276107788
0.14343027770519257,4.962199687957764,0.7427607774734497
0.10943565517663956,4.986196041107178,0.746597945690155
0.0748337060213089,4.994555950164795,0.7477970123291016
0.040213584899902344,5.014265060424805,0.7507315278053284
0.004700294230133295,5.014418125152588,0.7507750391960144
-0.030397426337003708,5.045227527618408,0.7554451823234558
-0.0657232403755188,5.060338497161865,0.7578021287918091
-0.1011970117688179,5.075212478637695,0.7600917816162109
-0.1366703063249588,5.082183837890625,0.7607598900794983
-0.17250673472881317,5.096628665924072,0.7625819444656372
-0.2085309624671936,5.095355987548828,0.7620832324028015
-0.2452290803194046,5.120870590209961,0.7656317949295044
-0.28419631719589233,5.1808390617370605,0.7743642926216125
-0.2710801661014557,4.384445667266846,0.6551638245582581
-0.29475337266921997,4.286226749420166,0.6399565935134888
-0.32661470770835876,4.307296276092529,0.6425326466560364
-0.3563586473464966,4.305066108703613,0.6416705250740051
-0.38613393902778625,4.302626609802246,0.640807032585144
-0.4104503095149994,4.242276191711426,0.6313535571098328
-0.43314892053604126,4.174106597900391,0.6207799911499023
-0.4582422375679016,4.132717609405518,0.6139365434646606
-0.4812389612197876,4.0835981369018555,0.6058476567268372
-0.505975067615509,4.053529739379883,0.6006279587745667
-0.5268275737762451,3.9964852333068848,0.5914531350135803
-0.5508936643600464,3.9661080837249756,0.5862610340118408
-0.5699974298477173,3.9011013507843018,0.5759825110435486
-0.5916662216186523,3.8628878593444824,0.5695225596427917
-0.6107921004295349,3.81317138671875,0.5611981153488159
-0.6324521899223328,3.7824349403381348,0.5557119250297546
-0.6530560851097107,3.747769355773926,0.5496891736984253
-0.6708459854125977,3.697711229324341,0.5414395928382874
-0.6948873400688171,3.6816954612731934,0.5381990075111389
-0.7114032506942749,3.631511688232422,0.5298817753791809
-0.7300771474838257,3.59651517868042,0.523590624332428
-0.745883047580719,3.550081968307495,0.5156841278076172
-0.7635517716407776,3.5149340629577637,0.5094640254974365
-0.7833365201950073,3.4870693683624268,0.5043010115623474
-0.8014605045318604,3.4554243087768555,0.4986511170864105
-0.82527756690979,3.45009446144104,0.49670055508613586
-0.8412996530532837,3.414665460586548,0.49022647738456726
-0.8540594577789307,3.367913246154785,0.48217594623565674
-0.8714767098426819,3.3397669792175293,0.47681552171707153
-0.8847343921661377,3.2965352535247803,0.4693366289138794
-0.9077227115631104,3.290583372116089,0.46720290184020996
-0.9240264892578125,3.262235403060913,0.4617604613304138
-0.9385510683059692,3.230219841003418,0.45567938685417175
-0.954198956489563,3.2017457485198975,0.4501133859157562
-0.9692794680595398,3.1732676029205322,0.44460469484329224
-0.9832918047904968,3.1409029960632324,0.43856558203697205
-1.0004780292510986,3.119544744491577,0.43410181999206543
-1.016837477684021,3.0983126163482666,0.4294567406177521
-1.0307103395462036,3.069594383239746,0.42371314764022827
-1.042601227760315,3.0372848510742188,0.41755208373069763
-1.0635125637054443,3.030392646789551,0.41488325595855713
-1.074198603630066,2.9940807819366455,0.40819963812828064
-1.0815874338150024,2.950554847717285,0.40052530169487
-1.1149698495864868,2.979907989501953,0.40254122018814087
-1.1215227842330933,2.936397075653076,0.3946954309940338
-1.1357368230819702,2.914684772491455,0.3898555338382721
-1.1345866918563843,2.853041887283325,0.379676878452301
-1.1457499265670776,2.8238770961761475,0.3738901615142822
-1.1484562158584595,2.7770838737487793,0.3656013607978821
-1.132692575454712,2.687417507171631,0.3517121374607086
-1.129258632659912,2.6302590370178223,0.34222760796546936
-1.1538004875183105,2.6369292736053467,0.3410094082355499
-1.1690795421600342,2.622096061706543,0.33701345324516296
-1.1931942701339722,2.628676652908325,0.33561277389526367
-1.2110168933868408,2.6209375858306885,0.33228611946105957
-1.2416682243347168,2.64132022857666,0.3325585126876831
-1.2500537633895874,2.611999988555908,0.3264697790145874
-1.2615755796432495,2.5896222591400146,0.32128554582595825
-1.2720121145248413,2.567631721496582,0.31600698828697205
-1.2858474254608154,2.5524840354919434,0.31152278184890747
-1.2940822839736938,2.526958465576172,0.3058323562145233
-1.3082484006881714,2.51134991645813,0.30125361680984497
-1.3147820234298706,2.4820384979248047,0.29503506422042847
-1.327502965927124,2.466893434524536,0.2903745174407959
-1.3363510370254517,2.4448623657226562,0.2849399149417877
-1.3458850383758545,2.42232608795166,0.27932876348495483
-1.3609187602996826,2.4099113941192627,0.27491626143455505
-1.3652911186218262,2.3810510635375977,0.2685246765613556
-1.3730418682098389,2.3590710163116455,0.2629314363002777
-1.388930320739746,2.350216865539551,0.25873762369155884
-1.3977116346359253,2.3273627758026123,0.252838671207428
-1.4334716796875,2.351668357849121,0.2519873380661011
-1.440595269203186,2.329511880874634,0.24608927965164185
-1.42116117477417,2.264169216156006,0.23561544716358185
-1.464300513267517,2.297234296798706,0.23525793850421906
-1.4626753330230713,2.261776924133301,0.22766411304473877
-1.4730277061462402,2.2462258338928223,0.22218920290470123
-1.4864634275436401,2.233189344406128,0.21670001745224
-1.4929513931274414,2.2105908393859863,0.21021448075771332
-1.498294711112976,2.188612937927246,0.20375800132751465
-1.5176646709442139,2.1852331161499023,0.1987636387348175
-1.4969127178192139,2.124194860458374,0.18845747411251068
-1.4990209341049194,2.0993082523345947,0.18142277002334595
-1.5083829164505005,2.0834801197052,0.17498722672462463
-1.522623062133789,2.0736136436462402,0.16873964667320251
-1.5215438604354858,2.0458264350891113,0.16101576387882233
-1.4937396049499512,2.10782790184021,-0.11347388476133347
-1.5064226388931274,2.160522222518921,-0.12296035140752792
-1.468750238418579,2.138751745223999,-0.12779457867145538
-1.483198642730713,2.194585084915161,-0.13727852702140808
-1.4709513187408447,2.2117650508880615,-0.14432533085346222
-1.4724509716033936,2.2477457523345947,-0.15229657292366028
-1.4513707160949707,2.251707077026367,-0.15815278887748718
-1.438862919807434,2.2685186862945557,-0.1648162454366684
-1.4287346601486206,2.2882659435272217,-0.1715817153453827
-1.4156681299209595,2.3050732612609863,-0.1780528724193573
-1.406693458557129,2.3283326625823975,-0.18499667942523956
-1.3982386589050293,2.351118564605713,-0.19173549115657806
-1.3927016258239746,2.381054162979126,-0.19911044836044312
-1.370837926864624,2.3842339515686035,-0.20435625314712524
-1.3578492403030396,2.400139093399048,-0.2103775441646576
-1.3367199897766113,2.4025824069976807,-0.21519099175930023
-1.3302030563354492,2.4323699474334717,-0.2224605679512024
-1.314576268196106,2.4447832107543945,-0.22807607054710388
-1.3042799234390259,2.467418909072876,-0.2346762865781784
-1.2897685766220093,2.483311414718628,-0.2405417561531067
-1.285717248916626,2.5199010372161865,-0.2484814077615738
-1.2505218982696533,2.493600368499756,-0.25005343556404114
-1.2206798791885376,2.477524995803833,-0.25251948833465576
-1.1853567361831665,2.4509785175323486,-0.2538500130176544
-1.1843467950820923,2.494088888168335,-0.26229628920555115
-1.170005440711975,2.508931875228882,-0.2677675783634186
-1.1826623678207397,2.5839462280273438,-0.2797035872936249
-1.1670448780059814,2.599043846130371,-0.28523024916648865
-1.1562601327896118,2.624588966369629,-0.2918950617313385
-1.137478232383728,2.632256507873535,-0.2966088652610779
-1.111009955406189,2.6219401359558105,-0.2991083562374115
-1.1025243997573853,2.6544721126556396,-0.30648067593574524
-1.0923917293548584,2.6833155155181885,-0.3134629428386688
-1.0792957544326782,2.7048189640045166,-0.31960049271583557
-1.0681040287017822,2.7337567806243896,-0.32661139965057373
-1.0526090860366821,2.751711845397949,-0.3322574198246002
-1.0411951541900635,2.780407428741455,-0.3392227292060852
-1.027021050453186,2.801687002182007,-0.3452986180782318
-1.0149601697921753,2.8303027153015137,-0.35220980644226074
-0.9994794726371765,2.8517279624938965,-0.3582554757595062
-0.9854682683944702,2.8765852451324463,-0.3647129237651825
-0.6488686203956604,1.9378643035888672,-0.24791115522384644
-1.007611870765686,3.0807442665100098,-0.3975420892238617
-1.0988560914993286,3.4418246746063232,-0.4477812647819519
-1.0854216814041138,3.486090898513794,-0.457306832075119
-1.0778645277023315,3.548630714416504,-0.4692282974720001
-1.0672125816345215,3.6038029193878174,-0.4802691340446472
-1.0501823425292969,3.6404871940612793,-0.4886278808116913
-1.0368441343307495,3.6920201778411865,-0.49907928705215454
-1.0180070400238037,3.724773645401001,-0.5070462822914124
-0.9974753260612488,3.753757953643799,-0.5146108269691467
-0.9767866134643555,3.7826220989227295,-0.5218638181686401
-0.9575818181037903,3.818901777267456,-0.5301157236099243
-0.9425473809242249,3.8738765716552734,-0.541049063205719
-0.9243015646934509,3.9174675941467285,-0.5504710078239441
-0.894596517086029,3.9158451557159424,-0.553483784198761
-0.84772127866745,3.8346426486968994,-0.5448560118675232
-0.8222800493240356,3.847574472427368,-0.5495686531066895
-0.7922176718711853,3.837562322616577,-0.5510032176971436
-0.7435052990913391,3.7324793338775635,-0.5387139320373535
-0.7197027802467346,3.752439022064209,-0.5440626740455627
-0.671517550945282,3.6390879154205322,-0.529952883720398
-0.6433014869689941,3.6280460357666016,-0.5306729078292847
-0.6219008564949036,3.654879331588745,-0.5369504690170288
-0.5857986211776733,3.5938689708709717,-0.5301380157470703
-0.5506405234336853,3.536484718322754,-0.5235618948936462
-0.5315382480621338,3.5781285762786865,-0.5316265225410461
-0.5043604969978333,3.5660922527313232,-0.5317491888999939
-0.47534722089767456,3.5385310649871826,-0.5295559167861938
-0.44713294506073,3.5146515369415283,-0.5274898409843445
-0.4206429719924927,3.5020735263824463,-0.5270606279373169
-0.38919392228126526,3.4471137523651123,-0.5202715396881104
-0.3627779185771942,3.426413059234619,-0.5186091661453247
-0.3411784768104553,3.4516665935516357,-0.523777425289154
-0.31569042801856995,3.43837308883667,-0.5227845907211304
-0.29105696082115173,3.4325902462005615,-0.5229521989822388
-0.26491203904151917,3.411259651184082,-0.5207855105400085
-0.24003559350967407,3.3974130153656006,-0.5197563171386719
-0.2168309986591339,3.406564474105835,-0.521895706653595
-0.19349822402000427,3.4155771732330322,-0.5239071846008301
-0.1689012199640274,3.4012911319732666,-0.5223689079284668
-0.14451555907726288,3.394556999206543,-0.5220208168029785
-0.12091127783060074,3.3953640460968018,-0.522771954536438
-0.09771779924631119,3.411508083343506,-0.5254862308502197
-0.0736360177397728,3.3966143131256104,-0.5234450697898865
-0.05047554895281792,3.4278740882873535,-0.5285428762435913
-0.026231160387396812,3.4280922412872314,-0.5288879871368408
-0.002404551487416029,3.435903310775757,-0.5301420092582703
0.02164650708436966,3.4667468070983887,-0.5347397327423096
0.04584820941090584,3.4742588996887207,-0.535762369632721
0.06971649080514908,3.458442211151123,-0.5332135558128357
0.0947556123137474,3.492631673812866,-0.5383999347686768
0.11972467601299286,3.499692440032959,-0.5389310121536255
0.14408531785011292,3.4988789558410645,-0.5382477045059204
0.17064055800437927,3.5441763401031494,-0.5446775555610657
0.19674155116081238,3.5699987411499023,-0.5481303334236145
0.22346289455890656,3.5995097160339355,-0.551987886428833
0.24887914955615997,3.5980327129364014,-0.5507404208183289
0.27323850989341736,3.5887067317962646,-0.5483387112617493
0.3048962354660034,3.6677286624908447,-0.5594411492347717
0.3324948251247406,3.6887879371643066,-0.5617011785507202
0.35882359743118286,3.6943318843841553,-0.5612207651138306
0.3941099941730499,3.7803444862365723,-0.5727883577346802
0.4250391125679016,3.8200266361236572,-0.5773381590843201
0.4588997960090637,3.8786373138427734,-0.584732174873352
0.49499034881591797,3.9484856128692627,-0.5937140583992004
0.5183206796646118,3.9146807193756104,-0.5866698622703552
0.5646712779998779,4.045238971710205,-0.6041987538337708
0.5961627960205078,4.064530849456787,-0.6050917506217957
0.6320942044258118,4.110318183898926,-0.609920859336853
0.6784223318099976,4.2169294357299805,-0.6233852505683899
0.7223873138427734,4.300278186798096,-0.6330916285514832
0.7635046243667603,4.360388278961182,-0.6393179893493652
0.8027896285057068,4.400997638702393,-0.642583966255188
0.8385121822357178,4.42238187789917,-0.6430459022521973
0.8781070709228516,4.462571144104004,-0.6456986665725708
0.9043846726417542,4.434211254119873,-0.6384472846984863
0.9384080171585083,4.443522930145264,-0.6366456151008606
0.9682775735855103,4.4297709465026855,-0.6315019726753235
0.9905142784118652,4.385798931121826,-0.6218833923339844
1.0261269807815552,4.4020795822143555,-0.6206170320510864
1.0529652833938599,4.38044548034668,-0.6140289306640625
1.0779625177383423,4.351067066192627,-0.6063834428787231
1.1184371709823608,4.381446361541748,-0.606984555721283
1.1300609111785889,4.303130149841309,-0.5922012329101562
0.9680134057998657,3.5855112075805664,-0.49018049240112305
0.9846769571304321,3.549386978149414,-0.4820041358470917
1.0137300491333008,3.5578696727752686,-0.47990816831588745
1.0388599634170532,3.551208257675171,-0.47548606991767883
1.0633671283721924,3.5445432662963867,-0.47102057933807373
1.0878846645355225,3.5376884937286377,-0.46654456853866577
1.1079922914505005,3.5157852172851562,-0.4600784480571747
1.1277236938476562,3.493812322616577,-0.4535802900791168
1.1522350311279297,3.4864354133605957,-0.44871026277542114
1.1750357151031494,3.4753379821777344,-0.4434540867805481
1.1992642879486084,3.4676668643951416,-0.438618928194046
1.2209579944610596,3.452471971511841,-0.4328450858592987
1.2486591339111328,3.4555656909942627,-0.4291112720966339
1.2683963775634766,3.4365978240966797,-0.42263659834861755
1.292668342590332,3.42818546295166,-0.41738325357437134
1.3138905763626099,3.412421941757202,-0.4112997055053711
1.3402776718139648,3.4111311435699463,-0.40681204199790955
1.3607752323150635,3.3952853679656982,-0.4005352556705475
1.4679841995239258,3.5913450717926025,-0.41898560523986816
1.674498200416565,4.015255928039551,-0.463035523891449
1.71141517162323,4.025771617889404,-0.4587749242782593
1.487213373184204,3.433558940887451,-0.3865189552307129
1.9469871520996094,4.412301540374756,-0.4905213713645935
1.9444341659545898,4.324937343597412,-0.4746321141719818
1.5620685815811157,3.410712718963623,-0.36924874782562256
1.568860411643982,3.365405559539795,-0.3593330681324005
1.5885752439498901,3.3481881618499756,-0.3524663746356964
1.6154611110687256,3.3445963859558105,-0.34692493081092834
1.6316896677017212,3.320033311843872,-0.33916205167770386
1.6546363830566406,3.309314489364624,-0.3326874077320099
2.289386034011841,4.502053737640381,-0.4452989101409912
2.32452130317688,4.493659973144531,-0.4370041787624359
1.730185866355896,3.289987802505493,-0.31438276171684265
1.735872507095337,3.2479488849639893,-0.3048112988471985
1.7471321821212769,3.215973138809204,-0.2961612641811371
1.730574131011963,3.1324350833892822,-0.28274044394493103
1.7440487146377563,3.1077027320861816,-0.2748059332370758
1.7765132188796997,3.1167778968811035,-0.26986435055732727
1.3375104665756226,2.3092539310455322,-0.19549207389354706
1.3000348806381226,2.209754705429077,-0.18275654315948486
0.9573048949241638,1.602447509765625,-0.12931033968925476
0.9682527184486389,1.5961558818817139,-0.12555775046348572
0.9794440865516663,1.5896133184432983,-0.12169947475194931
0.9899865984916687,1.5833605527877808,-0.11784578859806061
0.9984913468360901,1.5736812353134155,-0.11371860653162003
1.0202676057815552,1.5831931829452515,-0.1107286736369133
1.0201153755187988,1.5603256225585938,-0.1055346354842186
1.0303910970687866,1.553829550743103,-0.10147416591644287
1.0434836149215698,1.5500510931015015,-0.09734398871660233
1.0515660047531128,1.5401235818862915,-0.0928300991654396
2.561396598815918,3.6985058784484863,-0.21324770152568817
2.5783371925354004,3.6682820320129395,-0.20137353241443634
2.6065542697906494,3.6584675312042236,-0.1906507909297943
2.6263785362243652,3.635218858718872,-0.1788545697927475
2.6117520332336426,3.5643656253814697,-0.16439557075500488
2.6831817626953125,3.6140756607055664,-0.15545427799224854
2.6342713832855225,3.6994385719299316,0.3463361859321594
2.6091482639312744,3.7255702018737793,0.35899418592453003
2.5733120441436768,3.7304465770721436,0.36865296959877014
1.0605177879333496,1.5619137287139893,0.15803833305835724
1.0612156391143799,1.5891433954238892,0.1644652932882309
1.0412473678588867,1.5832769870758057,0.16718091070652008
1.029292106628418,1.5906436443328857,0.171237513422966
1.0211087465286255,1.6047072410583496,0.17592236399650574
1.0093517303466797,1.6117140054702759,0.1796761006116867
0.9896708726882935,1.6052250862121582,0.18180406093597412
0.9894274473190308,1.632307767868042,0.1876390427350998
0.9648258090019226,1.6194654703140259,0.18892225623130798
0.9572934508323669,1.6325626373291016,0.19297732412815094
1.34722900390625,2.335800886154175,0.27962762117385864
1.82560396194458,3.2207207679748535,0.390254944562912
1.7618025541305542,3.162261962890625,0.3876858055591583
1.7539983987808228,3.201353073120117,0.39685529470443726
1.7767637968063354,3.2987451553344727,0.4132272005081177
1.7609748840332031,3.328458309173584,0.4211033284664154
2.371328830718994,4.563507556915283,0.58301842212677
2.339195728302002,4.579124450683594,0.5903359055519104
2.3060662746429443,4.594939708709717,0.5977486371994019
2.2717761993408203,4.611071586608887,0.6047830581665039
2.24074649810791,4.633923530578613,0.6127398014068604
2.2107338905334473,4.656004428863525,0.6204653978347778
2.181213855743408,4.67757511138916,0.628068745136261
2.144077777862549,4.685318470001221,0.6335775256156921
2.115068197250366,4.714614391326904,0.6419286131858826
2.076993465423584,4.7221808433532715,0.647287130355835
2.0406527519226074,4.728733539581299,0.652313232421875
1.7763209342956543,4.1961774826049805,0.5825102925300598
1.722080111503601,4.150999069213867,0.5795488953590393
1.6881167888641357,4.155869960784912,0.5835174322128296
1.6576073169708252,4.167447090148926,0.5883932709693909
1.6310878992080688,4.185550212860107,0.5940924286842346
1.604432225227356,4.203465938568115,0.5998009443283081
1.579461932182312,4.2288126945495605,0.6063162088394165
1.5506254434585571,4.247079372406006,0.6117876172065735
1.5196080207824707,4.257648944854736,0.6161336898803711
1.489490270614624,4.267669200897217,0.6203433871269226
1.46208918094635,4.28470516204834,0.625582218170166
1.4340676069259644,4.301736831665039,0.6306648254394531
1.404739499092102,4.318976402282715,0.6355873942375183
1.3757457733154297,4.3358588218688965,0.6404609680175781
1.3470079898834229,4.352417945861816,0.6452955007553101
1.3187897205352783,4.368587017059326,0.6500596404075623
1.2892756462097168,4.380871772766113,0.6542870998382568
1.2599018812179565,4.396961688995361,0.6586967706680298
1.2276800870895386,4.405568599700928,0.6620224714279175
1.1999790668487549,4.4287238121032715,0.6675421595573425
1.1707144975662231,4.4440598487854,0.6718839406967163
1.1415634155273438,4.459134101867676,0.67620849609375
1.1082881689071655,4.459089279174805,0.678155243396759
1.0793331861495972,4.481661796569824,0.6832296848297119
1.0507149696350098,4.503910541534424,0.6882709264755249
1.0183829069137573,4.5109100341796875,0.6910250186920166
0.9901929497718811,4.532589435577393,0.6960213780403137
0.9602004289627075,4.5465216636657715,0.6998677849769592
0.7811603546142578,3.833803653717041,0.5914687514305115
0.7568238973617554,3.8541388511657715,0.5956758856773376
0.7236714363098145,3.82877516746521,0.5928441882133484
0.8337952494621277,4.589603900909424,0.7119872570037842
0.8057705760002136,4.617787837982178,0.7177107930183411
0.7755293250083923,4.638276100158691,0.7223098278045654
0.7441374063491821,4.6509246826171875,0.7254927158355713
0.7135174870491028,4.671074390411377,0.72959303855896
0.6820428967475891,4.68720817565918,0.7331096529960632
0.6498970985412598,4.699296951293945,0.736033022403717
0.6175635457038879,4.711169719696045,0.7389646768569946
0.5857037305831909,4.722747802734375,0.7418701648712158
0.5553805232048035,4.749483585357666,0.7470260262489319
0.5227581858634949,4.760762691497803,0.7494239211082458
0.4907929599285126,4.779494285583496,0.7530353665351868
0.4593240022659302,4.805692672729492,0.7578660249710083
0.42628011107444763,4.820167541503906,0.7608952522277832
0.3946249783039093,4.845903396606445,0.7657310962677002
0.36145663261413574,4.85605001449585,0.7680796384811401
0.3274269998073578,4.8583574295043945,0.7687468528747559
0.2939010560512543,4.868126392364502,0.7706323266029358
0.26084306836128235,4.900812149047852,0.7761937379837036
0.2271464765071869,4.913970470428467,0.7786962389945984
0.1941976249217987,4.946166038513184,0.7842550873756409
0.16006477177143097,4.955001354217529,0.7861515879631042
0.1258670687675476,4.9713921546936035,0.7888057827949524
0.090884268283844,4.9875688552856445,0.7913845181465149
0.056228525936603546,5.00349235534668,0.7939619421958923
0.021481720730662346,5.023031711578369,0.7971519827842712
-0.013489242643117905,5.046186923980713,0.8009552359580994
-0.04863251745700836,5.053666114807129,0.8023098707199097
-0.08478564023971558,5.076368808746338,0.80580073595047
-0.12021021544933319,5.083437919616699,0.8066064715385437
-0.15609097480773926,5.101828575134277,0.8092460632324219
-0.19208812713623047,5.116110324859619,0.8112710118293762
-0.22834743559360504,5.1301350593566895,0.813292920589447
-0.26481106877326965,5.1439032554626465,0.8153121471405029
-0.30362609028816223,5.184364318847656,0.8214401006698608
-0.2862582206726074,4.369917869567871,0.6918283700942993
-0.31173497438430786,4.302543640136719,0.6806366443634033
-0.34148621559143066,4.300415992736816,0.6798070073127747
-0.37340405583381653,4.321133613586426,0.6826159954071045
-0.3989601135253906,4.264726161956787,0.6732704639434814
-0.4220719337463379,4.19670295715332,0.6621428728103638
-0.4480903148651123,4.167037010192871,0.6566389799118042
-0.4715655744075775,4.118034362792969,0.6481262445449829
-0.49480757117271423,4.072739601135254,0.640245795249939
-0.515595555305481,4.008102893829346,0.6293584704399109
-0.5387903451919556,3.9701902866363525,0.6227238774299622
-0.5620284080505371,3.9359679222106934,0.616709291934967
-0.5822821855545044,3.886427879333496,0.6080108284950256
-0.6047367453575134,3.8558971881866455,0.6022282242774963
-0.6228756308555603,3.798499822616577,0.5922819972038269
-0.6444408297538757,3.767730474472046,0.5865498781204224
-0.6638192534446716,3.7253968715667725,0.5790528059005737
-0.6826801896095276,3.6829652786254883,0.5715852975845337
-0.7013963460922241,3.644334554672241,0.5645182132720947
-0.7201749682426453,3.609466791152954,0.5579137802124023
-0.7365766763687134,3.563080072402954,0.5495590567588806
-0.751267671585083,3.512915849685669,0.5406903624534607
-0.7682075500488281,3.4739437103271484,0.5335767865180969
-0.7906997799873352,3.461257219314575,0.5305381417274475
-0.8109576106071472,3.4410059452056885,0.5261822938919067
-0.8329542279243469,3.4281389713287354,0.5227848291397095
-0.8469235301017761,3.38523006439209,0.5148719549179077
-0.8613784909248352,3.346008777618408,0.5075685381889343
-0.8846487402915955,3.3402669429779053,0.505357563495636
-0.8977587819099426,3.297055959701538,0.49751517176628113
-0.9123862981796265,3.261298894882202,0.4906230866909027
-0.9312819242477417,3.24426007270813,0.48647308349609375
-0.9488961696624756,3.2234020233154297,0.4817853569984436
-0.9574912786483765,3.1727869510650635,0.47268953919410706
-0.977336585521698,3.159005880355835,0.46909573674201965
-0.9962733387947083,3.1412901878356934,0.4649214446544647
-1.003274917602539,3.090693712234497,0.45568957924842834
-1.02413809299469,3.0842466354370117,0.45295223593711853
-1.035007119178772,3.0483453273773193,0.44592681527137756
-1.052219271659851,3.0305652618408203,0.4415590167045593
-1.073380470275879,3.0235419273376465,0.4387640357017517
-1.0868120193481445,2.9944660663604736,0.4327046573162079
-1.0881198644638062,2.9366977214813232,0.42236053943634033
-1.1106369495391846,2.9369654655456543,0.4204094707965851
-1.1332606077194214,2.937042713165283,0.41843491792678833
-1.1239761114120483,2.8538172245025635,0.40459200739860535
-1.1384786367416382,2.83180832862854,0.3994767665863037
-1.1487551927566528,2.803002119064331,0.3932637870311737
-1.1421345472335815,2.7349154949188232,0.38156500458717346
-1.128584861755371,2.6527609825134277,0.36802712082862854
-1.1346677541732788,2.6168465614318848,0.36092609167099
-1.1595680713653564,2.6233127117156982,0.35964542627334595
-1.1837818622589111,2.629941463470459,0.3582689166069031
-1.1981085538864136,2.6153805255889893,0.35392123460769653
-1.2319506406784058,2.642914056777954,0.35526037216186523
-1.2435933351516724,2.620772361755371,0.349832147359848
-1.2555598020553589,2.598325729370117,0.34432920813560486
-1.2731266021728516,2.5902504920959473,0.34064650535583496
-1.3042019605636597,2.609982967376709,0.3405190706253052
-1.2934162616729736,2.546387195587158,0.3295637369155884
-1.30233633518219,2.520517587661743,0.32343897223472595
-1.3092292547225952,2.491161823272705,0.316911906003952
-1.3223929405212402,2.475916862487793,0.31196853518486023
-1.3313652276992798,2.4539506435394287,0.30625495314598083
-1.3442188501358032,2.438575029373169,0.3013352155685425
-1.353729486465454,2.4160330295562744,0.29545947909355164
-1.3604997396469116,2.3904201984405518,0.28916025161743164
-1.3725626468658447,2.3750686645507812,0.2839905321598053
-1.3843111991882324,2.3597464561462402,0.2788906693458557
-1.392943024635315,2.337117910385132,0.27275627851486206
-1.4210197925567627,2.347994565963745,0.27047038078308105
-1.4118943214416504,2.2994515895843506,0.2612661123275757
-1.4437215328216553,2.316878318786621,0.25949084758758545
-1.4517362117767334,2.2940359115600586,0.252991646528244
-1.4546526670455933,2.265050172805786,0.24580222368240356
-1.4693342447280884,2.2560982704162598,0.24075491726398468
-1.4565805196762085,2.2045159339904785,0.2311047464609146
-1.48971426486969,2.220430612564087,0.22828690707683563
-1.473326325416565,2.166292190551758,0.2182559370994568
-1.513728380203247,2.1957900524139404,0.21665067970752716
-1.489100456237793,2.1281464099884033,0.2050367146730423
-1.4985969066619873,2.112492084503174,0.19849775731563568
-1.5099692344665527,2.1001429557800293,0.19217409193515778
-1.515569806098938,2.0774364471435547,0.18448442220687866
-1.5196261405944824,2.055690050125122,0.17686307430267334
-1.5010652542114258,2.1025688648223877,-0.11436668783426285
-1.4851458072662354,2.1134252548217773,-0.1218586191534996
-1.4981896877288818,2.16572904586792,-0.13164474070072174
-1.4958058595657349,2.1953213214874268,-0.13985958695411682
-1.4834067821502686,2.2126545906066895,-0.14738240838050842
-1.4717283248901367,2.2293341159820557,-0.1545640528202057
-1.4550913572311401,2.2397520542144775,-0.1613214612007141
-1.461223840713501,2.2863283157348633,-0.17067383229732513
-1.4407793283462524,2.2895798683166504,-0.17652592062950134
-1.428099513053894,2.3061892986297607,-0.1833699494600296
-1.410790205001831,2.316307783126831,-0.1897095888853073
-1.4059770107269287,2.3460183143615723,-0.1975335031747818
-1.3929287195205688,2.3623244762420654,-0.20413924753665924
-1.3831528425216675,2.38555908203125,-0.21137455105781555
-1.369850754737854,2.4016666412353516,-0.2178562581539154
-1.348992943763733,2.403991460800171,-0.22298946976661682
-1.3347188234329224,2.4202945232391357,-0.2294672578573227
-1.320776104927063,2.436245918273926,-0.2358143925666809
-1.3091294765472412,2.4552252292633057,-0.2423289269208908
-1.2949953079223633,2.4709513187408447,-0.24851788580417633
-1.2804521322250366,2.486715316772461,-0.25472983717918396
-1.2553389072418213,2.481499671936035,-0.2587604224681854
-1.2048840522766113,2.423590660095215,-0.25703001022338867
-1.197401762008667,2.4527385234832764,-0.2643749415874481
-1.1828161478042603,2.4678730964660645,-0.27027571201324463
-1.1752790212631226,2.496720552444458,-0.2776012122631073
-1.185187578201294,2.5644328594207764,-0.2893541753292084
-1.196669340133667,2.639780044555664,-0.3021664619445801
-1.150688648223877,2.587446451187134,-0.3003036677837372
-1.1774967908859253,2.6981394290924072,-0.3173258900642395
-1.1200751066207886,2.6166090965270996,-0.31171590089797974
-1.1041628122329712,2.631213903427124,-0.3173598349094391
-1.0981810092926025,2.6709375381469727,-0.3261595368385315
-1.0822935104370117,2.6852054595947266,-0.33176949620246887
-1.0717695951461792,2.713890552520752,-0.339138925075531
-1.0648670196533203,2.753497362136841,-0.34784427285194397
-1.042382001876831,2.753206968307495,-0.35155412554740906
-1.0254032611846924,2.7672572135925293,-0.35710158944129944
-1.052094578742981,2.9014244079589844,-0.37821412086486816
-1.0714741945266724,3.0215439796447754,-0.39767155051231384
-1.1539267301559448,3.3287947177886963,-0.4422979950904846
-0.649246096611023,1.9157898426055908,-0.25691404938697815
-1.1322873830795288,3.4206583499908447,-0.4629773497581482
-1.1329550743103027,3.505361557006836,-0.4784524142742157
-1.117352843284607,3.5421817302703857,-0.48753395676612854
-1.0991666316986084,3.5714900493621826,-0.4956391751766205
-1.0795613527297974,3.5969784259796143,-0.5032766461372375
-1.0626600980758667,3.6336164474487305,-0.5122244954109192
-1.051128625869751,3.6926541328430176,-0.5244624018669128
-1.0146838426589966,3.662014961242676,-0.5239077210426331
-1.0001524686813354,3.709434986114502,-0.5345091223716736
-0.961276113986969,3.6670830249786377,-0.5319697856903076
-0.937237560749054,3.6806600093841553,-0.5373488664627075
-0.8838743567466736,3.577786922454834,-0.5257143974304199
-0.850787341594696,3.549419641494751,-0.5248215198516846
-0.8276981115341187,3.5622200965881348,-0.5299432277679443
-0.7890509963035583,3.507070302963257,-0.5245793461799622
-0.7553027272224426,3.4704582691192627,-0.5219346284866333
-0.719403088092804,3.422272205352783,-0.5175352692604065
-0.6900808811187744,3.4001855850219727,-0.5169867873191833
-0.6542720794677734,3.343820571899414,-0.5108516216278076
-0.6307180523872375,3.347888946533203,-0.5138216018676758
-0.5968648195266724,3.2947771549224854,-0.5079957842826843
-0.5668416619300842,3.260432481765747,-0.5050472617149353
-0.5370447635650635,3.2219996452331543,-0.5012597441673279
-0.5095815658569336,3.194812536239624,-0.4988921582698822
-0.48482605814933777,3.182673454284668,-0.49887433648109436
-0.4587017595767975,3.158874988555908,-0.49702009558677673
-0.4320357143878937,3.1310946941375732,-0.4945613443851471
-0.4060877859592438,3.10312819480896,-0.4916459023952484
-0.38340649008750916,3.097945213317871,-0.4922616481781006
-0.35950058698654175,3.081098794937134,-0.4910338819026947
-0.3388645648956299,3.0909101963043213,-0.4940681457519531
-0.31417596340179443,3.0622286796569824,-0.49082353711128235
-0.29169386625289917,3.056483030319214,-0.4909587502479553
-0.2689683139324188,3.0428626537323,-0.48982876539230347
-0.24779488146305084,3.044445276260376,-0.4911597669124603
-0.22546786069869995,3.0304970741271973,-0.4900033175945282
-0.20490208268165588,3.0395314693450928,-0.4922131896018982
-0.1828983724117279,3.033067464828491,-0.49183833599090576
-0.16094614565372467,3.0187268257141113,-0.4901939928531647
-0.1402733474969864,3.027339458465576,-0.49229878187179565
-0.11857294291257858,3.0127112865448,-0.4905361831188202
-0.09743811935186386,3.009549379348755,-0.4902898073196411
-0.07609248161315918,3.010101556777954,-0.4906771779060364
-0.055644650012254715,3.0374791622161865,-0.4954584836959839
-0.03456122428178787,3.037729263305664,-0.49584102630615234
-0.013486810959875584,3.0455970764160156,-0.4971589148044586
0.007632560562342405,3.037921667098999,-0.4958089292049408
0.029251351952552795,3.053227424621582,-0.4982321858406067
0.05074572190642357,3.0683841705322266,-0.500656008720398
0.07245144248008728,3.0833988189697266,-0.5030173659324646
0.09459735453128815,3.1060352325439453,-0.5062162280082703
0.116340771317482,3.109248638153076,-0.5062697529792786
0.13830438256263733,3.116161346435547,-0.5069484114646912
0.16074170172214508,3.1229019165039062,-0.5076143741607666
0.1851135492324829,3.168043375015259,-0.5142508745193481
0.20859573781490326,3.189946413040161,-0.5169077515602112
0.23158107697963715,3.200137138366699,-0.5176807641983032
0.25385352969169617,3.198625087738037,-0.5165806412696838
0.28316715359687805,3.273778200149536,-0.5278345346450806
0.30772534012794495,3.2911922931671143,-0.5293024182319641
0.33367037773132324,3.3199410438537598,-0.5326003432273865
0.36088094115257263,3.3561594486236572,-0.5370933413505554
0.3855641186237335,3.3653297424316406,-0.5372628569602966
0.4139907956123352,3.4011332988739014,-0.5414159297943115
0.44150927662849426,3.429145336151123,-0.5440887212753296
0.4710211455821991,3.468411684036255,-0.5485336780548096
0.5017281174659729,3.5112481117248535,-0.5535188317298889
0.5336549878120422,3.5576446056365967,-0.5590415596961975
0.5659721493721008,3.599992036819458,-0.5633729696273804
0.5965734124183655,3.630708694458008,-0.5658822059631348
0.63225257396698,3.6878106594085693,-0.5724659562110901
0.6695215106010437,3.7483887672424316,-0.5795308351516724
0.6793463826179504,3.656798839569092,-0.5628837943077087
0.7127599716186523,3.6942389011383057,-0.5658804774284363
0.8275678157806396,4.132861614227295,-0.6299451589584351
0.8595403432846069,4.14270544052124,-0.6283727288246155
0.9022373557090759,4.201421737670898,-0.6341853141784668
0.9498059153556824,4.2787370681762695,-0.6421896815299988
0.9958609938621521,4.3443193435668945,-0.6483264565467834
1.036430835723877,4.379237651824951,-0.6497392654418945
1.067015290260315,4.372582912445068,-0.6450340747833252
1.0936319828033447,4.350785732269287,-0.6378557682037354
1.1256791353225708,4.351355075836182,-0.6337514519691467
1.1538395881652832,4.336724281311035,-0.6274588108062744
1.1816602945327759,4.317964553833008,-0.6205028891563416
1.2097421884536743,4.302901744842529,-0.614139199256897
1.2288200855255127,4.258028984069824,-0.6031970977783203
1.2516958713531494,4.227935314178467,-0.5944460034370422
1.0618419647216797,3.497427463531494,-0.48800551891326904
1.0948010683059692,3.5163161754608154,-0.48682165145874023
1.1214760541915894,3.5167176723480225,-0.48286503553390503
1.1409447193145752,3.494844675064087,-0.4758000671863556
1.1651782989501953,3.4875268936157227,-0.47073906660079956
1.1871172189712524,3.472618818283081,-0.46464115381240845
1.2099753618240356,3.4613120555877686,-0.458925724029541
1.2316210269927979,3.4461591243743896,-0.4524957239627838
1.2527308464050293,3.430990219116211,-0.4461739659309387
1.2768018245697021,3.4228122234344482,-0.44071805477142334
1.3006889820098877,3.4145123958587646,-0.43521469831466675
1.3269915580749512,3.413426399230957,-0.4304301142692566
1.3480093479156494,3.397562026977539,-0.4237246811389923
1.3688911199569702,3.3815505504608154,-0.4170367419719696
1.3955527544021606,3.3797497749328613,-0.41209810972213745
1.415725827217102,3.3636558055877686,-0.4052222669124603
1.4709688425064087,3.4295029640197754,-0.4081327021121979
1.4766244888305664,3.3770155906677246,-0.39676937460899353
1.5287740230560303,3.43114972114563,-0.39797812700271606
1.545792579650879,3.4072041511535645,-0.38988929986953735
1.5723214149475098,3.4043397903442383,-0.38424065709114075
1.5795241594314575,3.3588430881500244,-0.3737308382987976
1.603509783744812,3.348198890686035,-0.3670378029346466
1.6297262907028198,3.3448984622955322,-0.36109960079193115
1.6352459192276,3.299576997756958,-0.3506883978843689
1.6687794923782349,3.309619903564453,-0.3460654020309448
2.3079237937927246,4.499642848968506,-0.46266070008277893
1.714231014251709,3.2877397537231445,-0.332186222076416
1.75148344039917,3.304036855697632,-0.32780808210372925
1.7358886003494263,3.220414400100708,-0.3135089576244354
1.7581225633621216,3.209021806716919,-0.30634787678718567
1.736183762550354,3.119525194168091,-0.29184797406196594
1.7498661279678345,3.0946500301361084,-0.28348490595817566
1.8205366134643555,3.1671054363250732,-0.28362640738487244
1.329440951347351,2.2773704528808594,-0.1992880403995514
0.9494462609291077,1.6019374132156372,-0.1368841677904129
0.960623562335968,1.595596432685852,-0.13290463387966156
0.9736245274543762,1.5925959348678589,-0.1291712522506714
0.9844012260437012,1.5862845182418823,-0.1250896155834198
0.9931782484054565,1.5765202045440674,-0.12070766091346741
1.010453224182129,1.5797258615493774,-0.11721576005220413
1.0145094394683838,1.563507080078125,-0.11227576434612274
1.0271872282028198,1.5601826906204224,-0.10820180177688599
1.0382943153381348,1.5531249046325684,-0.10363194346427917
1.0418919324874878,1.536888599395752,-0.09854007512331009
1.0588390827178955,1.5397752523422241,-0.09457295387983322
2.556544303894043,3.663696765899658,-0.21461661159992218
2.593724250793457,3.666839122772217,-0.20431223511695862
2.628152370452881,3.662140369415283,-0.1927454173564911
2.604515314102173,3.578728199005127,-0.17702335119247437
2.6621978282928467,3.609637975692749,-0.1669897884130478
2.6263089179992676,3.721189260482788,0.3781667649745941
2.595310688018799,3.732208251953125,0.3890906572341919
2.561739206314087,3.7446932792663574,0.39992833137512207
1.0576850175857544,1.57184636592865,0.17179308831691742
1.0464922189712524,1.5788450241088867,0.17610961198806763
1.0470354557037354,1.6059277057647705,0.18260981142520905
1.0303655862808228,1.6069536209106445,0.1861477643251419
1.0148311853408813,1.6071683168411255,0.1892760843038559
1.0027093887329102,1.6142940521240234,0.19319747388362885
0.9821977019309998,1.6082141399383545,0.1954069435596466
0.9743492007255554,1.6216076612472534,0.19985944032669067
0.9707281589508057,1.641416072845459,0.20504817366600037
1.3583751916885376,2.336460828781128,0.2955833971500397
1.372937560081482,2.403606414794922,0.30792057514190674
