X,Y,Z
0.7503417134284973,2.36081862449646,-0.4808944761753082
0.7883802056312561,2.4222970008850098,-0.4883374571800232
0.8334576487541199,2.501591682434082,-0.49906179308891296
0.8722695708274841,2.5586297512054443,-0.5050340890884399
0.9219570159912109,2.644390821456909,-0.5160799026489258
0.970626950263977,2.7223191261291504,-0.5251371264457703
1.0254805088043213,2.81427001953125,-0.5365939140319824
1.0830590724945068,2.9092512130737305,-0.5481901168823242
1.1486574411392212,3.0217487812042236,-0.5623364448547363
1.2186930179595947,3.1407337188720703,-0.5771395564079285
1.2782448530197144,3.226569175720215,-0.5851848125457764
1.384968876838684,3.426215410232544,-0.6132921576499939
1.4678138494491577,3.5607030391693115,-0.6286510825157166
1.5854817628860474,3.772531270980835,-0.6568058729171753
1.689753770828247,3.9439492225646973,-0.6768753528594971
1.8110527992248535,4.14583158493042,-0.7009958028793335
1.915468454360962,4.304460048675537,-0.7167898416519165
1.952011227607727,4.307124137878418,-0.7061766386032104
1.9534533023834229,4.232101917266846,-0.6828367710113525
1.5493271350860596,3.2963550090789795,-0.5231925249099731
1.5660427808761597,3.2729504108428955,-0.5105477571487427
1.5888688564300537,3.2635178565979004,-0.500299870967865
1.6190093755722046,3.2675580978393555,-0.4919073283672333
1.6351838111877441,3.243732213973999,-0.4793015718460083
1.6241332292556763,3.1683223247528076,-0.4592399299144745
1.5907059907913208,3.0518500804901123,-0.43369367718696594
1.6310005187988281,3.075939178466797,-0.42800092697143555
1.6451935768127441,3.052192211151123,-0.41573214530944824
1.7203340530395508,3.140814781188965,-0.4184955656528473
1.7234524488449097,3.0961897373199463,-0.4032042622566223
1.730228304862976,3.058180093765259,-0.38880980014801025
1.3703792095184326,2.3839893341064453,-0.29553061723709106
1.329945683479309,2.2782442569732666,-0.2752726972103119
0.9654639959335327,1.6279313564300537,-0.19139067828655243
0.9046568274497986,1.501929759979248,-0.17162735760211945
0.8864842653274536,1.449904203414917,-0.1608695238828659
0.9090383648872375,1.4640382528305054,-0.1573624163866043
0.9838196635246277,1.560152292251587,-0.16219545900821686
1.0132676362991333,1.5835752487182617,-0.15901492536067963
1.0155736207962036,1.5641822814941406,-0.1514471173286438
1.02454674243927,1.554277777671814,-0.14461536705493927
1.0374436378479004,1.550991177558899,-0.13830603659152985
1.0412535667419434,1.534896731376648,-0.1309896856546402
1.0587973594665527,1.5376404523849487,-0.12490559369325638
2.560227155685425,3.6660542488098145,-0.2826407849788666
2.5800838470458984,3.643793821334839,-0.2656804025173187
2.6199796199798584,3.645341157913208,-0.24910686910152435
2.607194662094116,3.578707695007324,-0.22834716737270355
2.654357671737671,3.593595504760742,-0.21239250898361206
2.638359785079956,3.746584177017212,0.654931366443634
2.607638359069824,3.7650671005249023,0.6717634201049805
2.5753560066223145,3.775141954421997,0.6858208775520325
1.061039924621582,1.580345869064331,0.2921201288700104
1.0483111143112183,1.587674856185913,0.2982717752456665
1.0361592769622803,1.5945286750793457,0.3041144907474518
1.0162162780761719,1.5879703760147095,0.3071671426296234
1.0283396244049072,1.633993148803711,0.32024243474006653
1.0070267915725708,1.62802255153656,0.32326096296310425
1.003046989440918,1.6475191116333008,0.33098119497299194
0.9831944108009338,1.6405141353607178,0.33331796526908875
0.9664690494537354,1.6405147314071655,0.336799293756485
1.3447612524032593,2.322437047958374,0.4817115068435669
1.3425357341766357,2.357806444168091,0.49383780360221863
1.8286821842193604,3.264258623123169,0.6900601387023926
1.7723134756088257,3.219093084335327,0.6863598227500916
1.7930856943130493,3.3152949810028076,0.7127972841262817
1.768038034439087,3.3269286155700684,0.7211129069328308
2.4042141437530518,4.602511882781982,1.0053949356079102
2.3706135749816895,4.617552280426025,1.0161621570587158
2.3353209495544434,4.633209705352783,1.0265583992004395
2.299959897994995,4.648561954498291,1.0369383096694946
2.2724509239196777,4.676867961883545,1.0500367879867554
2.238473892211914,4.690998077392578,1.0599443912506104
2.2042431831359863,4.7050251960754395,1.0694652795791626
2.171949863433838,4.72635555267334,1.0802099704742432
2.1363110542297363,4.740473747253418,1.0893760919570923
2.101574659347534,4.7539262771606445,1.0982831716537476
2.0677504539489746,4.766735553741455,1.1069313287734985
2.0179367065429688,4.744544506072998,1.1074167490005493
1.7490030527114868,4.197258949279785,0.9840258359909058
1.7177021503448486,4.208517551422119,0.9910522103309631
1.6865373849868774,4.21945858001709,0.9980291128158569
1.6621761322021484,4.243921279907227,1.0080854892730713
1.6342206001281738,4.261307239532471,1.0166188478469849
1.6030844449996948,4.271615982055664,1.022911787033081
1.574100375175476,4.289029598236084,1.030768632888794
1.5397975444793701,4.291893005371094,1.0351847410202026
1.5113381147384644,4.308624744415283,1.0429110527038574
1.4803801774978638,4.317913055419922,1.0488799810409546
1.4499049186706543,4.326816558837891,1.0547430515289307
1.426507830619812,4.3613386154174805,1.0661778450012207
1.394610047340393,4.370357513427734,1.0714324712753296
1.3626545667648315,4.379138469696045,1.0766856670379639
1.3275693655014038,4.376702785491943,1.079207420349121
1.3000001907348633,4.395618438720703,1.0869553089141846
1.279594898223877,4.439908981323242,1.1010652780532837
1.245339035987854,4.440646648406982,1.1036893129348755
1.2191236019134521,4.470439434051514,1.1135940551757812
1.1886495351791382,4.485386848449707,1.1198756694793701
1.1561293601989746,4.492766380310059,1.124330759048462
1.1246131658554077,4.4996795654296875,1.1286413669586182
1.0948446989059448,4.513743877410889,1.1348052024841309
1.0668381452560425,4.538984775543213,1.1432291269302368
1.03419029712677,4.545619964599609,1.1468595266342163
1.004189133644104,4.566943168640137,1.1542972326278687
0.9699862003326416,4.5656633377075195,1.1560367345809937
0.9326657652854919,4.545449733734131,1.152984857559204
0.7676167488098145,3.8779940605163574,0.9854868650436401
0.7381132245063782,3.871443748474121,0.9854027628898621
0.8499569892883301,4.64011812210083,1.182531714439392
0.820748507976532,4.66772985458374,1.1910885572433472
0.7874122262001038,4.672739505767822,1.1939458847045898
0.7551917433738708,4.681172847747803,1.1977131366729736
0.728248119354248,4.7230424880981445,1.2101002931594849
0.6935428380966187,4.719873905181885,1.2110499143600464
0.6632777452468872,4.7466044425964355,1.2189855575561523
0.6325974464416504,4.773172378540039,1.2268340587615967
0.5996906757354736,4.784514904022217,1.230837345123291
0.565822958946228,4.788105487823486,1.232908010482788
0.5337522029876709,4.802684783935547,1.2378519773483276
0.5020561814308167,4.828390598297119,1.2457563877105713
0.46985843777656555,4.84634256362915,1.2515519857406616
0.4364164471626282,4.856739521026611,1.2547589540481567
0.4041575789451599,4.881979465484619,1.2618653774261475
0.3686516582965851,4.869287967681885,1.2592315673828125
0.33397504687309265,4.871458530426025,1.2605103254318237
0.3031190037727356,4.922412872314453,1.2744646072387695
0.27048051357269287,4.954286575317383,1.2835546731948853
0.23559843003749847,4.948251247406006,1.282542109489441
0.1695544570684433,4.175090312957764,1.08223557472229
0.076175257563591,2.2751171588897705,0.5898181796073914
0.11133632808923721,4.203319072723389,1.0898972749710083
0.0817885622382164,4.192548751831055,1.087354063987732
0.05354061722755432,4.264748573303223,1.1063860654830933
0.023509064689278603,4.196856498718262,1.0891271829605103
-0.0062302472069859505,4.234728813171387,1.098934531211853
-0.03574333339929581,4.242222785949707,1.1005983352661133
-0.06536093354225159,4.249510288238525,1.102260708808899
-0.09541939944028854,4.271711826324463,1.1078438758850098
-0.12490396946668625,4.263463973999023,1.1055827140808105
-0.15482649207115173,4.270127773284912,1.1072419881820679
-0.18535879254341125,4.2765607833862305,1.1088950634002686
-0.21708372235298157,4.316930770874023,1.1188445091247559
-0.24609817564487457,4.300484657287598,1.1139171123504639
-0.2703436315059662,4.212128639221191,1.0904303789138794
-0.30057257413864136,4.225503444671631,1.0933436155319214
-0.3360300362110138,4.295186519622803,1.1108583211898804
-0.3617394268512726,4.244008541107178,1.0971736907958984
-0.3943975269794464,4.275550842285156,1.1049294471740723
-0.42277464270591736,4.26185417175293,1.1003813743591309
-0.44650840759277344,4.206604957580566,1.0850956439971924
-0.4725945293903351,4.173729419708252,1.0756347179412842
-0.49639829993247986,4.1294684410095215,1.0633238554000854
-0.5132132768630981,4.032473564147949,1.0375046730041504
-0.5382298231124878,4.006715297698975,1.0300896167755127
-0.5581024885177612,3.94708514213562,1.0139638185501099
-0.5823162198066711,3.9212026596069336,1.005932092666626
-0.6069065928459167,3.902712345123291,0.9998803734779358
-0.6208971738815308,3.82051944732666,0.9775878190994263
-0.6427856683731079,3.790562629699707,0.968734860420227
-0.6612998843193054,3.7417774200439453,0.9551247358322144
-0.6819062829017639,3.7078118324279785,0.945366382598877
-0.7044335603713989,3.684922456741333,0.9382212162017822
-0.719322144985199,3.628650426864624,0.9222952723503113
-0.7395728230476379,3.6020357608795166,0.9139830470085144
-0.7460989952087402,3.5122549533843994,0.8897311091423035
-0.7704552412033081,3.507654905319214,0.8871161341667175
-0.789463996887207,3.4768807888031006,0.8779028058052063
-0.8085464835166931,3.449777841567993,0.869702160358429
-0.8205692768096924,3.3969757556915283,0.8546056747436523
-0.8437066078186035,3.392080783843994,0.8515141010284424
-0.8573656678199768,3.3502585887908936,0.8392148017883301
-0.8806771636009216,3.3449888229370117,0.8360905647277832
-0.8932249546051025,3.2991867065429688,0.8228830695152283
-0.9082270860671997,3.2643320560455322,0.8124836087226868
-0.92879319190979,3.2514498233795166,0.8074053525924683
-0.9444911479949951,3.2240517139434814,0.7984356880187988
-0.9602732062339783,3.196467876434326,0.789446234703064
-0.978695273399353,3.1798086166381836,0.7832509279251099
-0.9894062280654907,3.1375157833099365,0.7707638740539551
-0.9997082948684692,3.095168352127075,0.7583359479904175
-1.017738938331604,3.078138828277588,0.752119243144989
-1.0365206003189087,3.064810037612915,0.7463511824607849
-1.0522624254226685,3.0442867279052734,0.738932728767395
-1.0627312660217285,3.0093040466308594,0.7280688285827637
-1.0758882761001587,2.9812984466552734,0.7189052104949951
-1.0929385423660278,2.963873863220215,0.7123221755027771
-1.1003361940383911,2.921403169631958,0.6997605562210083
-1.1122065782546997,2.893463373184204,0.690255343914032
-1.1484836339950562,2.929502487182617,0.69607013463974
-1.1357322931289673,2.841212749481201,0.6724117994308472
-1.1469398736953735,2.813030958175659,0.6630211472511292
-1.1301791667938232,2.7177557945251465,0.6379245519638062
-1.1301270723342896,2.6649742126464844,0.622796893119812
-1.1390262842178345,2.63729190826416,0.6133655905723572
-1.147599697113037,2.609588623046875,0.6040046215057373
-1.1715177297592163,2.616738796234131,0.6027379631996155
-1.2027608156204224,2.637274742126465,0.6043993234634399
-1.2298468351364136,2.6469714641571045,0.6035006642341614
-1.24788236618042,2.639659881591797,0.5984819531440735
-1.2656285762786865,2.632354497909546,0.5933704972267151
-1.274919033050537,2.607720375061035,0.5844023823738098
-1.2795192003250122,2.572463274002075,0.5730024576187134
-1.2912781238555908,2.5506179332733154,0.564544141292572
-1.3019686937332153,2.529142141342163,0.5561092495918274
-1.3118596076965332,2.507943868637085,0.5475858449935913
-1.3251197338104248,2.493480682373047,0.5405893325805664
-1.3333847522735596,2.4685165882110596,0.531237006187439
-1.347324252128601,2.4534285068511963,0.5239776968955994
-1.3570955991744995,2.4317400455474854,0.5151035189628601
-1.3657612800598145,2.41050124168396,0.5062843561172485
-1.3703635931015015,2.382566213607788,0.4961412847042084
-1.3833531141281128,2.3674488067626953,0.4884827733039856
-1.3905428647994995,2.342196464538574,0.47873619198799133
-1.4026063680648804,2.3273539543151855,0.4707964062690735
-1.4181081056594849,2.319253921508789,0.4642864465713501
-1.4218157529830933,2.291158437728882,0.45369598269462585
-1.4300967454910278,2.2691736221313477,0.4441569447517395
-1.4415463209152222,2.2541399002075195,0.43586602807044983
-1.4483262300491333,2.232806921005249,0.42618536949157715
-1.4570696353912354,2.2146341800689697,0.4171558618545532
-1.460195541381836,2.1862053871154785,0.4059143364429474
-1.475135326385498,2.1775715351104736,0.3982328176498413
-1.4850496053695679,2.162858009338379,0.3893592357635498
-1.5179024934768677,2.1792104244232178,0.3856029212474823
-1.5069634914398193,2.1317079067230225,0.37036141753196716
-1.5118613243103027,2.1107053756713867,0.3596259355545044
-1.5211920738220215,2.095886468887329,0.3499620258808136
-1.5249903202056885,2.0706961154937744,0.3378770351409912
-1.5387898683547974,2.061998128890991,0.3283729553222656
-1.5148754119873047,2.1424806118011475,-0.16148699820041656
-1.5035704374313354,2.1590898036956787,-0.17289496958255768
-59.26051712036133,86.41712951660156,-7.3126606941223145
-1.48367440700531,2.1992390155792236,-0.1961899697780609
-1.480802059173584,2.2283618450164795,-0.2080957591533661
-1.464176893234253,2.2383503913879395,-0.21828609704971313
-1.4302760362625122,2.2222139835357666,-0.22583964467048645
-1.4143493175506592,2.2314040660858154,-0.23533037304878235
-1.3810248374938965,2.214557647705078,-0.24215365946292877
-1.33378267288208,2.174149513244629,-0.2459762841463089
-1.3140507936477661,2.1760449409484863,-0.2540207803249359
-1.3179526329040527,2.2179641723632812,-0.2667877674102783
-1.3012948036193848,2.226693630218506,-0.275693416595459
-1.2866650819778442,2.238553762435913,-0.2849362790584564
-1.2819679975509644,2.2669384479522705,-0.29610973596572876
-1.2726109027862549,2.2888388633728027,-0.3065336346626282
-1.27052903175354,2.324249267578125,-0.31887176632881165
-1.2538814544677734,2.3321077823638916,-0.3272794485092163
-1.2600740194320679,2.3846800327301025,-0.3422229290008545
-1.417380452156067,2.729576587677002,-0.40016886591911316
-1.4450780153274536,2.831482172012329,-0.4236827492713928
-1.4351465702056885,2.861052989959717,-0.43664419651031494
-1.4192239046096802,2.880422592163086,-0.4480486214160919
-1.2528337240219116,2.5900044441223145,-0.41057753562927246
-1.20597505569458,2.538219451904297,-0.4096072316169739
-1.2006855010986328,2.573512077331543,-0.4225752651691437
-1.1753733158111572,2.5668046474456787,-0.4286175072193146
-1.1534314155578613,2.566880702972412,-0.4357365369796753
-1.1522096395492554,2.6124980449676514,-0.4505327343940735
-1.1269609928131104,2.6052520275115967,-0.4563392102718353
-1.0719046592712402,2.526771068572998,-0.4492224156856537
-1.0195873975753784,2.451239585876465,-0.4421914219856262
-0.9671235084533691,2.371537685394287,-0.4339345693588257
-0.9200054407119751,2.3020811080932617,-0.42706310749053955
-0.884792685508728,2.260935068130493,-0.4251701235771179
-0.8450883626937866,2.204956293106079,-0.42011314630508423
-0.8009657263755798,2.134141445159912,-0.41186538338661194
-0.7724020481109619,2.1025991439819336,-0.4108126163482666
-0.7442600727081299,2.070821523666382,-0.409485787153244
-0.7100577354431152,2.0207204818725586,-0.404405802488327
-0.6856876611709595,1.9955884218215942,-0.4040324091911316
-0.6579815745353699,1.9593735933303833,-0.40114110708236694
-0.6320016384124756,1.9265631437301636,-0.39870160818099976
-0.6077170968055725,1.8971524238586426,-0.39682382345199585
-0.5848209261894226,1.8712213039398193,-0.3956196904182434
-0.5547383427619934,1.8194361925125122,-0.38855522871017456
-0.5374118089675903,1.8077261447906494,-0.38980546593666077
-0.5064457058906555,1.7481249570846558,-0.3805883824825287
-0.48571786284446716,1.7213313579559326,-0.37833496928215027
-0.46742239594459534,1.7017498016357422,-0.3774396479129791
-0.4442756175994873,1.6636393070220947,-0.37225833535194397
-0.43439149856567383,1.6732962131500244,-0.3776569664478302
-0.41324514150619507,1.638488531112671,-0.37296855449676514
-0.4089280366897583,1.6701852083206177,-0.3832912743091583
-0.38659366965293884,1.6277415752410889,-0.3764195442199707
-0.3620965778827667,1.5740026235580444,-0.3668319582939148
-0.35426947474479675,1.590635061264038,-0.3735496699810028
-0.32699984312057495,1.5179476737976074,-0.3590886890888214
-0.3139590322971344,1.5083768367767334,-0.3592379093170166
-0.2973344326019287,1.4800609350204468,-0.35487237572669983
-0.2809775471687317,1.4516277313232422,-0.3504338264465332
-0.27356722950935364,1.467881441116333,-0.35663706064224243
-0.2619549334049225,1.461702585220337,-0.3571893572807312
-0.26203036308288574,1.522782325744629,-0.37426894903182983
-0.23775185644626617,1.441597580909729,-0.3563768267631531
-0.22745849192142487,1.442687749862671,-0.3586762845516205
-0.21681636571884155,1.4399921894073486,-0.35974037647247314
0.157976895570755,1.4487322568893433,-0.37141916155815125
0.18098671734333038,1.4697304964065552,-0.37405234575271606
0.19031941890716553,1.46140456199646,-0.3702034652233124
0.21262086927890778,1.546859860420227,-0.3900061249732971
0.2131626307964325,1.474556803703308,-0.3700656294822693
0.23031948506832123,1.5185083150863647,-0.3793522119522095
0.2422095239162445,1.5249327421188354,-0.3788377046585083
0.2659992575645447,1.6024041175842285,-0.3958677053451538
0.2817867696285248,1.62730073928833,-0.3997909128665924
0.29746246337890625,1.6483067274093628,-0.4026731252670288
0.3160828948020935,1.684226393699646,-0.4088103473186493
0.32359135150909424,1.66029953956604,-0.4003945589065552
0.33528584241867065,1.6586931943893433,-0.3974192440509796
0.3555372953414917,1.697960615158081,-0.4041960537433624
0.3709590435028076,1.711047649383545,-0.404308021068573
0.3963721990585327,1.768638014793396,-0.4148302972316742
0.41659051179885864,1.800023078918457,-0.41906818747520447
0.43635857105255127,1.8275309801101685,-0.42232149839401245
0.44926267862319946,1.8253061771392822,-0.418394535779953
0.46990033984184265,1.8525336980819702,-0.4210500717163086
0.5013106465339661,1.9202462434768677,-0.4328030049800873
0.5198512077331543,1.9360337257385254,-0.4327026903629303
0.5457413792610168,1.9774932861328125,-0.4380049705505371
0.573299765586853,2.022409200668335,-0.4438154697418213
0.6007043719291687,2.0633437633514404,-0.4485137164592743
0.6295613646507263,2.1077449321746826,-0.4538728892803192
0.6624157428741455,2.162904739379883,-0.46114403009414673
0.6880407333374023,2.1922013759613037,-0.4626201391220093
0.7199884057044983,2.239497184753418,-0.4677303433418274
0.7661731243133545,2.3264482021331787,-0.4807293117046356
0.8034901022911072,2.3839874267578125,-0.48725026845932007
0.8516298532485962,2.4702155590057373,-0.49919167160987854
0.8959383964538574,2.5414726734161377,-0.5077430009841919
0.9439544677734375,2.619497060775757,-0.5172871351242065
0.9903849959373474,2.6898794174194336,-0.5248303413391113
1.0516748428344727,2.7957186698913574,-0.5386184453964233
1.115596890449524,2.904599666595459,-0.5525700449943542
1.1770211458206177,3.002023935317993,-0.5637962818145752
1.2555060386657715,3.1381895542144775,-0.5815740823745728
1.334370732307434,3.2700300216674805,-0.597749650478363
1.4230554103851318,3.4186484813690186,-0.6160921454429626
1.5287712812423706,3.6018600463867188,-0.6398828625679016
1.6246973276138306,3.755699396133423,-0.6574336290359497
1.7460230588912964,3.9615585803985596,-0.6830093264579773
1.8657113313674927,4.155464172363281,-0.7053929567337036
1.9441032409667969,4.249375820159912,-0.709689199924469
1.9626315832138062,4.21327018737793,-0.6921617984771729
2.003725528717041,4.226053237915039,-0.6826063990592957
1.5865232944488525,3.287593364715576,-0.521851122379303
1.596387505531311,3.2500734329223633,-0.5066865682601929
1.6265283823013306,3.2541146278381348,-0.49780333042144775
1.652755618095398,3.251215696334839,-0.4879506230354309
1.6170473098754883,3.1275289058685303,-0.4601820111274719
1.6122994422912598,3.0660240650177,-0.4419962763786316
1.6445353031158447,3.0767762660980225,-0.43424805998802185
1.6158679723739624,2.9747860431671143,-0.4108324944972992
1.7162011861801147,3.107083320617676,-0.41919606924057007
1.7058788537979126,3.03882098197937,-0.4003663659095764
1.4941456317901611,2.620347023010254,-0.33687588572502136
1.354732632637024,2.3388853073120117,-0.29311278462409973
0.9793168902397156,1.6639710664749146,-0.20297029614448547
0.9372010231018066,1.5677297115325928,-0.18586039543151855
0.8773533701896667,1.445641279220581,-0.16648417711257935
0.9038885235786438,1.4665265083312988,-0.1637294590473175
0.9740153551101685,1.556410789489746,-0.16820672154426575
0.9991683959960938,1.5734137296676636,-0.16438911855220795
1.0144832134246826,1.5735305547714233,-0.1584741324186325
1.0213900804519653,1.5604169368743896,-0.1511729508638382
1.031886100769043,1.554124355316162,-0.14456921815872192
1.042480230331421,1.547649621963501,-0.13786883652210236
1.057889699935913,1.5472197532653809,-0.13141272962093353
2.5344045162200928,3.6544454097747803,-0.29487207531929016
2.5681021213531494,3.651256799697876,-0.2789795994758606
2.60750675201416,3.6533284187316895,-0.2625972330570221
2.617722988128662,3.6184022426605225,-0.2436082661151886
2.619213819503784,3.5702366828918457,-0.2233463078737259
2.671781301498413,3.5907533168792725,-0.20657983422279358
2.63814377784729,3.7197344303131104,0.6709040403366089
2.603827714920044,3.731295585632324,0.6869444251060486
2.6048507690429688,3.7887208461761475,0.7103872895240784
1.070077657699585,1.5819798707962036,0.3017580807209015
1.0529617071151733,1.582926630973816,0.3069984018802643
1.041332483291626,1.5894622802734375,0.31284043192863464
1.029165506362915,1.5962088108062744,0.31869903206825256
1.0329577922821045,1.6292047500610352,0.32963827252388
1.0162076950073242,1.6294972896575928,0.33393704891204834
1.0043545961380005,1.635750412940979,0.33918407559394836
1.001880407333374,1.658686876296997,0.3478070795536041
0.9787898063659668,1.6490145921707153,0.34953537583351135
0.9621991515159607,1.6488028764724731,0.35310089588165283
1.3384267091751099,2.330563545227051,0.5038782358169556
1.8496347665786743,3.2745838165283203,0.7144885659217834
1.7814463376998901,3.2097132205963135,0.7063546776771545
1.778163194656372,3.262087821960449,0.724104106426239
1.7743403911590576,3.310246467590332,0.7406249046325684
2.418483257293701,4.5885329246521,1.0346415042877197
2.383563756942749,4.604299545288086,1.045578122138977
2.3516762256622314,4.6267924308776855,1.057966709136963
2.3159890174865723,4.642265319824219,1.0688574314117432
2.2827553749084473,4.656366348266602,1.0789650678634644
2.2461113929748535,4.663324356079102,1.087462306022644
2.223921060562134,4.705554485321045,1.1034749746322632
2.194763422012329,4.733822345733643,1.116321086883545
2.152924060821533,4.733974456787109,1.1225532293319702
2.1247692108154297,4.761218070983887,1.1350722312927246
2.0877344608306885,4.7670817375183105,1.142458200454712
2.046290874481201,4.766381740570068,1.1475863456726074
1.7725648880004883,4.21372652053833,1.019104242324829
1.7322938442230225,4.203936576843262,1.0213369131088257
1.6987236738204956,4.207658767700195,1.0267661809921265
1.6772801876068115,4.239142894744873,1.0389071702957153
1.6439300775527954,4.242365837097168,1.043914556503296
1.6125255823135376,4.252837181091309,1.050270915031433
1.5810083150863647,4.263082504272461,1.0566341876983643
1.5517499446868896,4.280320644378662,1.0648283958435059
1.5214329957962036,4.289673805236816,1.0709201097488403
1.4886120557785034,4.291608810424805,1.075201392173767
1.464814305305481,4.32244873046875,1.0863012075424194
1.443804144859314,4.364163875579834,1.0999526977539062
1.411190390586853,4.3734049797058105,1.1055594682693481
1.3817908763885498,4.389370441436768,1.1128307580947876
1.3508590459823608,4.397644519805908,1.1181268692016602
1.3176990747451782,4.398425579071045,1.1215676069259644
1.2903075218200684,4.421114444732666,1.1301308870315552
1.264383316040039,4.451076984405518,1.1403634548187256
1.2253787517547607,4.437162399291992,1.139463186264038
1.1973154544830322,4.459341526031494,1.1478191614151
1.1736719608306885,4.495811462402344,1.1598671674728394
1.1421217918395996,4.5027666091918945,1.1643749475479126
1.1110029220581055,4.513362884521484,1.1695201396942139
1.0779250860214233,4.520376205444336,1.1733814477920532
1.0487799644470215,4.541788578033447,1.1810133457183838
1.0193817615509033,4.563004970550537,1.188669204711914
0.987266480922699,4.569088459014893,1.1924017667770386
0.9599131345748901,4.597141742706299,1.201926589012146
0.7791447639465332,3.868511199951172,1.0133178234100342
0.7529298663139343,3.880748987197876,1.017773985862732
0.8611544966697693,4.614116668701172,1.2116562128067017
0.832130491733551,4.641707897186279,1.2205171585083008
0.8024405837059021,4.665334701538086,1.2283958196640015
0.7717337012290955,4.685049533843994,1.2353241443634033
0.7401577830314636,4.697015762329102,1.2402498722076416
0.7104380130767822,4.723855018615723,1.2487499713897705
0.6779657602310181,4.735680103302002,1.2529211044311523
0.6464353799819946,4.754760265350342,1.259078025817871
0.6130271553993225,4.766207218170166,1.2633061408996582
0.5787376165390015,4.76230525970459,1.2634918689727783
0.5455605387687683,4.765646934509277,1.2656526565551758
0.52003014087677,4.840099334716797,1.2867802381515503
0.48527196049690247,4.8357038497924805,1.28633713722229
0.4438057243824005,4.759683609008789,1.2667148113250732
0.35082608461380005,4.077731132507324,1.085800051689148
0.3236076235771179,4.098606109619141,1.0919820070266724
0.2955951392650604,4.107982158660889,1.0951510667800903
0.2675169110298157,4.117161750793457,1.0983225107192993
0.23888812959194183,4.118611812591553,1.0994861125946045
0.21068252623081207,4.142695426940918,1.1060153245925903
0.18104073405265808,4.1288580894470215,1.1024632453918457
0.15243658423423767,4.137440204620361,1.104951024055481
0.1243966817855835,4.168457508087158,1.113486647605896
0.0950457975268364,4.154003143310547,1.1099294424057007
0.06605111062526703,4.177082538604736,1.1164615154266357
0.03708616644144058,4.188659191131592,1.1198707818984985
0.00793685857206583,4.196424961090088,1.1216598749160767
-0.021268228068947792,4.203987121582031,1.1234487295150757
-0.0509008914232254,4.233987331390381,1.1312859058380127
-0.0813208743929863,4.256222724914551,1.1370997428894043
-0.11134716868400574,4.2707061767578125,1.1408993005752563
-0.14190128445625305,4.296294689178467,1.1477206945419312
-0.17118029296398163,4.2802276611328125,1.1432850360870361
-0.20262932777404785,4.31689453125,1.1523962020874023
-0.22911106050014496,4.2515668869018555,1.1343389749526978
-0.2572146952152252,4.219962120056152,1.1253385543823242
-0.2865297794342041,4.218324184417725,1.1243958473205566
-0.3135283887386322,4.186368465423584,1.115430235862732
-0.3487742245197296,4.25959587097168,1.134539008140564
-0.37359416484832764,4.2047438621521,1.119322657585144
-0.400925874710083,4.179909706115723,1.111655592918396
-0.4320217967033386,4.2000226974487305,1.1160157918930054
-0.4592907428741455,4.182365417480469,1.110390305519104
-0.4816153347492218,4.12324857711792,1.0938228368759155
-0.5066367387771606,4.090230464935303,1.0842421054840088
-0.5272367000579834,4.0232930183410645,1.0657297372817993
-0.5452137589454651,3.9489457607269287,1.0449812412261963
-0.5701481699943542,3.9307308197021484,1.0388267040252686
-0.5971306562423706,3.9273016452789307,1.0366337299346924
-0.6163731217384338,3.8751535415649414,1.021645426750183
-0.6269626021385193,3.7705955505371094,0.9929031133651733
-0.6480830907821655,3.7368884086608887,0.9829205274581909
-0.6740971207618713,3.732841968536377,0.9807978272438049
-0.6906422972679138,3.6804730892181396,0.9655416011810303
-0.7158229947090149,3.676365375518799,0.9628463983535767
-0.7334529161453247,3.6349992752075195,0.9504566192626953
-0.7455859184265137,3.567534923553467,0.9313022494316101
-0.7624961733818054,3.525938034057617,0.9189830422401428
-0.7838574051856995,3.506425619125366,0.912483811378479
-0.7989572882652283,3.4609813690185547,0.8992383480072021
-0.817332923412323,3.434147834777832,0.8903632760047913
-0.8339564800262451,3.399773120880127,0.8795728087425232
-0.8590397238731384,3.4021401405334473,0.878372311592102
-0.877751886844635,3.3785934448242188,0.8705107569694519
-0.8935452103614807,3.343881845474243,0.8598166704177856
-0.9038734436035156,3.2908170223236084,0.8444852232933044
-0.9124935269355774,3.2341856956481934,0.8279412984848022
-0.9344590902328491,3.228811264038086,0.8244099617004395
-0.944553554058075,3.1832571029663086,0.8106807470321655
-0.9617651700973511,3.163121461868286,0.8035014867782593
-0.9817268252372742,3.149941921234131,0.7980732321739197
-0.9926817417144775,3.107584238052368,0.7852858901023865
-1.014290452003479,3.1015286445617676,0.7816047668457031
-1.0305227041244507,3.0811543464660645,0.7739930748939514
-1.0379149913787842,3.0355138778686523,0.7601130604743958
-1.056020975112915,3.0221903324127197,0.7543978691101074
-1.0669206380844116,2.9870755672454834,0.7432377338409424
-1.0831295251846313,2.9660592079162598,0.7355963587760925
-1.094528317451477,2.9344677925109863,0.7253462076187134
-1.106268048286438,2.9067156314849854,0.7157168984413147
-1.1204360723495483,2.8860177993774414,0.7078914642333984
-1.130165457725525,2.854621410369873,0.697510838508606
-1.1477181911468506,2.840496301651001,0.6912665367126465
-1.1358439922332764,2.755855083465576,0.6680097579956055
-1.1196142435073853,2.6645705699920654,0.6431779265403748
-1.1316275596618652,2.6440019607543945,0.6352464556694031
-1.1555813550949097,2.651367664337158,0.6340600252151489
-1.1646350622177124,2.6234796047210693,0.6244086027145386
-1.1942639350891113,2.640620231628418,0.6254256367683411
-1.232208013534546,2.6748206615448,0.6304343342781067
-1.2407522201538086,2.6467697620391846,0.6204583644866943
-1.261866807937622,2.646449565887451,0.6169080138206482
-1.2666822671890259,2.6114137172698975,0.6052549481391907
-1.283254861831665,2.6002752780914307,0.5991460084915161
-1.2880655527114868,2.5649259090423584,0.5874611139297485
-1.2954866886138916,2.536670684814453,0.5773263573646545
-1.3090097904205322,2.522364616394043,0.5701852440834045
-1.3223934173583984,2.5079751014709473,0.5630720853805542
-1.3274285793304443,2.4762215614318848,0.5519415736198425
-1.3414844274520874,2.461212635040283,0.5445665717124939
-1.3474862575531006,2.432966947555542,0.5341854691505432
-1.3600000143051147,2.4185187816619873,0.5266674757003784
-1.3685861825942993,2.3973159790039062,0.5177329182624817
-1.3779674768447876,2.3755695819854736,0.5084775686264038
-1.3852450847625732,2.3504247665405273,0.49855250120162964
-1.401275396347046,2.3422820568084717,0.49203431606292725
-1.404887318611145,2.3145382404327393,0.48135673999786377
-1.4164270162582397,2.299827814102173,0.4734116792678833
-1.4251552820205688,2.277757167816162,0.463569700717926
-1.4411450624465942,2.2691073417663574,0.4565037786960602
-1.4436944723129272,2.241471290588379,0.44546276330947876
-1.4543448686599731,2.2267799377441406,0.4370831847190857
-1.504549264907837,2.2691140174865723,0.4392979145050049
-1.4669616222381592,2.1797890663146973,0.4159019887447357
-1.48133385181427,2.1715269088745117,0.4081079661846161
-1.48272705078125,2.1439406871795654,0.396642804145813
-1.4983638525009155,2.134615898132324,0.3880814015865326
-1.5084145069122314,2.119597911834717,0.37833648920059204
-1.5225533246994019,2.1110215187072754,0.3695518970489502
-1.5283936262130737,2.0892698764801025,0.3580551743507385
-1.5314724445343018,2.0645878314971924,0.3458443284034729
-1.497672200202942,2.102571725845337,-0.15245717763900757
-132.09451293945312,188.29000854492188,-14.558426856994629
-1.473138451576233,2.1324024200439453,-0.17475876212120056
-1.4829931259155273,2.1814277172088623,-0.1888115108013153
-1.495498776435852,2.23317551612854,-0.20278102159500122
-1.4766887426376343,2.240036725997925,-0.21282289922237396
-1.4339464902877808,2.2111501693725586,-0.21944820880889893
-1.4180797338485718,2.2203924655914307,-0.22902533411979675
-1.397400140762329,2.2232730388641357,-0.2379431575536728
-1.3580596446990967,2.196340322494507,-0.2435193955898285
-1.3220386505126953,2.171818256378174,-0.24869050085544586
-1.3138192892074585,2.193896532058716,-0.25923705101013184
-1.3091992139816284,2.222684860229492,-0.27057012915611267
-1.294939637184143,2.234438180923462,-0.2797064185142517
-1.2903227806091309,2.262868642807007,-0.2909027338027954
-1.2734403610229492,2.271284341812134,-0.29958266019821167
-1.2675927877426147,2.2999958992004395,-0.31108322739601135
-1.265870451927185,2.3351387977600098,-0.3232716917991638
-1.2560430765151978,2.3568339347839355,-0.33370301127433777
-1.3176777362823486,2.5158565044403076,-0.3641035854816437
-1.4554367065429688,2.8270509243011475,-0.41777530312538147
-1.4487323760986328,2.863748073577881,-0.43195652961730957
-1.4396809339523315,2.8970835208892822,-0.44556930661201477
-1.364055871963501,2.794809341430664,-0.4380851089954376
-1.2336760759353638,2.572935104370117,-0.41067788004875183
-1.2101526260375977,2.569906234741211,-0.4174816906452179
-1.1783592700958252,2.5492587089538574,-0.42126214504241943
-1.1690407991409302,2.577603816986084,-0.43322354555130005
-1.1505693197250366,2.5845139026641846,-0.44142672419548035
-1.131868600845337,2.5913615226745605,-0.44955340027809143
-1.0977933406829834,2.562678337097168,-0.45137616991996765
-1.038935661315918,2.4732046127319336,-0.442123144865036
-0.9989404678344727,2.4258792400360107,-0.4400668144226074
-0.9483138918876648,2.349560022354126,-0.4321751594543457
-0.9044132828712463,2.2870707511901855,-0.42641374468803406
-0.8629283905029297,2.2276928424835205,-0.42089542746543884
-0.8347064256668091,2.200223207473755,-0.421153724193573
-0.7877897024154663,2.1221957206726074,-0.4114202857017517
-0.7567237019538879,2.083341121673584,-0.408843457698822
-0.7327849268913269,2.0622448921203613,-0.40957558155059814
-0.6979609727859497,2.0082712173461914,-0.4035639762878418
-0.6762174963951111,1.9903316497802734,-0.4044562876224518
-0.6412133574485779,1.9322504997253418,-0.39703434705734253
-0.6250521540641785,1.9284459352493286,-0.40055081248283386
-0.5962901711463928,1.884328842163086,-0.3955839276313782
-0.57154381275177,1.8509609699249268,-0.3925309479236603
-0.5483910441398621,1.821049451828003,-0.39000585675239563
-0.5267945528030396,1.7945921421051025,-0.38810208439826965
-0.5054208040237427,1.7679803371429443,-0.3861142694950104
-0.47750142216682434,1.715402603149414,-0.3780525028705597
-0.46730944514274597,1.72526216506958,-0.38358017802238464
-0.44339853525161743,1.6833627223968506,-0.377544105052948
-0.431469589471817,1.685605764389038,-0.3813377916812897
-0.41657188534736633,1.6767250299453735,-0.3824944794178009
-0.3957798480987549,1.641770601272583,-0.37745141983032227
-0.37896987795829773,1.62147855758667,-0.37569212913513184
-0.365817129611969,1.6159076690673828,-0.37731224298477173
-0.34056511521339417,1.5544816255569458,-0.3656216859817505
-0.3215327858924866,1.5189567804336548,-0.35975849628448486
-0.30702754855155945,1.501875877380371,-0.35814547538757324
-0.29351314902305603,1.4884085655212402,-0.3573575019836426
-0.2816469371318817,1.482330322265625,-0.35818174481391907
-0.2671664357185364,1.461252212524414,-0.35516658425331116
-0.2580617666244507,1.470004677772522,-0.35943707823753357
-0.2477325052022934,1.471187949180603,-0.36185550689697266
-0.23198631405830383,1.4386042356491089,-0.35580968856811523
0.16644233465194702,1.4788196086883545,-0.3769541084766388
0.1778501719236374,1.485527515411377,-0.3772663176059723
0.1873060017824173,1.477211594581604,-0.37345266342163086
0.19765950739383698,1.4763424396514893,-0.3715486526489258
0.21117477118968964,1.4979244470596313,-0.3752894103527069
0.2238818109035492,1.5119023323059082,-0.37708473205566406
0.2358561009168625,1.5183453559875488,-0.3765929043292999
0.2647922933101654,1.6296107769012451,-0.4019925594329834
0.2749709188938141,1.6208367347717285,-0.3976612985134125
0.2916402220726013,1.6493936777114868,-0.40248075127601624
0.3074096441268921,1.6704199314117432,-0.40501853823661804
0.3256196081638336,1.7025209665298462,-0.4101778268814087
0.34077954292297363,1.7157939672470093,-0.4107067286968231
0.35744330286979675,1.7364308834075928,-0.4130125641822815
0.37286055088043213,1.7495564222335815,-0.4131509065628052
0.3901204764842987,1.7699986696243286,-0.4149535000324249
0.40430256724357605,1.7754398584365845,-0.4132092297077179
0.4336434304714203,1.843796968460083,-0.42593914270401
0.4484809339046478,1.8489962816238403,-0.423711895942688
0.47545307874679565,1.9021929502487183,-0.43233975768089294
0.49840104579925537,1.9366717338562012,-0.43657296895980835
0.5169714093208313,1.9524924755096436,-0.43651893734931946
0.5450659990310669,2.001332998275757,-0.4434051513671875
0.5725904107093811,2.0463011264801025,-0.44925859570503235
0.601860523223877,2.094684600830078,-0.45567646622657776
0.6264318227767944,2.1244492530822754,-0.4578973352909088
0.654755711555481,2.165034055709839,-0.4620911777019501
0.6918843388557434,2.2309138774871826,-0.47129037976264954
0.7274211049079895,2.2891879081726074,-0.4786953628063202
0.763831615447998,2.3471145629882812,-0.48578089475631714
0.804682731628418,2.415656089782715,-0.4946018159389496
0.8539528250694275,2.5056092739105225,-0.507341742515564
0.8919163346290588,2.5588176250457764,-0.5123153924942017
0.9491394758224487,2.6621785163879395,-0.5268438458442688
0.9943004250526428,2.729008674621582,-0.533690333366394
1.0471124649047852,2.8134377002716064,-0.5434979200363159
1.116209864616394,2.9368643760681152,-0.5603357553482056
1.180293321609497,3.0415830612182617,-0.5730063319206238
1.2560611963272095,3.1706440448760986,-0.5894196629524231
1.3289003372192383,3.2883729934692383,-0.6031225323677063
1.4358464479446411,3.483668327331543,-0.630229651927948
1.541339635848999,3.667060613632202,-0.6541522145271301
1.6371009349822998,3.821065902709961,-0.6718258261680603
1.7524112462997437,4.012838840484619,-0.6949337124824524
1.8623343706130981,4.1858296394348145,-0.7139343023300171
1.941631555557251,4.283633232116699,-0.7192575335502625
1.9523833990097046,4.229978084564209,-0.6988691687583923
1.9705097675323486,4.193887233734131,-0.6815053224563599
1.5718270540237427,3.2854461669921875,-0.5246923565864563
1.58851158618927,3.26190185546875,-0.5118412375450134
1.6113758087158203,3.252333879470825,-0.5011435747146606
1.6340560913085938,3.242637872695923,-0.490422785282135
1.612868070602417,3.1464364528656006,-0.4667423367500305
1.6013349294662476,3.071108102798462,-0.44653838872909546
1.6339404582977295,3.081778049468994,-0.43874886631965637
1.6295703649520874,3.0240583419799805,-0.42149609327316284
1.7051949501037598,3.1124587059020996,-0.4242066442966461
1.7083182334899902,3.067904472351074,-0.408584326505661
1.7638870477676392,3.1182804107666016,-0.40550699830055237
1.3177316188812256,2.2924914360046387,-0.2906858026981354
0.9990924000740051,1.7105507850646973,-0.2112855166196823
0.961358368396759,1.6208242177963257,-0.19485193490982056
0.880220353603363,1.4617470502853394,-0.17087002098560333
0.894592821598053,1.4627747535705566,-0.1659460812807083
0.9645496606826782,1.552803635597229,-0.17062020301818848
0.9916766285896301,1.5732043981552124,-0.16731634736061096
1.0088716745376587,1.576778531074524,-0.16197551786899567
1.0094679594039917,1.553897738456726,-0.15379032492637634
1.026345133781433,1.55744206905365,-0.1482626050710678
1.0349867343902588,1.5476558208465576,-0.14125493168830872
1.0460063219070435,1.540845274925232,-0.13437314331531525
2.5346996784210205,3.681877851486206,-0.3060612976551056
2.559589385986328,3.665970802307129,-0.2894158661365509
2.5946619510650635,3.6617140769958496,-0.2728363871574402
2.614581346511841,3.639200448989868,-0.2546596825122833
2.6209118366241455,3.5973217487335205,-0.2349982112646103
2.668980598449707,3.6116180419921875,-0.21821162104606628
2.6375339031219482,3.7476143836975098,0.6523609161376953
2.6048154830932617,3.75820255279541,0.6673517823219299
2.576312303543091,3.775024652481079,0.6828691363334656
1.0563712120056152,1.5743674039840698,0.2899157702922821
1.0485272407531738,1.5877386331558228,0.29716965556144714
1.0327589511871338,1.587764024734497,0.3016926944255829
1.0118776559829712,1.5818047523498535,0.304809033870697
1.030051350593567,1.6376537084579468,0.3199380934238434
1.003649115562439,1.6212893724441528,0.32077088952064514
0.9997371435165405,1.6407461166381836,0.3285294771194458
0.9789563417434692,1.6342988014221191,0.33090266585350037
0.9661255478858948,1.6408988237380981,0.3359120488166809
1.3455106019973755,2.3223137855529785,0.4802106022834778
2.5730462074279785,4.514637470245361,0.9429096579551697
1.8284380435943604,3.2648274898529053,0.6880142688751221
1.7716535329818726,3.2198355197906494,0.6845785975456238
1.789835810661316,3.308741331100464,0.7094079852104187
1.776864767074585,3.340073347091675,0.7219372391700745
2.4052038192749023,4.6026225090026855,1.002518892288208
2.369983196258545,4.618513584136963,1.0132591724395752
2.3311595916748047,4.627288818359375,1.022494912147522
2.301356077194214,4.648508548736572,1.03407621383667
2.274749994277954,4.676384449005127,1.0472131967544556
2.239064931869507,4.691380023956299,1.0570002794265747
2.203512668609619,4.7060394287109375,1.066507339477539
2.171051502227783,4.727365016937256,1.0775954723358154
2.1373860836029053,4.740639686584473,1.0865415334701538
2.10363507270813,4.753660678863525,1.0954842567443848
2.0746662616729736,4.7810750007629395,1.1072484254837036
2.0113606452941895,4.7314605712890625,1.1010456085205078
1.7425767183303833,4.183969020843506,0.9782596826553345
1.7210872173309326,4.215959072113037,0.9902558922767639
1.6910951137542725,4.226441860198975,0.9972178339958191
1.660603404045105,4.236917018890381,1.0039856433868408
1.6313360929489136,4.25490665435791,1.0121479034423828
1.5997387170791626,4.265370845794678,1.0185190439224243
1.571049690246582,4.28263521194458,1.0265324115753174
1.5459598302841187,4.306495189666748,1.036050796508789
1.5129923820495605,4.308648109436035,1.0404103994369507
1.4763118028640747,4.303865432739258,1.0426779985427856
1.4520224332809448,4.334897518157959,1.0533708333969116
1.4226248264312744,4.351315021514893,1.0605902671813965
1.3923262357711792,4.363783359527588,1.0668683052062988
1.3660595417022705,4.386725425720215,1.075697422027588
1.3290754556655884,4.376889228820801,1.0765942335128784
1.3028367757797241,4.40342378616333,1.0858532190322876
1.277089238166809,4.433554172515869,1.0958948135375977
1.2428162097930908,4.434244632720947,1.098721981048584
1.2188832759857178,4.471251010894775,1.1105936765670776
1.1874386072158813,4.478583335876465,1.1151061058044434
1.1573009490966797,4.493164539337158,1.1215306520462036
1.1233386993408203,4.492928981781006,1.1237791776657104
1.0926909446716309,4.5073347091674805,1.1294540166854858
1.06449556350708,4.532607555389404,1.137922763824463
1.0335716009140015,4.546577453613281,1.1436185836791992
1.0044394731521606,4.567680835723877,1.1511569023132324
0.9740511775016785,4.581067085266113,1.1567790508270264
0.9319327473640442,4.538619041442871,1.148105502128601
0.7691932916641235,3.8861725330352783,0.9843699336051941
0.7378613948822021,3.8723034858703613,0.9822086095809937
0.850944459438324,4.648561477661133,1.1808154582977295
0.8228515982627869,4.67978572845459,1.190466284751892
0.7914282083511353,4.692122936248779,1.1953716278076172
0.7574563026428223,4.689286708831787,1.1964696645736694
0.7266032099723816,4.708878517150879,1.202714443206787
0.6936754584312439,4.720909595489502,1.2069305181503296
0.6633176207542419,4.74763298034668,1.2149510383605957
0.6326714158058167,4.774149417877197,1.2229890823364258
0.5993618369102478,4.777870178222656,1.2252347469329834
0.5673098564147949,4.79263973236084,1.2303789854049683
0.5346659421920776,4.803456783294678,1.2344576120376587
0.5009323954582214,4.814316749572754,1.2378902435302734
0.46842965483665466,4.8324174880981445,1.2432383298873901
0.4350193440914154,4.842757701873779,1.2466551065444946
0.4035315215587616,4.875477313995361,1.255896806716919
0.3696098029613495,4.8777875900268555,1.2573646306991577
0.3368532359600067,4.906317234039307,1.2656748294830322
0.30309537053108215,4.915801525115967,1.2687737941741943
0.2686714231967926,4.917627811431885,1.2694542407989502
0.23567602038383484,4.949438095092773,1.277938723564148
0.20188207924365997,4.9734673500061035,1.2844805717468262
0.1672189086675644,4.993494987487793,1.2900606393814087
0.11103319376707077,4.185281276702881,1.081647276878357
0.08193335682153702,4.185803413391113,1.082221508026123
0.027712788432836533,2.1971096992492676,0.5680789351463318
0.023925988003611565,4.235693454742432,1.0949654579162598
-0.0061104134656488895,4.258482456207275,1.100702166557312
-0.03551236912608147,4.228114128112793,1.0927557945251465
-0.06537041068077087,4.258050441741943,1.1004483699798584
-0.09536004811525345,4.272648811340332,1.1042299270629883
-0.1252836287021637,4.279476642608643,1.1060569286346436
-0.15537069737911224,4.290010452270508,1.1083413362503052
-0.18549418449401855,4.285244941711426,1.1065260171890259
-0.21613603830337524,4.302958011627197,1.1105780601501465
-0.24595259130001068,4.301570415496826,1.1097509860992432
-0.2773158550262451,4.322620868682861,1.114762783050537
-0.307373046875,4.320803165435791,1.1139285564422607
-0.3350323736667633,4.281017303466797,1.1033573150634766
-0.36457860469818115,4.278980255126953,1.1018908023834229
-0.39756590127944946,4.3144354820251465,1.1100643873214722
-0.4202364385128021,4.240431308746338,1.090134620666504
-0.4411555826663971,4.158778190612793,1.0683196783065796
-0.4697321355342865,4.1484198570251465,1.0648691654205322
-0.49769505858421326,4.13791561126709,1.061449408531189
-0.5125806331634521,4.025848865509033,1.0319676399230957
-0.5382148623466492,4.00775671005249,1.0260370969772339
-0.5599165558815002,3.9632508754730225,1.0134106874465942
-0.5798214673995972,3.9073286056518555,0.9979218244552612
-0.6079660058021545,3.9112370014190674,0.9977891445159912
-0.6181849837303162,3.8027353286743164,0.9690456390380859
-0.6434472799301147,3.7913694381713867,0.9651318192481995
-0.659114420413971,3.727691411972046,0.9477197527885437
-0.6818662285804749,3.708834648132324,0.9413755536079407
-0.7041446566581726,3.6860342025756836,0.9340612292289734
-0.7190871238708496,3.6296985149383545,0.9183464050292969
-0.7388735413551331,3.5992701053619385,0.9092466831207275
-0.751381516456604,3.535306692123413,0.8917407393455505
-0.777690052986145,3.5380094051361084,0.8911138772964478
-0.7897554039955139,3.4777448177337646,0.8742100596427917
-0.8082919120788574,3.450852870941162,0.8656643629074097
-0.820263147354126,3.3980321884155273,0.8506906032562256
-0.8453255891799927,3.400442123413086,0.8496012687683105
-0.8671886920928955,3.387843370437622,0.8447669148445129
-0.8854618072509766,3.3603134155273438,0.8362364768981934
-0.8918603658676147,3.292536973953247,0.817638635635376
-0.9081467390060425,3.265272378921509,0.8087854385375977
