X,Y,Z
2.5241124629974365,3.4991838932037354,-0.12622037529945374
2.547851800918579,3.4822115898132324,-0.11839506775140762
2.1797068119049072,2.938852548599243,-0.09362812340259552
2.768205404281616,3.882430076599121,0.22244016826152802
2.753674030303955,3.920903205871582,0.23196682333946228
2.7332892417907715,3.953632354736328,0.2409956455230713
2.6851446628570557,3.9482977390289307,0.24757704138755798
2.648627996444702,3.9536502361297607,0.25416502356529236
2.6532022953033447,4.025059223175049,0.26496174931526184
2.600602149963379,4.0123491287231445,0.27026548981666565
2.568342447280884,4.023371696472168,0.27649423480033875
2.5429394245147705,4.048228740692139,0.2835876941680908
2.5326130390167236,4.100130081176758,0.29256176948547363
2.491145372390747,4.097656726837158,0.29736781120300293
2.461531162261963,4.115060329437256,0.3035884201526642
2.438269853591919,4.146535396575928,0.3106346130371094
2.407348394393921,4.164114952087402,0.31660038232803345
2.378087043762207,4.180465221405029,0.322222501039505
2.351698398590088,4.2038679122924805,0.3283250331878662
2.265143394470215,4.122200965881348,0.3260912299156189
2.2275233268737793,4.124528884887695,0.3302384912967682
2.205928087234497,4.153372287750244,0.33635222911834717
2.1796865463256836,4.175592422485352,0.3418707549571991
2.1521830558776855,4.1981916427612305,0.347317099571228
2.127833604812622,4.2276291847229,0.35338112711906433
2.101677417755127,4.248999118804932,0.3585818409919739
2.0801713466644287,4.2808427810668945,0.3646639287471771
2.045217990875244,4.288643836975098,0.36851000785827637
2.0168280601501465,4.3102850914001465,0.37356889247894287
1.9863505363464355,4.324044704437256,0.3778317868709564
1.9524009227752686,4.330562591552734,0.38149356842041016
1.995190143585205,4.511501312255859,0.40042054653167725
1.9636669158935547,4.529185771942139,0.40489423274993896
1.930700421333313,4.542965888977051,0.4090224802494049
1.894425630569458,4.545205116271973,0.41201353073120117
4.249588966369629,10.40278434753418,0.9495022892951965
4.1884446144104,10.468707084655762,0.9613246917724609
1.8196930885314941,4.645720958709717,0.42916175723075867
1.7889957427978516,4.665622234344482,0.43354088068008423
1.7591053247451782,4.684953212738037,0.4378211796283722
1.3473610877990723,3.667004346847534,0.34467458724975586
1.3076831102371216,3.639777183532715,0.3438296616077423
1.2812613248825073,3.648918390274048,0.3464069664478302
1.6186367273330688,4.717588424682617,0.4500686526298523
1.5993119478225708,4.7690253257751465,0.4571545422077179
1.5775580406188965,4.816900253295898,0.46399497985839844
1.5477838516235352,4.842593669891357,0.46846622228622437
1.5105524063110352,4.845901012420654,0.4707190692424774
1.4903141260147095,4.904742240905762,0.4784073531627655
1.451567530632019,4.899841785430908,0.4798581600189209
1.419527292251587,4.917032241821289,0.483487606048584
1.3947290182113647,4.96425199508667,0.489996075630188
1.345726490020752,4.925119876861572,0.48774492740631104
1.288424015045166,4.851710796356201,0.4820789396762848
1.2579691410064697,4.875514030456543,0.4860523045063019
1.22772216796875,4.899008750915527,0.49000632762908936
1.1985141038894653,4.929996490478516,0.49477171897888184
1.1669607162475586,4.953320026397705,0.4984668493270874
1.137673258781433,4.987829208374023,0.5032763481140137
1.1020902395248413,4.995595455169678,0.5054202079772949
1.0785101652145386,5.0561842918396,0.5129207968711853
1.0395119190216064,5.048254013061523,0.5135260224342346
1.004181146621704,5.055192947387695,0.5155638456344604
0.9653263688087463,5.046751976013184,0.515740156173706
2.1232616901397705,11.543855667114258,1.1821212768554688
0.37111127376556396,2.1011431217193604,0.215612530708313
1.9069840908050537,11.261589050292969,1.1580915451049805
1.802435278892517,11.113085746765137,1.145259141921997
1.6983965635299683,10.956111907958984,1.131207823753357
1.5982214212417603,10.813775062561035,1.1181623935699463
1.4974381923675537,10.651344299316406,1.1030442714691162
1.4093456268310547,10.572911262512207,1.0966613292694092
1.3245245218276978,10.49351692199707,1.0901557207107544
1.2288166284561157,10.313159942626953,1.0731699466705322
1.154023289680481,10.298105239868164,1.0730024576187134
1.0657198429107666,10.155075073242188,1.0591224431991577
0.9878100156784058,10.096397399902344,1.0540701150894165
0.39103442430496216,4.314381122589111,0.45090919733047485
0.3584418296813965,4.285942077636719,0.44842755794525146
0.32863864302635193,4.2882513999938965,0.44918110966682434
0.29975003004074097,4.305883884429932,0.45139509439468384
0.27202916145324707,4.346606254577637,0.4558892548084259
0.31028467416763306,5.5974345207214355,0.5874055624008179
0.2730354368686676,5.638212203979492,0.5920342206954956
0.23531050980091095,5.674849033355713,0.596259355545044
0.19695574045181274,5.707348346710205,0.6000832319259644
0.15789031982421875,5.731842994689941,0.6028912663459778
0.11745642870664597,5.744458198547363,0.6042386889457703
0.07742707431316376,5.745124816894531,0.6043586134910583
0.03749527037143707,5.761051177978516,0.6061133742332458
-0.002503245137631893,5.710657596588135,0.6009189486503601
-0.044474296271800995,6.013494491577148,0.6329297423362732
-0.06063654273748398,4.191257476806641,0.44112759828567505
-0.09013344347476959,4.210180759429932,0.44293224811553955
-0.11795816570520401,4.158994674682617,0.43738335371017456
-0.14233343303203583,4.029979228973389,0.42367690801620483
-0.1691880077123642,4.001746654510498,0.42059165239334106
-0.17525015771389008,3.558152198791504,0.3738826811313629
-0.19972854852676392,3.545219898223877,0.37236472964286804
-0.22427000105381012,3.543802261352539,0.3718867599964142
-0.2659507393836975,3.7863717079162598,0.3970091938972473
-0.29660606384277344,3.842599868774414,0.40258654952049255
-0.31843775510787964,3.782426595687866,0.39598581194877625
-0.342351496219635,3.7491817474365234,0.39222580194473267
-0.3618980050086975,3.6810436248779297,0.384770929813385
-0.3786839544773102,3.597402811050415,0.3755209445953369
-0.4091075658798218,3.64498233795166,0.37999024987220764
-0.43330514430999756,3.634439468383789,0.3784125745296478
-0.4545719027519226,3.59667706489563,0.37401336431503296
-0.4785535931587219,3.5858049392700195,0.37244105339050293
-0.49796468019485474,3.5440118312835693,0.3676164150238037
-0.5211116075515747,3.532932758331299,0.3657956123352051
-0.5441300272941589,3.521702766418457,0.3639792501926422
-0.5724509954452515,3.5409393310546875,0.36531370878219604
-0.5944883227348328,3.5216495990753174,0.36269259452819824
-1.116721749305725,6.34610652923584,0.6524736881256104
-1.1669365167617798,6.3728346824646,0.6540011167526245
-1.2206501960754395,6.418402671813965,0.6571286916732788
-1.2742887735366821,6.459720134735107,0.6598272323608398
-1.328691840171814,6.4966139793396,0.6620512008666992
-1.3842782974243164,6.536906719207764,0.6646380424499512
-1.434666395187378,6.550161361694336,0.6644911170005798
-1.471243143081665,6.502462863922119,0.6579931378364563
-1.5057400465011597,6.450949668884277,0.6508899331092834
-0.672402560710907,2.7932159900665283,0.2810075283050537
-0.6971501708030701,2.8113086223602295,0.28201931715011597
-0.7070658206939697,2.7688498497009277,0.2769629955291748
-0.7243302464485168,2.7564709186553955,0.27494192123413086
-0.7452049851417542,2.759096622467041,0.2742900550365448
-0.7683561444282532,2.7690324783325195,0.27428582310676575
-1.7307604551315308,6.077609539031982,0.5998952984809875
-1.7705323696136475,6.0583648681640625,0.5958596467971802
-1.808295488357544,6.031289100646973,0.5910696387290955
-1.833176851272583,5.963092803955078,0.5822756290435791
-1.8672199249267578,5.928420543670654,0.5763887763023376
-1.0443682670593262,3.2393600940704346,0.313612163066864
-1.0590558052062988,3.2102136611938477,0.30947208404541016
-1.0888047218322754,3.2250869274139404,0.3095611333847046
-1.3042206764221191,3.7765889167785645,0.3609327971935272
-1.3441286087036133,3.808228015899658,0.36222732067108154
-2.0485916137695312,5.68051290512085,0.5375378727912903
-2.079932928085327,5.648760795593262,0.5318357348442078
-2.105210304260254,5.59821891784668,0.5243357419967651
-2.1358702182769775,5.561972141265869,0.5181999802589417
-2.18267822265625,5.569247722625732,0.5160290598869324
-2.2451815605163574,5.616079330444336,0.5172095894813538
-1.4381407499313354,3.5287463665008545,0.323030561208725
-1.4533424377441406,3.4974963665008545,0.31820154190063477
-1.4716123342514038,3.4732065200805664,0.31400883197784424
-1.4924395084381104,3.4560930728912354,0.31043681502342224
-1.5252324342727661,3.467561721801758,0.3092257082462311
-1.5610543489456177,3.486015558242798,0.308655321598053
-1.6366040706634521,3.588890314102173,0.31542083621025085
-1.6616642475128174,3.5776517391204834,0.3120496869087219
-1.6811580657958984,3.555912494659424,0.307710736989975
-1.7068709135055542,3.5482728481292725,0.30443519353866577
-1.7372426986694336,3.551154851913452,0.3021122217178345
-1.7618224620819092,3.539337158203125,0.2984291911125183
-1.7829676866531372,3.520313262939453,0.29413992166519165
-1.8100287914276123,3.515558958053589,0.2909071445465088
-1.8440042734146118,3.5245792865753174,0.2887481153011322
-1.8607754707336426,3.4984400272369385,0.28360429406166077
-2.4802768230438232,4.585844039916992,0.3677191436290741
-1.182594656944275,2.1514151096343994,0.17057619988918304
-2.522550106048584,4.519020080566406,0.3540599048137665
-2.5561928749084473,4.509469509124756,0.3490452170372009
-2.568702459335327,4.457885265350342,0.3404996693134308
-2.6111490726470947,4.460723400115967,0.3361690938472748
-1.2304606437683105,2.0712265968322754,0.1539006233215332
-1.2480292320251465,2.070004940032959,0.15159447491168976
-2.6654858589172363,4.3522868156433105,0.3137320578098297
-2.7264509201049805,4.383853435516357,0.3107854425907135
-2.9752488136291504,4.716203689575195,0.32865962386131287
-3.0087366104125977,4.700042247772217,0.32164761424064636
-3.035212993621826,4.6695556640625,0.31338047981262207
-3.0313642024993896,4.597995281219482,0.3023086190223694
-3.0612847805023193,4.578631401062012,0.2945947051048279
-3.06901216506958,4.522212505340576,0.28412169218063354
-3.1035423278808594,4.508571624755859,0.27629706263542175
-3.1409502029418945,4.502134799957275,0.2688158452510834
-2.8156142234802246,3.977792739868164,0.2306642234325409
-2.8424015045166016,3.959169626235962,0.22239089012145996
-2.910675048828125,4.001763343811035,0.21750681102275848
-2.899216413497925,3.9284040927886963,0.20544247329235077
-2.9673452377319336,4.151197910308838,-0.16802246868610382
-2.4479947090148926,3.4805362224578857,-0.14884698390960693
-2.452526092529297,3.5389161109924316,-0.1586398482322693
-2.7467896938323975,4.027807235717773,-0.18878954648971558
-2.747739315032959,4.0927205085754395,-0.19978132843971252
-2.1695828437805176,3.2816426753997803,-0.16625170409679413
-2.1761319637298584,3.3469858169555664,-0.17578360438346863
-1.300134301185608,2.0310630798339844,-0.11014300584793091
-1.310476541519165,2.0797481536865234,-0.11624005436897278
-1.261965036392212,2.036226749420166,-0.11715979129076004
-1.259616494178772,2.0649349689483643,-0.12201978266239166
-2.0235466957092285,3.371554136276245,-0.2044183909893036
-2.0024192333221436,3.392843246459961,-0.21076302230358124
-1.9779225587844849,3.4068212509155273,-0.21652434766292572
-1.9675219058990479,3.4439549446105957,-0.22367152571678162
-1.2030843496322632,2.142108201980591,-0.1420339196920395
-1.9030758142471313,3.4480931758880615,-0.2333381325006485
-1.8491225242614746,3.4061455726623535,-0.234842911362648
-1.8247292041778564,3.4189162254333496,-0.24001874029636383
-1.785146951675415,3.4042091369628906,-0.24319708347320557
-1.7786242961883545,3.451174736022949,-0.2506994605064392
-2.4496755599975586,4.836889266967773,-0.3571168780326843
-2.4181973934173584,4.860907077789307,-0.36442506313323975
-2.3895840644836426,4.891880512237549,-0.3722688853740692
-2.365065574645996,4.9292216300964355,-0.3804938495159149
-1.724186658859253,3.6586427688598633,-0.2863646149635315
-1.6943691968917847,3.6635894775390625,-0.29055678844451904
-1.6624566316604614,3.6649668216705322,-0.2945171594619751
-1.6366218328475952,3.6762068271636963,-0.29909583926200867
-1.6155449151992798,3.697901487350464,-0.304528146982193
-2.1808273792266846,5.091042518615723,-0.42406684160232544
-2.1409685611724854,5.098978042602539,-0.4295346736907959
-2.1977732181549072,5.340540885925293,-0.4548662304878235
-2.172083616256714,5.384121894836426,-0.4634724259376526
-2.1450119018554688,5.427957534790039,-0.47193029522895813
-2.1130318641662598,5.460846424102783,-0.4794524013996124
-2.1033787727355957,5.551564693450928,-0.4920820891857147
-2.054354667663574,5.540309429168701,-0.4957750737667084
-2.023007869720459,5.576170921325684,-0.5034390091896057
-1.9296960830688477,5.4396138191223145,-0.49533307552337646
-1.6168591976165771,4.662179470062256,-0.428135484457016
-1.5780376195907593,4.654504776000977,-0.4309625029563904
-1.898271083831787,5.732721328735352,-0.5351454019546509
-1.8693549633026123,5.7826313972473145,-0.5438277125358582
-0.9749186038970947,3.090582847595215,-0.292809396982193
-0.9532239437103271,3.0970818996429443,-0.2955569624900818
-0.8778797388076782,2.924577474594116,-0.2811063528060913
-0.7960020899772644,2.721432685852051,-0.26330989599227905
-0.77097088098526,2.708198308944702,-0.2637345492839813
-0.7455893158912659,2.690878391265869,-0.2637091875076294
-0.736945629119873,2.733344316482544,-0.26954230666160583
-0.7178067564964294,2.738223075866699,-0.2716657221317291
-0.7032193541526794,2.761876344680786,-0.27550041675567627
-1.4831411838531494,6.005145072937012,-0.6023346781730652
-1.4682519435882568,6.128370761871338,-0.6180005669593811
-1.4632939100265503,6.300849437713623,-0.6388009190559387
-1.4232665300369263,6.329514503479004,-0.644858717918396
-1.3711447715759277,6.304815769195557,-0.6452733278274536
-1.3178644180297852,6.276053428649902,-0.6453226208686829
-1.2655868530273438,6.242796897888184,-0.6448177695274353
-1.2116514444351196,6.197669506072998,-0.6430700421333313
-1.1601277589797974,6.163685321807861,-0.6420012712478638
-1.1056735515594482,6.110180854797363,-0.6388137340545654
-1.0009117126464844,5.765374660491943,-0.6050723195075989
-0.9377104043960571,5.63392972946167,-0.5935060977935791
-0.9534088373184204,5.985340118408203,-0.6328548192977905
-0.9136799573898315,6.006984233856201,-0.6370200514793396
-0.8758718967437744,6.043747425079346,-0.6428369879722595
-0.837660551071167,6.084179878234863,-0.6491181254386902
-0.6363558769226074,4.872440338134766,-0.5214130878448486
-0.7366675734519958,5.963659763336182,-0.6399672031402588
-0.6931071877479553,5.953029632568359,-0.6402463912963867
-0.6480430960655212,5.926639080047607,-0.638850748538971
-0.6027419567108154,5.892170429229736,-0.6365931034088135
-0.557675838470459,5.861286640167236,-0.6347590088844299
-0.514752984046936,5.84164571762085,-0.6338533163070679
-0.47046422958374023,5.802379608154297,-0.6305297613143921
-0.2549598813056946,3.442953586578369,-0.3747105896472931
-0.2338400036096573,3.487182855606079,-0.38012102246284485
-0.20960427820682526,3.4964182376861572,-0.38175469636917114
-0.3014935851097107,5.692539215087891,-0.6222211718559265
-0.260379821062088,5.663393020629883,-0.6195251941680908
-0.2191852629184723,5.622315406799316,-0.6155481338500977
-0.17958964407444,5.6081037521362305,-0.6145349144935608
-0.13895320892333984,5.570339679718018,-0.6109750866889954
-0.09969178587198257,5.543964862823486,-0.6082713007926941
-0.06069992482662201,5.513449668884277,-0.6049893498420715
-0.018043862655758858,4.449808597564697,-0.4883531630039215
0.012839937582612038,4.442049980163574,-0.4876018166542053
0.05392543971538544,5.416400909423828,-0.594709575176239
0.09138604253530502,5.408167839050293,-0.5935243368148804
0.12766608595848083,5.356986999511719,-0.5875648856163025
0.16316689550876617,5.3016815185546875,-0.58118736743927
0.15409675240516663,4.082054138183594,-0.4472687542438507
0.23440425097942352,5.240797996520996,-0.5739781260490417
0.22098486125469208,4.265746116638184,-0.46659544110298157
0.2526782155036926,4.299079418182373,-0.4696393311023712
0.27614718675613403,4.200433254241943,-0.4582970142364502
0.3022373616695404,4.155889987945557,-0.4528977572917938
0.33169472217559814,4.161517143249512,-0.4529808759689331
0.3633451759815216,4.186289310455322,-0.45474618673324585
0.3882988393306732,4.141268730163574,-0.4489718973636627
0.5050365924835205,5.011916160583496,-0.5423136949539185
0.43708109855651855,4.054629325866699,-0.4379001557826996
0.46699753403663635,4.0670599937438965,-0.4383705258369446
0.5990909337997437,4.912075519561768,-0.5279931426048279
0.6330604553222656,4.908011436462402,-0.5261488556861877
0.6639432907104492,4.880606174468994,-0.5218308568000793
0.6962505578994751,4.864527225494385,-0.518753707408905
0.7288647890090942,4.852101802825928,-0.5159561038017273
0.755689799785614,4.801054954528809,-0.5087481141090393
0.7863211631774902,4.780623912811279,-0.5048611760139465
0.8247517943382263,4.805924415588379,-0.5058143138885498
0.8650197982788086,4.838558197021484,-0.5075349807739258
0.8942574262619019,4.80979061126709,-0.5026262998580933
0.9258824586868286,4.796170711517334,-0.4991239011287689
0.9564306139945984,4.774605751037598,-0.4947914183139801
0.9849055409431458,4.74528169631958,-0.4897102117538452
1.015506625175476,4.727181911468506,-0.485823392868042
1.0447473526000977,4.7051873207092285,-0.48127859830856323
1.078875184059143,4.705772399902344,-0.4789500832557678
1.1083062887191772,4.6832709312438965,-0.47425371408462524
1.1317154169082642,4.637978553771973,-0.467316210269928
1.1583003997802734,4.607673645019531,-0.4619448482990265
1.1879993677139282,4.592418193817139,-0.45775291323661804
1.218540072441101,4.580727577209473,-0.45394280552864075
1.248725414276123,4.564876079559326,-0.4496837556362152
1.2784161567687988,4.54891300201416,-0.44547224044799805
1.303457260131836,4.517868518829346,-0.43970987200737
1.33661949634552,4.516648292541504,-0.4366583526134491
1.3562736511230469,4.470516204833984,-0.4293045997619629
1.387899398803711,4.461169242858887,-0.42543458938598633
1.4189637899398804,4.451748847961426,-0.42162516713142395
1.447097897529602,4.434877872467041,-0.4169100821018219
1.4687557220458984,4.3994293212890625,-0.4104168117046356
1.494006633758545,4.37485408782959,-0.4049612581729889
1.5219615697860718,4.357346057891846,-0.40015244483947754
1.2764906883239746,3.573518753051758,-0.32545655965805054
1.2955297231674194,3.5504186153411865,-0.3205356001853943
1.5956588983535767,4.282270908355713,-0.38321182131767273
1.6281936168670654,4.2787322998046875,-0.3794386386871338
1.6552128791809082,4.260393142700195,-0.3743599057197571
1.6876680850982666,4.256429195404053,-0.3703068196773529
1.713634967803955,4.238044738769531,-0.3650440573692322
1.7413520812988281,4.222923278808594,-0.3600327968597412
1.7617363929748535,4.189526081085205,-0.35345911979675293
1.7874598503112793,4.170548439025879,-0.34803107380867004
1.8130759000778198,4.15139102935791,-0.3424510359764099
1.8350754976272583,4.125070095062256,-0.3363540768623352
1.8606353998184204,4.105459690093994,-0.33075374364852905
1.888923168182373,4.092927932739258,-0.32569050788879395
1.9131879806518555,4.073441982269287,-0.31997954845428467
1.9446470737457275,4.067570209503174,-0.3152536451816559
1.9730429649353027,4.05428409576416,-0.30990925431251526
1.9975489377975464,4.033978462219238,-0.3040125072002411
2.0246145725250244,4.020869731903076,-0.2985752522945404
2.0428972244262695,3.9901323318481445,-0.29183071851730347
2.0707874298095703,3.9761393070220947,-0.2861889600753784
2.094928503036499,3.955063819885254,-0.2799374759197235
2.113983392715454,3.927609920501709,-0.27327781915664673
2.13690447807312,3.90669846534729,-0.26703813672065735
2.1489646434783936,3.8648221492767334,-0.2592940032482147
2.138669729232788,3.7860443592071533,-0.2491348534822464
2.1681225299835205,3.7786388397216797,-0.24363315105438232
2.2058870792388916,3.784219264984131,-0.23885267972946167
2.220348834991455,3.748962879180908,-0.23141659796237946
2.24108624458313,3.727879524230957,-0.22484469413757324
2.2700448036193848,3.719832420349121,-0.21900884807109833
2.288222551345825,3.6907143592834473,-0.21161501109600067
2.312950849533081,3.675635814666748,-0.20512089133262634
2.353807210922241,3.687056541442871,-0.20006385445594788
2.366595506668091,3.6513590812683105,-0.1921200007200241
2.386981725692749,3.629084825515747,-0.18487496674060822
2.4239249229431152,3.633052349090576,-0.1788267195224762
2.422617197036743,3.577850103378296,-0.16965189576148987
2.4554848670959473,3.5746755599975586,-0.16289396584033966
2.4917993545532227,3.5783660411834717,-0.15637990832328796
2.4940872192382812,3.5294153690338135,-0.14705312252044678
2.526728630065918,3.525681734085083,-0.1394757181406021
2.5359621047973633,3.4904444217681885,-0.1305992156267166
2.569199800491333,3.485790252685547,-0.12236304581165314
2.7623770236968994,3.904097557067871,0.24982690811157227
2.7389092445373535,3.929532766342163,0.25914785265922546
2.7169291973114014,3.963097095489502,0.2689127027988434
2.6700828075408936,3.9566502571105957,0.2755524814128876
2.6457345485687256,3.9817798137664795,0.28397130966186523
2.614936113357544,4.001501560211182,0.29191359877586365
2.602735996246338,4.046032428741455,0.3013276755809784
2.5614473819732666,4.044093608856201,0.30709198117256165
2.5340445041656494,4.069947242736816,0.314907431602478
2.516040086746216,4.108006477355957,0.32344546914100647
2.499264717102051,4.145036697387695,0.33167073130607605
2.4408020973205566,4.115901947021484,0.33443590998649597
2.441037654876709,4.1875529289245605,0.34534382820129395
2.4105160236358643,4.2046732902526855,0.35165026783943176
2.3809988498687744,4.220948696136475,0.35772451758384705
2.31164813041687,4.169963359832764,0.35782602429389954
2.252396583557129,4.135354995727539,0.3592061400413513
2.226731300354004,4.157593727111816,0.3652585446834564
2.197049379348755,4.172871112823486,0.37075015902519226
2.1732683181762695,4.202381134033203,0.37723255157470703
2.141921043395996,4.217972278594971,0.3824804425239563
2.120467185974121,4.250105857849121,0.3891032040119171
2.0906593799591064,4.264392375946045,0.394057959318161
2.0592265129089355,4.27920389175415,0.3989723324775696
2.0308892726898193,4.300890922546387,0.40439143776893616
1.9995300769805908,4.3151164054870605,0.40908727049827576
1.9692418575286865,4.328593730926514,0.41360804438591003
1.9879838228225708,4.452028751373291,0.4287149906158447
4.490937232971191,10.258100509643555,0.9948015213012695
4.420185089111328,10.304722785949707,1.006478190422058
1.9154014587402344,4.554291725158691,0.44784289598464966
1.8894848823547363,4.581523895263672,0.45349958539009094
1.8628895282745361,4.608774662017822,0.45910516381263733
1.8321714401245117,4.62904167175293,0.46380698680877686
1.7978203296661377,4.642084121704102,0.4678638279438019
3.9888105392456055,10.519515991210938,1.0662248134613037
1.3330397605895996,3.5907561779022217,0.36596861481666565
1.322231650352478,3.6399941444396973,0.37297505140304565
1.2957594394683838,3.649218797683716,0.37572914361953735
1.256040334701538,3.6216673851013184,0.3747284710407257
1.63080894947052,4.812069416046143,0.5002589821815491
1.6057696342468262,4.8487935066223145,0.5064263343811035
1.5658841133117676,4.841035842895508,0.507956862449646
1.5192768573760986,4.814795017242432,0.5071918964385986
1.48623788356781,4.832894802093506,0.5111470222473145
1.4449291229248047,4.820740222930908,0.5118744373321533
1.4428925514221191,4.938546657562256,0.5264102220535278
1.4041775465011597,4.9332075119018555,0.5278833508491516
1.390863299369812,5.021393299102783,0.5391674637794495
1.3123986721038818,4.873370170593262,0.5249463319778442
1.272871971130371,4.867489814758301,0.5260346531867981
1.2443649768829346,4.898626804351807,0.5310895442962646
1.2139636278152466,4.921973705291748,0.5353221297264099
1.1832001209259033,4.945155620574951,0.539552628993988
1.151393175125122,4.9683637619018555,0.5434494614601135
1.1229549646377563,5.010448455810547,0.5494765043258667
1.0954540967941284,5.056031227111816,0.5559101104736328
1.060176134109497,5.063301086425781,0.5581385493278503
1.021823763847351,5.055087566375732,0.5586808919906616
0.9863836169242859,5.061891078948975,0.56076979637146
2.1705679893493652,11.583930015563965,1.2858277559280396
2.068359136581421,11.487751007080078,1.2776716947555542
1.959267497062683,11.340936660766602,1.2638806104660034
1.8498233556747437,11.169987678527832,1.2473435401916504
1.7452858686447144,11.01342487335205,1.2323931455612183
1.6498229503631592,10.91387939453125,1.2234206199645996
1.5450233221054077,10.732791900634766,1.204814076423645
1.4533861875534058,10.627717971801758,1.1947513818740845
1.3611472845077515,10.502607345581055,1.1824461221694946
1.2663085460662842,10.334263801574707,1.1652599573135376
1.1869014501571655,10.276946067810059,1.16060471534729
1.0969288349151611,10.130508422851562,1.1454875469207764
1.0248470306396484,10.13003921508789,1.1464825868606567
0.4046148359775543,4.301275253295898,0.48727184534072876
0.37515416741371155,4.311647891998291,0.4889378249645233
0.34053415060043335,4.256025314331055,0.483134001493454
0.31294405460357666,4.293079376220703,0.48788130283355713
0.28657761216163635,4.349309921264648,0.49464938044548035
0.3291383981704712,5.59102725982666,0.636143147945404
0.2916313111782074,5.624139785766602,0.6402157545089722
0.2526938319206238,5.633731842041016,0.6416440010070801
0.2147061675786972,5.685735702514648,0.6479430794715881
0.17511478066444397,5.68703031539917,0.6484920978546143
0.13667578995227814,5.738511085510254,0.6546074748039246
0.0973985493183136,5.785882472991943,0.6599984169006348
0.0567634180188179,5.755364894866943,0.656536340713501
0.01586701162159443,5.740089416503906,0.6548459529876709
-0.037009347230196,8.844880104064941,1.009177327156067
-0.09798325598239899,8.809470176696777,1.0053126811981201
-0.10910452902317047,6.0379557609558105,0.6890504360198975
-0.10476095229387283,4.190276622772217,0.47797298431396484
-0.13172730803489685,4.123536109924316,0.4701652228832245
-0.16082090139389038,4.122537136077881,0.46987631916999817
-0.18576712906360626,4.039931297302246,0.4603143334388733
-0.18818630278110504,3.554100513458252,0.4048488140106201
-0.21220359206199646,3.5411157608032227,0.40323692560195923
-0.23848479986190796,3.566735029220581,0.40577971935272217
-0.2861938178539276,3.870826244354248,0.4399828612804413
-0.3082462549209595,3.810791015625,0.43279972672462463
-0.3327005207538605,3.7854220867156982,0.4295800030231476
-0.3568568527698517,3.7598938941955566,0.42636653780937195
-0.38141176104545593,3.7419426441192627,0.4240250885486603
-0.4004836678504944,3.673677682876587,0.4157017767429352
-0.42666009068489075,3.6786437034606934,0.4157048761844635
-0.44723862409591675,3.6371877193450928,0.41048628091812134
-0.4679940342903137,3.5994436740875244,0.4057120382785797
-0.48877400159835815,3.56543231010437,0.4013872742652893
-0.5129135847091675,3.554292917251587,0.39965295791625977
-0.5384268760681152,3.5584988594055176,0.39937707781791687
-0.5567710995674133,3.5164990425109863,0.3939380943775177
-0.5846632719039917,3.535710334777832,0.3953792154788971
-1.0902540683746338,6.321099281311035,0.7056003212928772
-1.1430749893188477,6.363284587860107,0.7090747952461243
-1.1965514421463013,6.401091575622559,0.7120577692985535
-1.249746322631836,6.442636966705322,0.7149723172187805
-1.3043936491012573,6.487550735473633,0.7182642817497253
-1.3572708368301392,6.520627498626709,0.7202569842338562
-1.4123438596725464,6.5569000244140625,0.7225822806358337
-1.4537214040756226,6.524282455444336,0.7173113226890564
-1.4920697212219238,6.484042167663574,0.7112268805503845
-1.5299359560012817,6.44761848449707,0.7051491141319275
-0.687283456325531,2.8111703395843506,0.3065493702888489
-0.6969407796859741,2.7689006328582764,0.30106812715530396
-0.7204083204269409,2.7790982723236084,0.30128034949302673
-0.7317367196083069,2.7441344261169434,0.2966298758983612
-0.7526918053627014,2.746675729751587,0.29598504304885864
-0.7817947268486023,2.7790908813476562,0.2984107732772827
-1.759644627571106,6.096603870391846,0.6523122191429138
-1.7931241989135742,6.054814338684082,0.645499050617218
-1.8251532316207886,6.0090789794921875,0.6383111476898193
-1.8554761409759521,5.959476470947266,0.6307705640792847
-1.888968586921692,5.9248809814453125,0.6245654821395874
-1.9157103300094604,5.871748924255371,0.6163226366043091
-1.2826741933822632,3.8420002460479736,0.40152573585510254
-1.3042025566101074,3.8185946941375732,0.3973434865474701
-1.335938572883606,3.8243608474731445,0.3962017297744751
-1.364988088607788,3.822629451751709,0.39422741532325745
-2.064706802368164,5.662041664123535,0.5809515714645386
-2.0959792137145996,5.63024377822876,0.5747435688972473
-2.12393856048584,5.586941719055176,0.5673221349716187
-2.1599910259246826,5.565212726593018,0.5621263980865479
-1.4839483499526978,3.746122121810913,0.37638092041015625
-1.514879584312439,3.7508296966552734,0.3745987117290497
-1.4777300357818604,3.5898661613464355,0.35635653138160706
-1.473717451095581,3.5118067264556885,0.34643757343292236
-1.4890469312667847,3.480273485183716,0.34113937616348267
-1.5133088827133179,3.4701027870178223,0.3379681408405304
-1.5397510528564453,3.4672915935516357,0.33532413840293884
-1.5660622119903564,3.464355230331421,0.3326394557952881
-1.6141880750656128,3.5068953037261963,0.3342280685901642
-1.670018196105957,3.562837839126587,0.33697831630706787
-1.694882869720459,3.551421642303467,0.33332234621047974
-1.7218060493469238,3.54746150970459,0.330146849155426
-1.7556333541870117,3.5572657585144043,0.32824334502220154
-1.7732348442077637,3.531477212905884,0.3229416012763977
-1.8014663457870483,3.5262773036956787,0.31951063871383667
-1.8363624811172485,3.5349528789520264,0.3172471225261688
-1.8742015361785889,3.5506842136383057,0.31545019149780273
-2.4479241371154785,4.564844608306885,0.4014148712158203
-1.16342294216156,2.133871555328369,0.18559470772743225
-1.186112880706787,2.139418363571167,0.18397828936576843
-2.553075075149536,4.535266399383545,0.38538306951522827
-2.5556564331054688,4.4716033935546875,0.3753967881202698
-2.590256690979004,4.461185932159424,0.3697095811367035
-2.6174063682556152,4.436789512634277,0.3628036081790924
-1.2493869066238403,2.0861854553222656,0.16813527047634125
-2.649251699447632,4.359724998474121,0.34627389907836914
-2.646533727645874,4.2888031005859375,0.33528098464012146
-2.831743001937866,4.518426418304443,0.3474448323249817
-2.978062152862549,4.684787273406982,0.3540065586566925
-3.0175697803497314,4.678595542907715,0.3471195697784424
-3.0245325565338135,4.6188788414001465,0.33598682284355164
-3.055274724960327,4.5991973876953125,0.3277294635772705
-3.0561883449554443,4.538180351257324,0.3164917230606079
-3.07828950881958,4.504944801330566,0.3067949712276459
-3.127441883087158,4.5096116065979,0.2992652952671051
-2.9092345237731934,4.139238357543945,0.2674538791179657
-2.860074758529663,4.012100696563721,0.25172901153564453
-2.9168264865875244,4.034352779388428,0.2451835423707962
-2.9072511196136475,3.9694831371307373,0.23327180743217468
-2.901862621307373,3.9061479568481445,0.22080831229686737
-2.4798386096954346,3.4960806369781494,-0.1545257866382599
-2.421584129333496,3.469827175140381,-0.1617409884929657
-2.766545057296753,4.023396015167236,-0.19629937410354614
-2.7619471549987793,4.082728385925293,-0.20814913511276245
-2.212766170501709,3.322854995727539,-0.17625688016414642
-2.1805851459503174,3.325017213821411,-0.18286800384521484
-1.3198941946029663,2.045902967453003,-0.11647456139326096
-1.2737207412719727,2.0057265758514404,-0.11786273866891861
-1.2592037916183472,2.0146257877349854,-0.12199947983026505
-1.262516736984253,2.053626537322998,-0.12793517112731934
-2.0491466522216797,3.3873343467712402,-0.21668341755867004
-2.011261463165283,3.3778185844421387,-0.221530944108963
-1.9821252822875977,3.38554310798645,-0.22742483019828796
-1.9744607210159302,3.430142402648926,-0.23582816123962402
-1.2106033563613892,2.1373167037963867,-0.15010285377502441
-1.1647359132766724,2.0912725925445557,-0.14990368485450745
-1.860635757446289,3.398897647857666,-0.2485213279724121
-1.8292211294174194,3.3977973461151123,-0.25310370326042175
-1.791938066482544,3.386347770690918,-0.25691530108451843
-1.7832716703414917,3.4300825595855713,-0.26476484537124634
-2.458510398864746,4.81325101852417,-0.3777991533279419
-2.4317641258239746,4.84368371963501,-0.38625267148017883
-2.407477617263794,4.88129186630249,-0.3952622413635254
-2.378061056137085,4.912405014038086,-0.40381884574890137
-2.3613157272338867,4.967367649078369,-0.4142063558101654
-1.7070088386535645,3.6561975479125977,-0.30908966064453125
-1.6759881973266602,3.6572391986846924,-0.31328603625297546
-1.6494921445846558,3.6688315868377686,-0.318331778049469
-1.6280757188796997,3.6907236576080322,-0.3242311179637909
-1.6017634868621826,3.701779365539551,-0.32921046018600464
-2.1409924030303955,5.045798301696777,-0.45394864678382874
-2.20620059967041,5.304920196533203,-0.4826357960700989
-2.1845695972442627,5.359516143798828,-0.4929553270339966
-2.144059181213379,5.36685848236084,-0.4989079535007477
-2.1109299659729004,5.396077632904053,-0.5068618059158325
-1.3331533670425415,3.4810402393341064,-0.33019500970840454
-2.0511550903320312,5.47192907333374,-0.5240641236305237
-2.036895990371704,5.551301956176758,-0.5366653203964233
-1.976769208908081,5.5063090324401855,-0.5371888279914856
-1.8876641988754272,5.3805084228515625,-0.5294992327690125
-1.5880229473114014,4.631768703460693,-0.4596942365169525
-1.5555269718170166,4.642299175262451,-0.46455252170562744
-1.8496553897857666,5.6503472328186035,-0.5700651407241821
-0.9703923463821411,3.036947727203369,-0.3087005913257599
-0.9656859636306763,3.099276304244995,-0.3174055814743042
-0.9370605945587158,3.0833771228790283,-0.31807148456573486
-0.805067241191864,2.7168610095977783,-0.282274067401886
-0.7762559056282043,2.688584566116333,-0.28124019503593445
-0.7550676465034485,2.686293840408325,-0.28279054164886475
-0.744201123714447,2.7213213443756104,-0.28829872608184814
-0.7148809432983398,2.688732624053955,-0.2866549789905548
-0.7106853127479553,2.7498373985290527,-0.29499590396881104
-0.6770528554916382,2.698037624359131,-0.29103589057922363
-1.5088601112365723,6.197718143463135,-0.6721782088279724
-1.483169436454773,6.283255577087402,-0.6851310729980469
-1.446363925933838,6.327167987823486,-0.6936821341514587
-1.394536018371582,6.302493095397949,-0.6945153474807739
-1.3435741662979126,6.281326770782471,-0.6953126788139343
-1.28983736038208,6.244546413421631,-0.694378137588501
-1.2393198013305664,6.21868371963501,-0.6946260929107666
-1.186420202255249,6.181095123291016,-0.6936022043228149
-1.1324481964111328,6.131586074829102,-0.6908205151557922
-1.060757040977478,5.9784746170043945,-0.6760887503623962
-0.9574583768844604,5.625673294067383,-0.6385846138000488
-0.952024519443512,5.838731288909912,-0.6652534008026123
-0.9345519542694092,5.99836540222168,-0.6860677599906921
-0.8936560750007629,6.012126445770264,-0.6897101402282715
-0.8574234247207642,6.060210227966309,-0.6972802877426147
-0.8150272965431213,6.0657453536987305,-0.699995756149292
-0.6208035349845886,4.8775634765625,-0.5645699501037598
-0.7187787890434265,5.979582786560059,-0.6941531300544739
-0.6713311076164246,5.941901683807373,-0.6912856101989746
-0.625609815120697,5.907636642456055,-0.6888025999069214
-0.5816946625709534,5.884596347808838,-0.6876397728919983
-0.5364561080932617,5.841907978057861,-0.6841913461685181
-0.49314698576927185,5.814366817474365,-0.6823269724845886
-0.4497048556804657,5.790487766265869,-0.6805140376091003
-0.24605420231819153,3.4829633235931396,-0.4099314510822296
-0.220836341381073,3.4690093994140625,-0.40890777111053467
-0.3218850791454315,5.678075790405273,-0.6703433394432068
-0.28161102533340454,5.664562225341797,-0.6695069670677185
-0.24027752876281738,5.6392035484313965,-0.6669965386390686
-0.20016776025295258,5.617399215698242,-0.6649259328842163
-0.1597536951303482,5.572044849395752,-0.6600927710533142
-0.12048549950122833,5.549672603607178,-0.6580072641372681
-0.0815778598189354,5.530949592590332,-0.6559858918190002
-0.042140088975429535,5.500348091125488,-0.6523852944374084
-0.0031161545775830746,4.445396423339844,-0.5273082256317139
0.028043054044246674,4.480213165283203,-0.531512975692749
0.07142926752567291,5.40303373336792,-0.6411135792732239
0.10880657285451889,5.394700527191162,-0.639771580696106
0.11529050022363663,4.249955654144287,-0.5036715269088745
0.18062368035316467,5.280340671539307,-0.6253836154937744
0.21586254239082336,5.244136810302734,-0.6207347512245178
0.20119436085224152,4.180882930755615,-0.4946160912513733
0.23613975942134857,4.287946701049805,-0.5065747499465942
0.25768715143203735,4.154663562774658,-0.49015408754348755
0.2803146541118622,4.056087493896484,-0.47787678241729736
0.3152942955493927,4.143113136291504,-0.4875011146068573
0.345343679189682,4.156397819519043,-0.48839882016181946
0.3713199496269226,4.123147010803223,-0.4834701120853424
0.3957284092903137,4.07814884185791,-0.4772050976753235
0.42292189598083496,4.059967517852783,-0.4740951657295227
0.45200997591018677,4.064789772033691,-0.473711758852005
0.4765816926956177,4.03088903427124,-0.4687112271785736
0.5082809329032898,4.058501720428467,-0.4705844819545746
0.6447363495826721,4.87456750869751,-0.5636236667633057
0.6791796088218689,4.870131492614746,-0.5615187883377075
0.709646463394165,4.842488765716553,-0.5567992925643921
0.740860104560852,4.822368144989014,-0.5527437925338745
0.7717097401618958,4.802091121673584,-0.5484734773635864
0.8048441410064697,4.796935081481934,-0.5459648966789246
0.8422359228134155,4.814446926116943,-0.5460373163223267
0.8776875138282776,4.816296100616455,-0.5443161129951477
0.9095373749732971,4.8028059005737305,-0.540569543838501
0.9426601529121399,4.796752452850342,-0.53756183385849
0.9696205258369446,4.760014533996582,-0.5311500430107117
1.0011601448059082,4.745879173278809,-0.5272881984710693
1.0289891958236694,4.712441444396973,-0.5212820172309875
1.058051347732544,4.690454959869385,-0.5161901712417603
1.0921050310134888,4.6909942626953125,-0.5136093497276306
1.1173752546310425,4.653461456298828,-0.5068787336349487
1.1441935300827026,4.623304843902588,-0.5009936690330505
1.174940824508667,4.60795783996582,-0.49657565355300903
1.2027058601379395,4.585132122039795,-0.4911670684814453
1.2332099676132202,4.573401927947998,-0.48698586225509644
1.2629371881484985,4.557623863220215,-0.48237016797065735
1.292540192604065,4.541639804840088,-0.47776225209236145
1.3178460597991943,4.510503768920898,-0.4712978005409241
1.3487515449523926,4.501789093017578,-0.4671648144721985
1.372893214225769,4.470521926879883,-0.46071451902389526
1.401756763458252,4.453835487365723,-0.455766499042511
1.4279519319534302,4.429598331451416,-0.45004281401634216
1.455115795135498,4.4089274406433105,-0.444385290145874
1.4803390502929688,4.384555816650391,-0.43845218420028687
1.5057011842727661,4.359904766082764,-0.432488352060318
1.2602288722991943,3.568540334701538,-0.35111504793167114
1.2847577333450317,3.5601603984832764,-0.3472648859024048
1.3144603967666626,3.566272497177124,-0.34474703669548035
1.6053497791290283,4.2637505531311035,-0.40836286544799805
1.642106056213379,4.2710418701171875,-0.4052511155605316
1.6688740253448486,4.252758979797363,-0.3996521234512329
1.6978319883346558,4.241755485534668,-0.3945886492729187
1.725244402885437,4.226945877075195,-0.3891928493976593
1.7552440166473389,4.215060710906982,-0.3839184641838074
1.7755221128463745,4.181665420532227,-0.37679174542427063
1.8008145093917847,4.162834167480469,-0.3707953095436096
1.8259005546569824,4.143857479095459,-0.3648223280906677
1.8482728004455566,4.11733865737915,-0.35812509059906006
1.871038794517517,4.0904011726379395,-0.351335734128952
1.9053789377212524,4.09218692779541,-0.34695789217948914
1.9263458251953125,4.065598011016846,-0.34016433358192444
1.9510399103164673,4.045633316040039,-0.33386191725730896
1.9758551120758057,4.0253682136535645,-0.3275156617164612
2.0036191940307617,4.01210355758667,-0.3215503692626953
2.03060245513916,3.998983144760132,-0.31566694378852844
2.0528528690338135,3.974926710128784,-0.3088178336620331
2.0733695030212402,3.9471333026885986,-0.3016660213470459
2.0998895168304443,3.9335548877716064,-0.2955261766910553
2.1261844635009766,3.9198625087738037,-0.28938519954681396
2.1501500606536865,3.8983423709869385,-0.2823898494243622
2.1371254920959473,3.8123650550842285,-0.2708990275859833
2.166377305984497,3.8052427768707275,-0.2650264501571655
2.176361322402954,3.763991355895996,-0.25676363706588745
2.206571340560913,3.755857467651367,-0.25059974193573
2.2363903522491455,3.7477118968963623,-0.24428220093250275
2.249011516571045,3.7132463455200195,-0.2363484501838684
2.2786624431610107,3.7047231197357178,-0.22985227406024933
2.312520980834961,3.7025258541107178,-0.22362655401229858
2.320127487182617,3.661285877227783,-0.21503125131130219
2.3537189960479736,3.658778429031372,-0.20845814049243927
2.383528232574463,3.649174213409424,-0.20134885609149933
2.390033483505249,3.6079328060150146,-0.1925005167722702
2.4097392559051514,3.585799217224121,-0.18457062542438507
2.4479804039001465,3.5885891914367676,-0.1775829941034317
2.4671239852905273,3.5663599967956543,-0.16917194426059723
2.486480474472046,3.5437417030334473,-0.16064085066318512
2.5242531299591064,3.546107053756714,-0.15290798246860504
2.5330071449279785,3.5113744735717773,-0.1435890793800354
2.5571064949035645,3.494230270385742,-0.13437633216381073
2.186765193939209,2.9477949142456055,-0.10597015917301178
2.797699213027954,3.9256458282470703,0.2701365053653717
2.7564752101898193,3.92547345161438,0.2784276008605957
2.70424485206604,3.9136464595794678,0.2856813073158264
2.700618267059326,3.972167730331421,0.2978263199329376
2.655272960662842,3.964491844177246,0.30443739891052246
2.616340398788452,3.970975160598755,0.31192708015441895
2.6196677684783936,4.042623519897461,0.32454773783683777
2.582819700241089,4.047154426574707,0.3312695324420929
2.5567281246185303,4.072257041931152,0.3395252525806427
2.5173611640930176,4.077762126922607,0.3460808992385864
2.492466449737549,4.101539611816406,0.3537522256374359
2.474619150161743,4.138965606689453,0.3626488745212555
2.4510929584503174,4.170408725738525,0.3708040118217468
2.4123055934906006,4.174371242523193,0.37642404437065125
2.3867828845977783,4.19739294052124,0.38349449634552
2.356346845626831,4.213968753814697,0.38989129662513733
2.2584598064422607,4.111833572387695,0.3851291835308075
2.2393624782562256,4.148263931274414,0.39305946230888367
2.213876485824585,4.17018985748291,0.3994695842266083
2.1874783039093018,4.192331790924072,0.405825674533844
2.1632981300354004,4.221816539764404,0.41276320815086365
2.131568431854248,4.237371921539307,0.4184054732322693
2.1018259525299072,4.251680850982666,0.4236753284931183
2.080371856689453,4.283329486846924,0.43068984150886536
2.051980495452881,4.305110454559326,0.4364798665046692
2.016787528991699,4.312606334686279,0.4408453404903412
1.989264965057373,4.33342981338501,0.44646304845809937
1.96793532371521,4.368256092071533,0.45356887578964233
1.991598129272461,4.506237983703613,0.4712976813316345
1.9723645448684692,4.5523576736450195,0.4793858826160431
1.9191689491271973,4.519680976867676,0.47918805480003357
4.306861400604248,10.34268856048584,1.1036676168441772
1.8800945281982422,4.606563568115234,0.49478626251220703
1.8497416973114014,4.626741886138916,0.49990302324295044
1.8130872249603271,4.6324238777160645,0.5033528208732605
1.802857518196106,4.706766128540039,0.5143234729766846
1.7644963264465332,4.7042365074157715,0.5168234705924988
1.3333710432052612,3.632909059524536,0.40131857991218567
1.3126057386398315,3.656646728515625,0.40594348311424255
1.2783204317092896,3.6437571048736572,0.40640580654144287
1.6309280395507812,4.758686065673828,0.5332475304603577
1.597480058670044,4.769608974456787,0.5369001030921936
1.5780421495437622,4.824718475341797,0.5456057786941528
1.5486600399017334,4.850137710571289,0.5508343577384949
1.528640866279602,4.9090046882629395,0.5596590042114258
1.48191237449646,4.882363796234131,0.5587689280509949
1.4439239501953125,4.881211280822754,0.5607684254646301
1.4173489809036255,4.9169135093688965,0.5670009851455688
1.3866208791732788,4.941417694091797,0.5720239877700806
1.340041160583496,4.90966796875,0.5701352953910828
1.2908364534378052,4.866302013397217,0.5668450593948364
1.257865309715271,4.882620334625244,0.5705174803733826
1.2293262481689453,4.913572788238525,0.5758970975875854
1.2027164697647095,4.9557785987854,0.5826675891876221
1.167913556098938,4.963782787322998,0.5853224396705627
1.1411105394363403,5.009542942047119,0.5921444892883301
1.1053135395050049,5.017282485961914,0.5945152640342712
1.079364538192749,5.0702643394470215,0.6022820472717285
1.0386613607406616,5.054712772369385,0.6019448637962341
1.0064477920532227,5.076769828796387,0.6060853004455566
0.9678337574005127,5.068220615386963,0.6063932180404663
0.4063386023044586,2.2130467891693115,0.2652721703052521
2.001582384109497,11.353943824768066,1.3635379076004028
0.35985836386680603,2.130448341369629,0.2563527226448059
1.793215274810791,11.085241317749023,1.3364472389221191
1.693581223487854,10.951292037963867,1.3229029178619385
1.5917659997940063,10.793659210205078,1.3059601783752441
1.5009217262268066,10.700567245483398,1.2964226007461548
1.4020607471466064,10.545387268066406,1.2794127464294434
1.3134486675262451,10.43918228149414,1.26832115650177
1.2229374647140503,10.297532081604004,1.2529224157333374
1.1400587558746338,10.205245018005371,1.2435457706451416
1.060428500175476,10.135567665100098,1.236456036567688
0.9872431755065918,10.123247146606445,1.2359931468963623
0.3923727869987488,4.344657897949219,0.5309392809867859
0.35804373025894165,4.300832748413086,0.5260752439498901
0.32516568899154663,4.264460563659668,0.5221347212791443
0.2982151508331299,4.305201530456543,0.5276604890823364
0.27154555916786194,4.361278057098389,0.5349262952804565
0.3104839026927948,5.632862567901611,0.6911571621894836
0.27123016119003296,5.638704776763916,0.6921703219413757
0.2330850213766098,5.671388149261475,0.6965137124061584
0.19494466483592987,5.711555004119873,0.701812744140625
0.15499313175678253,5.704955101013184,0.7014011740684509
0.11514082551002502,5.732995986938477,0.7051234841346741
0.07587523758411407,5.787930011749268,0.7118289470672607
0.03556368499994278,5.796067714691162,0.7128133177757263
-0.004830359946936369,5.846573352813721,0.7190427780151367
-0.06850707530975342,8.808361053466797,1.0833791494369507
-0.12966258823871613,8.726240158081055,1.0734127759933472
-0.1887761801481247,8.655366897583008,1.0647599697113037
-0.17705538868904114,6.158132076263428,0.7571632862091064
-0.2205336093902588,6.180069923400879,0.759502649307251
-0.25596868991851807,6.004141330718994,0.7375688552856445
-0.17768555879592896,3.5820040702819824,0.4398593008518219
-0.2025921791791916,3.5729527473449707,0.43860095739364624
-0.22568771243095398,3.5444095134735107,0.4349752366542816
