X,Y,Z
1.3512842655181885,4.192489147186279,-0.6265883445739746
1.175054907798767,3.559312105178833,-0.52721107006073
1.1752872467041016,3.478503704071045,-0.510678231716156
1.1955939531326294,3.4601662158966064,-0.5031298995018005
1.219592809677124,3.452641487121582,-0.4971882402896881
1.2450083494186401,3.448532819747925,-0.49172666668891907
1.2652137279510498,3.4296469688415527,-0.4841616153717041
1.286650538444519,3.414273738861084,-0.47682812809944153
1.3074241876602173,3.3989417552948,-0.46957582235336304
1.3310965299606323,3.390608072280884,-0.46327564120292664
1.3578153848648071,3.389214515686035,-0.457887202501297
1.384290099143982,3.387742042541504,-0.45232778787612915
1.4020689725875854,3.3645176887512207,-0.44372275471687317
1.4284701347351074,3.3626935482025146,-0.43802377581596375
1.4551951885223389,3.360543727874756,-0.4322134554386139
1.48164963722229,3.3583245277404785,-0.42627111077308655
1.5094908475875854,3.359546422958374,-0.42067262530326843
1.5283020734786987,3.3391146659851074,-0.41223829984664917
1.5567370653152466,3.339682102203369,-0.4064171016216278
1.5798733234405518,3.329671621322632,-0.3992080092430115
1.6026582717895508,3.3196287155151367,-0.39195841550827026
1.6136499643325806,3.284885883331299,-0.3817846179008484
1.6093555688858032,3.218489170074463,-0.3678959906101227
2.3045105934143066,4.531620025634766,-0.5092770457267761
1.6854830980300903,3.2599356174468994,-0.3600311577320099
1.7316440343856812,3.2937138080596924,-0.3572179675102234
1.727308750152588,3.2308294773101807,-0.3438675105571747
1.7380844354629517,3.199331045150757,-0.3339264690876007
1.7206330299377441,3.1165482997894287,-0.3187290132045746
1.7501438856124878,3.11873197555542,-0.3122268617153168
1.8045811653137207,3.164743423461914,-0.3099198341369629
1.316768765449524,2.273988723754883,-0.2176702916622162
0.9395479559898376,1.5975695848464966,-0.14932045340538025
0.9549974799156189,1.5978683233261108,-0.14555402100086212
0.9677841663360596,1.5951024293899536,-0.14154066145420074
0.9764161705970764,1.5856379270553589,-0.13694071769714355
0.9875550270080566,1.5791102647781372,-0.13241970539093018
1.0045664310455322,1.5825830698013306,-0.1287095993757248
1.0047011375427246,1.5597341060638428,-0.12280317395925522
1.019789695739746,1.559599757194519,-0.11860323697328568
1.0326056480407715,1.556182861328125,-0.11407334357500076
1.0406584739685059,1.5464537143707275,-0.1090850830078125
1.0579428672790527,1.5492174625396729,-0.10474147647619247
2.5571787357330322,3.6903860569000244,-0.2382124364376068
2.576737642288208,3.6679928302764893,-0.22565369307994843
2.611337900161743,3.6634063720703125,-0.21340207755565643
2.5942788124084473,3.589927911758423,-0.19720907509326935
2.6455414295196533,3.6112477779388428,-0.18600890040397644
2.688981533050537,3.6187074184417725,-0.17303013801574707
2.6483213901519775,3.7229843139648438,0.3957328200340271
2.6261281967163086,3.7468314170837402,0.40895354747772217
2.578688621520996,3.7405309677124023,0.41856563091278076
1.0501216650009155,1.547936201095581,0.1772749423980713
1.0520507097244263,1.574233055114746,0.1840958148241043
1.04399836063385,1.5883564949035645,0.18943987786769867
1.0315653085708618,1.5959093570709229,0.19401885569095612
1.016030192375183,1.5961322784423828,0.1973726600408554
1.003960371017456,1.6032426357269287,0.2014649659395218
0.9996628165245056,1.6236798763275146,0.20722463726997375
0.9878537058830261,1.630398154258728,0.21107147634029388
0.968049943447113,1.62368905544281,0.21313084661960602
0.9595345854759216,1.637257695198059,0.21766507625579834
1.351755142211914,2.3467211723327637,0.3159124255180359
1.8265777826309204,3.2229487895965576,0.43887677788734436
1.775094747543335,3.1842494010925293,0.43847331404685974
1.7635109424591064,3.2207694053649902,0.44821155071258545
1.775740385055542,3.3014557361602783,0.46417921781539917
1.7521523237228394,3.313173532485962,0.47028663754463196
2.3794772624969482,4.576037883758545,0.6556258201599121
2.3416943550109863,4.585638523101807,0.66263747215271
2.3101108074188232,4.609121322631836,0.671763002872467
2.27302622795105,4.617756366729736,0.6785080432891846
2.2403743267059326,4.632580757141113,0.6860150694847107
2.220111608505249,4.675541877746582,0.6975319981575012
2.178675651550293,4.676847457885742,0.7025966644287109
2.146989107131958,4.698912620544434,0.7108117938041687
2.1097464561462402,4.706218242645264,0.7166950106620789
2.0766079425811768,4.719905376434326,0.7234411835670471
2.036223888397217,4.719631195068359,0.7277173399925232
1.7558972835540771,4.152982711791992,0.6439995765686035
1.7252250909805298,4.164958953857422,0.649534285068512
1.695194125175476,4.176427841186523,0.654937744140625
1.668630838394165,4.194602966308594,0.661349356174469
1.6355040073394775,4.198540687561035,0.6652523875236511
1.607405662536621,4.2168755531311035,0.6712790727615356
1.5791646242141724,4.235001564025879,0.6773152351379395
1.5510663986206055,4.2528228759765625,0.6833164691925049
1.518615961074829,4.2555646896362305,0.6868259310722351
1.4883379936218262,4.265514373779297,0.6913707256317139
1.462253451347351,4.290154457092285,0.698004961013794
1.4334074258804321,4.307319641113281,0.7034769654273987
1.4065577983856201,4.331692218780518,0.7101959586143494
1.3761812448501587,4.340759754180908,0.7143290042877197
1.3468860387802124,4.353297710418701,0.7190703749656677
1.3177841901779175,4.369635105133057,0.7240431308746338
1.2883378267288208,4.385840892791748,0.7289432883262634
1.2566044330596924,4.394427299499512,0.7326188683509827
1.2332175970077515,4.432468891143799,0.7412492036819458
1.198166012763977,4.425495624542236,0.7423312664031982
1.171027660369873,4.448113918304443,0.7483530044555664
1.13904869556427,4.455888748168945,0.7514511346817017
1.112585425376892,4.485879898071289,0.7583437561988831
1.0797786712646484,4.493353843688965,0.7615112662315369
1.0482406616210938,4.500300407409668,0.7645513415336609
1.0201915502548218,4.522029876708984,0.7701382040977478
0.9909555912017822,4.539861679077148,0.7749807238578796
0.9569491147994995,4.538845539093018,0.7762184143066406
0.7758498787879944,3.8166399002075195,0.6539475917816162
0.7530461549758911,3.8443949222564697,0.6599592566490173
0.7261397838592529,3.8492090702056885,0.6620480418205261
0.8361166715621948,4.607910633087158,0.7940831184387207
0.8065087199211121,4.6284098625183105,0.7990921139717102
0.7730397582054138,4.633772850036621,0.8010871410369873
0.742567777633667,4.654012203216553,0.8056789636611938
0.7135863304138184,4.685466766357422,0.8122628927230835
0.6807862520217896,4.690006732940674,0.814211905002594
0.6491637229919434,4.701923370361328,0.8174775242805481
0.6188777089118958,4.728960037231445,0.8234180212020874
0.5855008959770203,4.73296594619751,0.8248090744018555
0.5548243522644043,4.759668827056885,0.8301987648010254
0.5237477421760559,4.786175727844238,0.8356040120124817
0.49057769775390625,4.793313980102539,0.8376685380935669
0.4579100012779236,4.8040337562561035,0.8403966426849365
0.42453300952911377,4.814577102661133,0.8431532979011536
0.39263710379600525,4.840280532836914,0.8481394052505493
0.36090192198753357,4.873473167419434,0.8543460965156555
0.32717642188072205,4.883420944213867,0.8565229773521423
0.2929227948188782,4.885449409484863,0.8573530316352844
0.2593463361263275,4.906464576721191,0.8615645170211792
0.22626568377017975,4.931065559387207,0.8664430975914001
0.19244110584259033,4.94780158996582,0.8697195649147034
0.15861473977565765,4.972056865692139,0.8740073442459106
0.12426729500293732,4.988386154174805,0.8769450187683105
0.08887983113527298,4.992948055267334,0.8778592944145203
0.054367076605558395,5.016487121582031,0.8821514844894409
0.019527290016412735,5.024396896362305,0.8837387561798096
-0.015570024959743023,5.062846660614014,0.8907128572463989
-0.05082476884126663,5.070374965667725,0.891696035861969
-0.08687359094619751,5.08149528503418,0.8933477401733398
-0.12236494570970535,5.088526725769043,0.8943284153938293
-0.15801505744457245,5.095308303833008,0.8953073620796204
-0.19429247081279755,5.117220878601074,0.898987352848053
-0.23053662478923798,5.131187438964844,0.9013137817382812
-0.26826992630958557,5.171868801116943,0.907963216304779
-0.30449527502059937,5.1661858558654785,0.9062753319740295
-0.2858348488807678,4.338637828826904,0.760570764541626
-0.31360065937042236,4.30600118637085,0.7543568015098572
-0.34356826543807983,4.303859710693359,0.7535221576690674
-0.3754706382751465,4.324516773223877,0.7567138075828552
-0.39953842759132385,4.252963066101074,0.7436599731445312
-0.42456695437431335,4.208220481872559,0.734984278678894
-0.4482186734676361,4.155674934387207,0.7249975800514221
-0.4715597629547119,4.106828212738037,0.7157100439071655
-0.49493831396102905,4.061649322509766,0.7071061730384827
-0.5207502841949463,4.035359859466553,0.7018224596977234
-0.5415316224098206,3.978459358215332,0.6912751197814941
-0.5628734230995178,3.933014154434204,0.6823103427886963
-0.5829793810844421,3.8836658000946045,0.672696053981781
-0.6042696833610535,3.84562611579895,0.6650921702384949
-0.6225214600563049,3.7883851528167725,0.6542004346847534
-0.6417086720466614,3.742497205734253,0.6453347206115723
-0.6636738181114197,3.715477705001831,0.6397697329521179
-0.683573305606842,3.6808626651763916,0.6326425075531006
-0.7087079882621765,3.676457166671753,0.6305993795394897
-0.7240384221076965,3.6227622032165527,0.6201463341712952
-0.739905059337616,3.5727055072784424,0.6103551387786865
-0.7526488304138184,3.5113017559051514,0.5986911058425903
-0.7737451195716858,3.491267442703247,0.594133734703064
-0.7917494773864746,3.4599297046661377,0.5874942541122437
-0.8099744915962219,3.4323501586914062,0.581337571144104
-0.8319313526153564,3.419562578201294,0.5776996612548828
-0.8458648920059204,3.37680721282959,0.5690693855285645
-0.8645894527435303,3.352553606033325,0.5635755658149719
-0.8819930553436279,3.324479818344116,0.5574859976768494
-0.89676833152771,3.2889750003814697,0.5500216484069824
-0.9132005572319031,3.260875940322876,0.5436078906059265
-0.9331876039505005,3.2476255893707275,0.5397379398345947
-0.9454357028007507,3.2083382606506348,0.5315839648246765
-0.9678506851196289,3.202091932296753,0.5289008617401123
-0.9765182137489319,3.151456117630005,0.5189341306686401
-0.9903358221054077,3.119281768798828,0.5118328928947449
-1.0066628456115723,3.0983023643493652,0.5064943432807922
-1.0227504968643188,3.0772387981414795,0.5011830925941467
-1.0388087034225464,3.0560262203216553,0.49586978554725647
-1.0462238788604736,3.009045124053955,0.48639005422592163
-1.0672621726989746,3.0021252632141113,0.4834345579147339
-1.0932050943374634,3.0097429752349854,0.48250889778137207
-1.1000447273254395,2.966601610183716,0.4734721779823303
-1.1172640323638916,2.9524106979370117,0.4691114127635956
-1.1349254846572876,2.937906265258789,0.46467146277427673
-1.1342012882232666,2.876479387283325,0.45285680890083313
-1.1428170204162598,2.8402953147888184,0.44495052099227905
-1.1530667543411255,2.8116374015808105,0.4381215274333954
-1.1376100778579712,2.7223145961761475,0.4219481647014618
-1.142482876777649,2.683007001876831,0.41360777616500854
-1.1458839178085327,2.639972686767578,0.40470123291015625
-1.167786955833435,2.639356851577759,0.40228036046028137
-1.1885979175567627,2.6390950679779053,0.39970672130584717
-1.190126657485962,2.596442937850952,0.3907545208930969
-1.2337911128997803,2.645031690597534,0.39551493525505066
-1.2490339279174805,2.629875898361206,0.39060696959495544
-1.2779217958450317,2.6423771381378174,0.38975581526756287
-1.3074482679367065,2.658740758895874,0.3892330527305603
-1.278351902961731,2.5570294857025146,0.3715180456638336
-1.2903332710266113,2.538557291030884,0.3659873604774475
-1.30112624168396,2.516209125518799,0.35981184244155884
-1.30781888961792,2.487093448638916,0.3526707589626312
-1.3209552764892578,2.4719748497009277,0.34731778502464294
-1.3336595296859741,2.4569268226623535,0.34206295013427734
-1.3430938720703125,2.434699058532715,0.335730642080307
-1.352635145187378,2.4122602939605713,0.32935330271720886
-1.3669068813323975,2.4003641605377197,0.3242984414100647
-1.3751968145370483,2.3783440589904785,0.3177984058856964
-1.383283257484436,2.356288433074951,0.3113403022289276
-1.403852939605713,2.353781223297119,0.30731213092803955
-1.4198276996612549,2.344825267791748,0.30234551429748535
-1.4432454109191895,2.349381446838379,0.29900699853897095
-1.4179906845092773,2.274312973022461,0.28550347685813904
-1.4590559005737305,2.3042361736297607,0.28503313660621643
-1.4347201585769653,2.2328579425811768,0.2719951570034027
-1.4810945987701416,2.2729387283325195,0.27249133586883545
-1.4599804878234863,2.208420753479004,0.26031893491744995
-1.4844857454299927,2.211472272872925,0.2559250593185425
-1.4987136125564575,2.2025301456451416,0.2500467300415039
-1.4818874597549438,2.1487059593200684,0.2391739785671234
-1.4926913976669312,2.1324284076690674,0.2320767641067505
-1.5023772716522217,2.1167681217193604,0.22499626874923706
-1.5093132257461548,2.0981431007385254,0.21750494837760925
-1.519382119178772,2.081944704055786,0.20989879965782166
-1.5283266305923462,2.0664069652557373,0.20225414633750916
-1.4960784912109375,2.0963633060455322,-0.11721101403236389
-1.509031057357788,2.1488800048828125,-0.12762875854969025
-1.5023988485336304,2.17206072807312,-0.1360032558441162
-1.4730836153030396,2.1633141040802,-0.14222729206085205
-1.4784255027770996,2.2062723636627197,-0.15182869136333466
-1.4800353050231934,2.2421746253967285,-0.1606721580028534
-1.4650245904922485,2.256134510040283,-0.16813966631889343
-1.4650956392288208,2.2926530838012695,-0.1771431863307953
-1.4363632202148438,2.282653331756592,-0.18231801688671112
-1.4274094104766846,2.306069850921631,-0.19011878967285156
-1.4143911600112915,2.322650194168091,-0.1973225474357605
-1.4016903638839722,2.338867425918579,-0.20437273383140564
-1.40019953250885,2.3754329681396484,-0.21316781640052795
-1.366961121559143,2.358194589614868,-0.21712003648281097
-1.3541383743286133,2.3739850521087646,-0.2238234281539917
-1.3407282829284668,2.389936685562134,-0.23054297268390656
-1.3302689790725708,2.4129626750946045,-0.23806828260421753
-1.316649079322815,2.4286861419677734,-0.24469119310379028
-1.281079888343811,2.4030444622039795,-0.247017502784729
-1.2706129550933838,2.425577163696289,-0.2542004883289337
-1.2279249429702759,2.385791063308716,-0.2547758221626282
-1.2178053855895996,2.4078187942504883,-0.26180365681648254
-1.210864782333374,2.436793804168701,-0.26953595876693726
-1.1930584907531738,2.444955825805664,-0.27497026324272156
-1.1821908950805664,2.466869592666626,-0.28191983699798584
-1.1796571016311646,2.506171703338623,-0.2908726930618286
-1.1843714714050293,2.563357353210449,-0.3019537329673767
-1.1782490015029907,2.5996787548065186,-0.31077203154563904
-1.153393030166626,2.59317684173584,-0.31435510516166687
-1.1521753072738647,2.6397366523742676,-0.32438066601753235
-1.1239537000656128,2.6259279251098633,-0.32688674330711365
-1.1034516096115112,2.6297619342803955,-0.33155152201652527
-1.1006923913955688,2.676469326019287,-0.3416875898838043
-1.084783673286438,2.690675735473633,-0.34765228629112244
-1.0740257501602173,2.719383478164673,-0.3553699851036072
-1.116026759147644,2.8854713439941406,-0.3813115358352661
-1.202637791633606,3.1753621101379395,-0.4242243468761444
-1.2067698240280151,3.25581431388855,-0.4397502541542053
-1.2111704349517822,3.340111255645752,-0.4557095468044281
-1.1962649822235107,3.3734934329986572,-0.4648435711860657
-1.179923176765442,3.403074026107788,-0.47349420189857483
-1.1584750413894653,3.4178338050842285,-0.48010268807411194
-1.150773048400879,3.4768002033233643,-0.4928656816482544
-1.125952124595642,3.484154462814331,-0.49822917580604553
-1.1163462400436401,3.5392649173736572,-0.51048344373703
-1.0937625169754028,3.5536322593688965,-0.5169084668159485
-1.0786688327789307,3.5938501358032227,-0.5269808769226074
-1.0325026512145996,3.530146598815918,-0.5216009616851807
-0.9974622130393982,3.5032923221588135,-0.5216430425643921
-0.9625148177146912,3.4722306728363037,-0.5208954215049744
-0.9250103831291199,3.4296841621398926,-0.5182676911354065
-0.8869608640670776,3.3831608295440674,-0.5146383047103882
-0.852502703666687,3.3475160598754883,-0.5125918388366699
-0.8174883127212524,3.307853937149048,-0.5098943710327148
-0.7790544033050537,3.2489969730377197,-0.5040843486785889
-0.7492056488990784,3.2237281799316406,-0.503061056137085
-0.7188516855239868,3.194460153579712,-0.5013313889503479
-0.683295726776123,3.138509750366211,-0.49534276127815247
-0.6586015820503235,3.1313960552215576,-0.49705973267555237
-0.6244019865989685,3.074895143508911,-0.49064090847969055
-0.5976050496101379,3.0522217750549316,-0.48935574293136597
-0.5761607885360718,3.055870294570923,-0.4922946095466614
-0.5451293587684631,3.006213903427124,-0.4866213798522949
-0.5170686841011047,2.9715545177459717,-0.4833430051803589
-0.4929942190647125,2.955702304840088,-0.4826522469520569
-0.4697527289390564,2.943474054336548,-0.48255714774131775
-0.4468218982219696,2.9310529232025146,-0.4824238717556
-0.4230697751045227,2.910816192626953,-0.48099443316459656
-0.39971888065338135,2.8943119049072266,-0.47993171215057373
-0.37747904658317566,2.8814358711242676,-0.47927436232566833
-0.3544684052467346,2.860746383666992,-0.4773227572441101
-0.33185458183288574,2.839871883392334,-0.4753327965736389
-0.3120650351047516,2.8418173789978027,-0.4771058261394501
-0.29062557220458984,2.828364372253418,-0.4759204387664795
-0.26869165897369385,2.810945987701416,-0.4740963578224182
-0.25081270933151245,2.8317017555236816,-0.4787120223045349
-0.2295483499765396,2.8139493465423584,-0.47683951258659363
-0.21051938831806183,2.8229799270629883,-0.4792129099369049
-0.18876446783542633,2.793482542037964,-0.47490718960762024
-0.17082388699054718,2.8253445625305176,-0.4810689091682434
-0.149531751871109,2.7955448627471924,-0.47674086689949036
-0.13011199235916138,2.7963743209838867,-0.4775712192058563
-0.1106685996055603,2.7971346378326416,-0.47802016139030457
-0.0914498120546341,2.80545711517334,-0.4797859191894531
-0.07198505848646164,2.8213515281677246,-0.4828793704509735
-0.052326660603284836,2.821707010269165,-0.4833330512046814
-0.032750990241765976,2.829678773880005,-0.48479291796684265
-0.013046321459114552,2.833691358566284,-0.4854353368282318
0.006699441932141781,2.841416835784912,-0.4867372214794159
0.026960980147123337,2.856701374053955,-0.48935776948928833
0.04732923582196236,2.887258291244507,-0.49453800916671753
0.06793931126594543,2.9100406169891357,-0.49799174070358276
0.0884019136428833,2.917281150817871,-0.4988052248954773
0.10939860343933105,2.9359216690063477,-0.5015882253646851
0.12657563388347626,2.8620858192443848,-0.4886031448841095
0.15057246387004852,2.934326648712158,-0.5002490282058716
0.17317470908164978,2.9718244075775146,-0.5058055520057678
0.19582678377628326,3.001464366912842,-0.5100288987159729
0.21920034289360046,3.0347747802734375,-0.5148820877075195
0.24212877452373505,3.056399345397949,-0.5176964402198792
0.26635825634002686,3.085576057434082,-0.5213419795036316
0.29028719663619995,3.1107606887817383,-0.524336040019989
0.31421855092048645,3.131927967071533,-0.5266568660736084
0.3409755527973175,3.175896167755127,-0.5328074097633362
0.3678891360759735,3.215877056121826,-0.5379531979560852
0.39666885137557983,3.263286590576172,-0.5441030263900757
0.42427316308021545,3.29903244972229,-0.5483168363571167
0.45239362120628357,3.334556818008423,-0.5524803400039673
0.4826769530773163,3.381315231323242,-0.5584079623222351
0.5129636526107788,3.4240922927856445,-0.5632137656211853
0.5413084626197815,3.4475128650665283,-0.564774751663208
0.5753056406974792,3.5050055980682373,-0.5719183683395386
0.6082313060760498,3.5507888793945312,-0.5771026611328125
0.6383567452430725,3.5773727893829346,-0.5787955522537231
0.6603946685791016,3.5582261085510254,-0.5729400515556335
0.7063001394271851,3.663975954055786,-0.5871501564979553
0.7232426404953003,3.614023208618164,-0.5763260722160339
0.8189689517021179,3.949619770050049,-0.6267159581184387
0.869859516620636,4.053989410400391,-0.6396570801734924
0.9256135821342468,4.172943115234375,-0.6547176837921143
0.9624951481819153,4.2009782791137695,-0.6553882956504822
1.0128170251846313,4.281211853027344,-0.6640569567680359
1.0599631071090698,4.346174240112305,-0.6698771119117737
1.0938907861709595,4.354520797729492,-0.6668135523796082
1.1203111410140991,4.332657337188721,-0.6591464281082153
1.1585673093795776,4.355409622192383,-0.6582604050636292
1.1802656650543213,4.314382076263428,-0.6474880576133728
1.2059727907180786,4.292082786560059,-0.6393958926200867
1.2357122898101807,4.28448486328125,-0.6335410475730896
1.2503265142440796,4.224668502807617,-0.6200066208839417
1.0731436014175415,3.5354790687561035,-0.5149251818656921
1.0957330465316772,3.521214008331299,-0.5085168480873108
1.115373969078064,3.4995501041412354,-0.5011700391769409
1.139804720878601,3.4924206733703613,-0.49590566754341125
1.1643186807632446,3.485074281692505,-0.4906120002269745
1.1859796047210693,3.4703524112701416,-0.48407310247421265
1.208705186843872,3.4591760635375977,-0.4779825210571289
1.2305368185043335,3.4440276622772217,-0.47128409147262573
1.2546923160552979,3.4360711574554443,-0.46563687920570374
1.2758631706237793,3.420774459838867,-0.45888611674308777
1.3021671772003174,3.419930934906006,-0.4539703130722046
1.3229734897613525,3.4043991565704346,-0.4471111595630646
1.3473228216171265,3.3956351280212402,-0.44100141525268555
1.3680812120437622,3.3797426223754883,-0.43400508165359497
1.3972386121749878,3.385380268096924,-0.42962801456451416
1.4175297021865845,3.3693032264709473,-0.4224993884563446
1.467232346534729,3.4206671714782715,-0.4236547648906708
1.4915390014648438,3.4109551906585693,-0.4170311689376831
1.527538776397705,3.429823875427246,-0.41383445262908936
1.54463791847229,3.405909538269043,-0.40546664595603943
1.562063455581665,3.381653070449829,-0.3969850540161133
1.5856568813323975,3.371452808380127,-0.39015117287635803
1.5956693887710571,3.333103656768799,-0.3798980414867401
1.6354970932006836,3.3578097820281982,-0.3769291341304779
1.6228294372558594,3.273876190185547,-0.3616983890533447
2.275707721710205,4.513081073760986,-0.4905172288417816
2.3063454627990723,4.498557090759277,-0.4807385504245758
1.7276679277420044,3.3144845962524414,-0.34809115529060364
1.7168081998825073,3.2374837398529053,-0.3337192237377167
1.735392689704895,3.2194783687591553,-0.3256319463253021
1.717937707901001,3.1366968154907227,-0.3111291229724884
1.7282496690750122,3.105051040649414,-0.30176952481269836
1.7615669965744019,3.1138556003570557,-0.29624781012535095
1.3250197172164917,2.3057262897491455,-0.21449032425880432
1.2953647375106812,2.219911813735962,-0.2018682062625885
0.9494635462760925,1.6014723777770996,-0.1421058028936386
0.9604421854019165,1.5952719449996948,-0.13801205158233643
0.973138689994812,1.5924773216247559,-0.134196937084198
0.9843058586120605,1.5859577655792236,-0.12988999485969543
0.9932518601417542,1.576114296913147,-0.12531404197216034
1.0058006048202515,1.5731017589569092,-0.12127646058797836
1.0143394470214844,1.5632981061935425,-0.1166348084807396
1.027453899383545,1.5597167015075684,-0.11231160163879395
1.0422210693359375,1.5596052408218384,-0.10814440250396729
1.0483342409133911,1.5464047193527222,-0.1030496135354042
2.5184264183044434,3.66040301322937,-0.23351013660430908
2.564505100250244,3.676654815673828,-0.2240336537361145
2.5938289165496826,3.6663053035736084,-0.21240688860416412
2.596421480178833,3.617253303527832,-0.19799348711967468
2.6058287620544434,3.5822184085845947,-0.18471978604793549
2.6677980422973633,3.6148974895477295,-0.17386367917060852
2.627916097640991,3.7203121185302734,0.3756217360496521
2.595453977584839,3.7323319911956787,0.386943519115448
2.570128917694092,3.7579991817474365,0.39954301714897156
1.0626722574234009,1.577968716621399,0.171579048037529
1.0422544479370117,1.5724122524261475,0.17456819117069244
1.0427052974700928,1.5995475053787231,0.18115587532520294
1.0058749914169312,1.5673348903656006,0.18074636161327362
1.0276710987091064,1.626733422279358,0.1908266544342041
0.99845290184021,1.60786771774292,0.19174161553382874
0.9823245406150818,1.6082162857055664,0.19475065171718597
0.9829431772232056,1.634659767150879,0.20078438520431519
0.9628018736839294,1.628141164779663,0.2026830017566681
1.3543025255203247,2.329958915710449,0.2938346564769745
1.3600937128067017,2.3797779083251953,0.3038630187511444
1.8055466413497925,3.210923433303833,0.4147910475730896
1.7532914876937866,3.172600507736206,0.4143337309360504
1.786645531654358,3.290684223175049,0.4343511760234833
1.7662527561187744,3.309671640396118,0.44130563735961914
2.3946759700775146,4.564903736114502,0.6147152185440063
2.353912353515625,4.5675554275512695,0.6206834316253662
2.323033094406128,4.590977191925049,0.6293531060218811
2.29245662689209,4.61393404006958,0.6379269361495972
2.2667648792266846,4.642865180969238,0.6471144556999207
2.229719400405884,4.651152610778809,0.6534551382064819
2.195136785507202,4.666604518890381,0.660344123840332
2.1636898517608643,4.688825607299805,0.6682344675064087
2.1298885345458984,4.7033209800720215,0.6749234199523926
2.0967586040496826,4.7172441482543945,0.6814592480659485
2.059638023376465,4.724201679229736,0.6867946982383728
2.0073609352111816,4.699467658996582,0.6873274445533752
1.73652184009552,4.149091720581055,0.6104226112365723
1.7069246768951416,4.160592079162598,0.615604043006897
1.6834005117416382,4.186095237731934,0.6228556036949158
1.650510311126709,4.190120220184326,0.6267203688621521
1.6192131042480469,4.201592445373535,0.6315411329269409
1.5856211185455322,4.205404758453369,0.6351887583732605
1.5582458972930908,4.223174095153809,0.6408944725990295
1.5365477800369263,4.255104064941406,0.6487418413162231
1.5089927911758423,4.2724761962890625,0.654306173324585
1.474827527999878,4.275564193725586,0.6574158668518066
1.448644995689392,4.3001837730407715,0.6638308763504028
1.4128165245056152,4.295180320739746,0.6656825542449951
1.3898324966430664,4.326409816741943,0.6731126308441162
1.3641246557235718,4.350157260894775,0.6794371604919434
1.332297444343567,4.359426498413086,0.6831674575805664
1.3018893003463745,4.372073650360107,0.68732750415802
1.2723984718322754,4.388226509094238,0.6920832395553589
1.245550274848938,4.411420822143555,0.6979464888572693
1.2146567106246948,4.419475078582764,0.7014338970184326
1.183616280555725,4.4273481369018555,0.7048438191413879
1.1570230722427368,4.457813739776611,0.7115148305892944
1.12494695186615,4.4655280113220215,0.7145698666572571
1.0964834690093994,4.488007068634033,0.7200306057929993
1.0686416625976562,4.510106086730957,0.7254273295402527
1.0336822271347046,4.501930236816406,0.7259872555732727
1.0048158168792725,4.523812770843506,0.731270432472229
0.9741215705871582,4.53801155090332,0.734980046749115
0.9323161840438843,4.499113082885742,0.7301154732704163
0.7671607732772827,3.8394882678985596,0.6243247389793396
0.738936185836792,3.8368301391601562,0.625142514705658
0.84584641456604,4.565979480743408,0.7454943656921387
0.8219118714332581,4.616995334625244,0.755190372467041
0.7890922427177429,4.622398376464844,0.7571433782577515
0.759968638420105,4.650400638580322,0.7628416419029236
0.7281575202941895,4.662971019744873,0.7660527229309082
0.6967740058898926,4.679136276245117,0.7698975205421448
0.6652637124061584,4.691189765930176,0.7730867266654968
0.6334981322288513,4.70306921005249,0.776139497756958
0.6022475361824036,4.722485065460205,0.7800768613815308
0.5707544684410095,4.741691589355469,0.7840232253074646
0.5398873686790466,4.768344879150391,0.7892465591430664
0.5075979232788086,4.787156581878662,0.7932245135307312
0.47499096393585205,4.798013210296631,0.7959102392196655
0.44259142875671387,4.8124918937683105,0.7992028594017029
0.41005590558052063,4.830700874328613,0.8026158213615417
0.3772861957550049,4.848689079284668,0.8060341477394104
0.34260809421539307,4.851115703582764,0.8069154024124146
0.3106198310852051,4.884016036987305,0.8128982782363892
0.27666175365448,4.885913848876953,0.8137604594230652
0.2439759075641632,4.914517402648926,0.8191140294075012
0.21033652126789093,4.931427001953125,0.8221101760864258
0.17577941715717316,4.948149681091309,0.8249925971031189
0.14143452048301697,4.956907749176025,0.8265865445137024
0.10730785876512527,4.980836391448975,0.8307515382766724
0.0730191096663475,5.000672340393066,0.8342747092247009
0.03843410685658455,5.0241241455078125,0.8384436964988708
0.002898329868912697,5.031967639923096,0.8397813439369202
-0.03228623792529106,5.062732696533203,0.8446652293205261
-0.06769303977489471,5.077839374542236,0.8469754457473755
-0.10315518826246262,5.084994792938232,0.8479992151260376
-0.13861516118049622,5.088049411773682,0.8483798503875732
-0.17457424104213715,5.102408409118652,0.8506859540939331
-0.2109716534614563,5.10880184173584,0.8516343235969543
-0.24751639366149902,5.1304497718811035,0.8546304106712341
-0.28580111265182495,5.178772449493408,0.8621036410331726
-0.27271875739097595,4.388365268707275,0.7300710082054138
-0.29863661527633667,4.321134090423584,0.7184728980064392
-0.3286384344100952,4.311348915100098,0.7164602279663086
-0.3586341440677643,4.309077262878418,0.7157385349273682
-0.3876747488975525,4.299005031585693,0.7133633494377136
-0.4132305979728699,4.2542314529418945,0.7051601409912109
-0.43534785509109497,4.18247652053833,0.6925389766693115
-0.4592106342315674,4.129708766937256,0.6831011176109314
-0.4833987355232239,4.0883283615112305,0.675602376461029
-0.506554365158081,4.0429840087890625,0.6674937605857849
-0.5324745774269104,4.024322986602783,0.6636099815368652
-0.5510615110397339,3.955918788909912,0.6513314843177795
-0.5719889402389526,3.9064550399780273,0.6422133445739746
-0.5935900807380676,3.8683807849884033,0.6350330114364624
-0.6155538558959961,3.83396053314209,0.6284895539283752
-0.6345583200454712,3.7841992378234863,0.6194777488708496
-0.6547852754592896,3.745786666870117,0.6122681498527527
-0.6735207438468933,3.7035818099975586,0.6041578650474548
-0.692814290523529,3.6650121212005615,0.5966743230819702
-0.7074685096740723,3.60749888420105,0.5861825346946716
-0.732506513595581,3.6028037071228027,0.5843003392219543
-0.7408957481384277,3.518636465072632,0.5695784091949463
-0.7637359499931335,3.506157636642456,0.5664742588996887
-0.7821192145347595,3.474783420562744,0.5599765777587891
-0.8022933602333069,3.454688310623169,0.5553653240203857
-0.8186707496643066,3.4194540977478027,0.5483618378639221
-0.84046870470047,3.4065632820129395,0.5449639558792114
-0.8537468910217285,3.3598170280456543,0.5361852645874023
-0.8755283355712891,3.346585512161255,0.5327425599098206
-0.8882121443748474,3.303676128387451,0.5243003964424133
-0.9085757732391357,3.290518283843994,0.5206258893013
-0.9192907810211182,3.2438008785247803,0.5116909146308899
-0.9374180436134338,3.222916841506958,0.5068496465682983
-0.9558508992195129,3.2017781734466553,0.5019692778587341
-0.9689708352088928,3.165926694869995,0.4947800934314728
-0.9857341051101685,3.144988536834717,0.48970189690589905
-1.0010467767715454,3.1202926635742188,0.48408252000808716
-1.0100740194320679,3.077157497406006,0.47565320134162903
-1.0269641876220703,3.0556960105895996,0.47054094076156616
-1.0420154333114624,3.0305943489074707,0.46493780612945557
-1.0627933740615845,3.023818016052246,0.4620184302330017
-1.0805469751358032,3.0097689628601074,0.45786046981811523
-1.0875096321105957,2.9665653705596924,0.44931718707084656
-1.0941874980926514,2.923305034637451,0.44080954790115356
-1.1205133199691772,2.930360794067383,0.4398411214351654
-1.1255285739898682,2.883263111114502,0.4308180510997772
-1.1477349996566772,2.8833208084106445,0.42857885360717773
-1.143797755241394,2.818659543991089,0.4167780578136444
-1.1597528457641602,2.804236650466919,0.41247475147247314
-1.1420724391937256,2.7072415351867676,0.3959951102733612
-1.1381057500839233,2.6462833881378174,0.38495343923568726
-1.1436221599578857,2.610605001449585,0.37748587131500244
-1.1610780954360962,2.6033775806427,0.3740956783294678
-1.1848915815353394,2.6101391315460205,0.3727196753025055
-1.20333993434906,2.602199077606201,0.3691156208515167
-1.2380833625793457,2.629251003265381,0.3704816997051239
-1.2559212446212769,2.6213040351867676,0.3667384386062622
-1.2886302471160889,2.6447737216949463,0.3672906756401062
-1.2735387086868286,2.570652961730957,0.35433879494667053
-1.3161673545837402,2.6105823516845703,0.3569721579551697
-1.3273903131484985,2.5880215167999268,0.35106661915779114
-1.310584545135498,2.5143063068389893,0.33813372254371643
-1.3163069486618042,2.485550880432129,0.3313201069831848
-1.3292485475540161,2.470388174057007,0.32633110880851746
-1.3354692459106445,2.4410862922668457,0.31936562061309814
-1.3432161808013916,2.415217876434326,0.31280019879341125
-1.3591347932815552,2.406857967376709,0.30844590067863464
-1.3672733306884766,2.3849129676818848,0.3023824691772461
-1.3838545083999634,2.3759074211120605,0.2978128492832184
-1.3887022733688354,2.3466129302978516,0.29069992899894714
-1.4043245315551758,2.3378865718841553,0.2859211266040802
-1.4034428596496582,2.3026583194732666,0.2780188024044037
-1.4438689947128296,2.3331470489501953,0.2778432369232178
-1.4643957614898682,2.3301098346710205,0.27352243661880493
-1.4586249589920044,2.2883551120758057,0.26455157995224
-1.4610788822174072,2.259650945663452,0.2571210563182831
-1.4705010652542114,2.240203857421875,0.25056299567222595
-1.4922493696212769,2.2404236793518066,0.24612584710121155
-1.5001225471496582,2.221696138381958,0.23951250314712524
-1.5061841011047363,2.199366331100464,0.2323840856552124
-1.4864835739135742,2.1379446983337402,0.22090153396129608
-1.495674967765808,2.12261700630188,0.2142922580242157
-1.505034327507019,2.1070358753204346,0.2075807750225067
-1.5176273584365845,2.09381365776062,0.2007225602865219
-1.5261776447296143,2.078552722930908,0.19358010590076447
-1.530499815940857,2.0566060543060303,0.1856018751859665
-1.4971163272857666,2.1147994995117188,-0.1174919381737709
-1.4842121601104736,2.128222703933716,-0.12489903718233109
-1.4769681692123413,2.1517770290374756,-0.1328888088464737
-1.4868053197860718,2.2012531757354736,-0.14256659150123596
-1.4840881824493408,2.2307982444763184,-0.15065249800682068
-1.4864213466644287,2.270833969116211,-0.1595807522535324
-1.4550668001174927,2.258174180984497,-0.16460983455181122
-1.4388012886047363,2.2680957317352295,-0.17105577886104584
-1.431721806526184,2.2950692176818848,-0.17891915142536163
-1.4150724411010742,2.304877519607544,-0.18518146872520447
-1.4106905460357666,2.334423780441284,-0.1929352879524231
-1.4131791591644287,2.3778347969055176,-0.20194469392299652
-1.3919011354446411,2.3808083534240723,-0.20747160911560059
-1.3631629943847656,2.3699324131011963,-0.21165822446346283
-1.3495045900344849,2.386162281036377,-0.21809610724449158
-1.3432767391204834,2.4158992767333984,-0.22581778466701508
-1.326168417930603,2.424801826477051,-0.2314523458480835
-1.3178160190582275,2.4509260654449463,-0.23873941600322723
-1.303037166595459,2.4670557975769043,-0.24516481161117554
-1.2853021621704102,2.475790023803711,-0.2506732642650604
-1.2643526792526245,2.477273464202881,-0.25534743070602417
-1.2236400842666626,2.4406559467315674,-0.25591957569122314
-1.1886624097824097,2.4140639305114746,-0.25741201639175415
-1.191545009613037,2.464022159576416,-0.2670491337776184
-1.1839661598205566,2.4929652214050293,-0.2744148075580597
-1.1772656440734863,2.5256266593933105,-0.28218913078308105
-1.1815505027770996,2.5829989910125732,-0.29284146428108215
-1.166546106338501,2.5977611541748047,-0.29864105582237244
-1.1715446710586548,2.6587328910827637,-0.30979958176612854
-1.1319576501846313,2.620330333709717,-0.30938681960105896
-1.1100939512252808,2.6206603050231934,-0.31338709592819214
-1.1020935773849487,2.6529150009155273,-0.321161150932312
-1.0890849828720093,2.6744792461395264,-0.32763463258743286
-1.07848060131073,2.7032854557037354,-0.33495745062828064
-1.0672378540039062,2.7321598529815674,-0.34242093563079834
-1.052170753479004,2.749880313873291,-0.3484143018722534
-1.0354108810424805,2.76393985748291,-0.35389965772628784
-1.054276466369629,2.87630295753479,-0.37201255559921265
-1.0690075159072876,2.981708526611328,-0.38950085639953613
-1.16055166721344,3.3105461597442627,-0.4367307424545288
-1.1786922216415405,3.4389407634735107,-0.4579569697380066
-1.149214267730713,3.431882858276367,-0.4610680341720581
-1.1391878128051758,3.4834887981414795,-0.4721144735813141
-1.1205521821975708,3.509176731109619,-0.4796934723854065
-1.1046617031097412,3.5459675788879395,-0.4889317750930786
-1.1007682085037231,3.623476982116699,-0.5034989714622498
-1.068373441696167,3.608262300491333,-0.505254328250885
-1.0471974611282349,3.6299078464508057,-0.5121553540229797
-1.039571762084961,3.6998088359832764,-0.52594393491745
-1.0175305604934692,3.7213244438171387,-0.5326817631721497
-0.9797772169113159,3.6867668628692627,-0.5313379764556885
-0.9605188965797424,3.7191624641418457,-0.5395821332931519
-0.922231912612915,3.676380157470703,-0.5368971824645996
-0.8699045777320862,3.573176622390747,-0.5251074433326721
-0.8428829312324524,3.571139097213745,-0.527820348739624
-0.8146557211875916,3.565213918685913,-0.5300192832946777
-0.7846596837043762,3.5476245880126953,-0.5304084420204163
-0.751743495464325,3.5146729946136475,-0.5284720063209534
-0.7183597683906555,3.4777584075927734,-0.5254837870597839
-0.6779729127883911,3.4026730060577393,-0.5166406035423279
-0.6536804437637329,3.406935930252075,-0.5198433995246887
-0.6229066848754883,3.3729469776153564,-0.5171483159065247
-0.5952970385551453,3.353956937789917,-0.5165013074874878
-0.5646738409996033,3.3157613277435303,-0.5126519203186035
-0.5389398336410522,3.3039915561676025,-0.5128805637359619
-0.5118729472160339,3.2844436168670654,-0.511933445930481
-0.4866293668746948,3.272270917892456,-0.5120921730995178
-0.45879650115966797,3.240880250930786,-0.508779764175415
-0.4329451322555542,3.2207460403442383,-0.5072329044342041
-0.40750017762184143,3.200401544570923,-0.5056473016738892
-0.3861221671104431,3.2105047702789307,-0.5088837146759033
-0.3624688386917114,3.205207109451294,-0.5094801783561707
-0.33724498748779297,3.180555582046509,-0.5067511200904846
-0.31501781940460205,3.182588815689087,-0.508289635181427
-0.29073476791381836,3.1614115238189697,-0.5061329007148743
-0.2700017988681793,3.178490400314331,-0.5101239085197449
-0.24445129930973053,3.1416995525360107,-0.5050158500671387
-0.2225038856267929,3.1431639194488525,-0.5060498118400574
-0.20010678470134735,3.1367743015289307,-0.5058401226997375
-0.1800469011068344,3.1687254905700684,-0.5118421316146851
-0.15761698782444,3.162065029144287,-0.5114197134971619
-0.13423371315002441,3.1398956775665283,-0.5082388520240784
-0.1129227876663208,3.1560795307159424,-0.5112833380699158
-0.0909738764166832,3.1566994190216064,-0.5118327140808105
-0.06986457854509354,3.1957156658172607,-0.5186381936073303
-0.047653455287218094,3.196106195449829,-0.5187477469444275
-0.024971334263682365,3.188643455505371,-0.517551064491272
-0.0027632280252873898,3.1655964851379395,-0.5138496160507202
0.019568748772144318,3.2156543731689453,-0.5220403671264648
0.04184079170227051,3.2077479362487793,-0.5206762552261353
0.06446275115013123,3.2228715419769287,-0.5227327942848206
0.0877128466963768,3.253253936767578,-0.5272840261459351
0.11191153526306152,3.2873106002807617,-0.532443106174469
0.13477838039398193,3.2865264415740967,-0.5319873094558716
0.15946786105632782,3.3241660594940186,-0.5373660326004028
0.1838352531194687,3.346238613128662,-0.5401250720024109
0.20804044604301453,3.3604345321655273,-0.5416296720504761
0.2341814488172531,3.3936703205108643,-0.5462047457695007
0.25953495502471924,3.4152133464813232,-0.548803985118866
0.2873714864253998,3.4635469913482666,-0.5553014278411865
0.31208929419517517,3.46940016746521,-0.5549936890602112
0.3406805098056793,3.5134706497192383,-0.560804545879364
0.3691243827342987,3.545762777328491,-0.5647135972976685
0.39714211225509644,3.5741007328033447,-0.567655622959137
0.42645347118377686,3.609917402267456,-0.5716077089309692
0.45678865909576416,3.64932918548584,-0.5761163234710693
0.4978691637516022,3.7650163173675537,-0.5926145911216736
0.5357574820518494,3.842043161392212,-0.6028493642807007
0.5696663856506348,3.888333797454834,-0.6077739000320435
0.6095485687255859,3.96868634223938,-0.6179693937301636
0.6426726579666138,3.9991161823272705,-0.6203454732894897
0.6839837431907654,4.074972152709961,-0.6297257542610168
0.7329154014587402,4.188575267791748,-0.6445108652114868
0.786013662815094,4.31307315826416,-0.660557210445404
0.8231292366981506,4.346048831939697,-0.6625505685806274
0.8549484610557556,4.348362445831299,-0.6598525643348694
0.8999359011650085,4.41482400894165,-0.6667994856834412
0.9368898272514343,4.439406394958496,-0.6668825745582581
0.9649213552474976,4.418259620666504,-0.6600476503372192
0.9956926107406616,4.4120988845825195,-0.655544638633728
1.0247379541397095,4.398172855377197,-0.6499180197715759
1.0498844385147095,4.369093418121338,-0.6417588591575623
1.0782690048217773,4.35493803024292,-0.635671079158783
1.1071107387542725,4.340452194213867,-0.6294996738433838
1.1286232471466064,4.299644947052002,-0.6196199655532837
1.0113980770111084,3.74696946144104,-0.5364445447921753
0.9897516965866089,3.569000720977783,-0.5073179006576538
1.005942940711975,3.532925605773926,-0.4985950291156769
1.0375607013702393,3.5486257076263428,-0.49711158871650696
1.060168981552124,3.5344908237457275,-0.49151328206062317
1.0823575258255005,3.5203280448913574,-0.4856509566307068
1.1090046167373657,3.5208191871643066,-0.4817788898944855
1.1262997388839722,3.491579055786133,-0.4738609194755554
1.1511882543563843,3.484131336212158,-0.46884244680404663
1.174141526222229,3.473053216934204,-0.4632796049118042
1.1905041933059692,3.4435720443725586,-0.4551653563976288
1.2220150232315063,3.4578795433044434,-0.4528607726097107
1.2436256408691406,3.442612648010254,-0.44661951065063477
1.2676352262496948,3.4345343112945557,-0.4412831962108612
1.2834632396697998,3.4045090675354004,-0.4328896403312683
1.3152546882629395,3.418004274368286,-0.43012699484825134
1.3391540050506592,3.4094159603118896,-0.4245063066482544
1.3630468845367432,3.400635004043579,-0.41885820031166077
1.6507409811019897,4.0386643409729,-0.4917638301849365
1.672976016998291,4.013543605804443,-0.48295316100120544
1.4716287851333618,3.4629733562469482,-0.4117434322834015
1.9837499856948853,4.579422950744629,-0.5378799438476562
1.521154761314392,3.4472172260284424,-0.399720162153244
1.9364733695983887,4.309216022491455,-0.4931808114051819
1.554495930671692,3.395357370376587,-0.38328221440315247
1.5783666372299194,3.3850491046905518,-0.3768490254878998
1.59817636013031,3.367861747741699,-0.3695373833179474
1.6076284646987915,3.329566478729248,-0.35997283458709717
1.6547988653182983,3.367853879928589,-0.3585633635520935
2.245983600616455,4.490629196166992,-0.4704696834087372
2.288802146911621,4.500483989715576,-0.46378785371780396
1.7100235223770142,3.307302474975586,-0.33513689041137695
1.740376591682434,3.3097333908081055,-0.329495906829834
1.7285029888153076,3.233031988143921,-0.31603947281837463
1.7428854703903198,3.20827054977417,-0.30773916840553284
1.725536584854126,3.125236988067627,-0.29388150572776794
1.760838508605957,3.137439250946045,-0.28898143768310547
1.809293270111084,3.1733205318450928,-0.2860932946205139
1.3368600606918335,2.308929443359375,-0.2036087065935135
0.9439899921417236,1.6050400733947754,-0.13826897740364075
0.9573972225189209,1.6019569635391235,-0.1345968395471573
0.9721254706382751,1.6025081872940063,-0.13125696778297424
0.9768005609512329,1.586267113685608,-0.12651728093624115
0.9900102019309998,1.5829780101776123,-0.12268662452697754
1.0006189346313477,1.576606035232544,-0.11860521882772446
1.0006754398345947,1.5537387132644653,-0.11326294392347336
1.0200979709625244,1.560035228729248,-0.10990819334983826
1.0327130556106567,1.556693434715271,-0.10583556443452835
1.0363634824752808,1.540468454360962,-0.10091041028499603
1.0669399499893188,1.5624501705169678,-0.09816990047693253
2.5482802391052246,3.678591728210449,-0.22098179161548615
2.5813710689544678,3.6751885414123535,-0.21064303815364838
2.598069190979004,3.6449153423309326,-0.19806751608848572
2.5871822834014893,3.581291675567627,-0.183890238404274
2.6504154205322266,3.6179521083831787,-0.17431972920894623
2.6933376789093018,3.62569522857666,-0.16257216036319733
2.6423070430755615,3.7130091190338135,0.3457360863685608
2.606999158859253,3.71779727935791,0.3559720516204834
2.568735122680664,3.7243359088897705,0.36607471108436584
1.0516455173492432,1.5491902828216553,0.15601184964179993
1.070825457572937,1.6015405654907227,0.1648794710636139
1.036929726600647,1.5768808126449585,0.16574934124946594
1.0416905879974365,1.6104944944381714,0.17268986999988556
1.0260741710662842,1.6108545064926147,0.1758524775505066
1.0096291303634644,1.6116228103637695,0.17893534898757935
0.993091344833374,1.6123161315917969,0.1819833368062973
0.9856676459312439,1.625570297241211,0.18621855974197388
0.9656714797019958,1.6190484762191772,0.1881735771894455
0.9729635119438171,1.659491777420044,0.19548363983631134
1.358322262763977,2.356415271759033,0.28120124340057373
1.8189220428466797,3.206804037094116,0.3873133063316345
1.7595244646072388,3.154811382293701,0.385441392660141
1.7539271116256714,3.2015535831451416,0.3955504298210144
1.7724502086639404,3.2924022674560547,0.41113898158073425
1.7491443157196045,3.304138422012329,0.4167645275592804
2.3737149238586426,4.562516689300537,0.5810593962669373
2.34287428855896,4.58619499206543,0.5894038677215576
2.3077709674835205,4.6029815673828125,0.5969900488853455
2.275334596633911,4.61819314956665,0.6039748787879944
2.242868661880493,4.633134365081787,0.6109426021575928
2.211857795715332,4.6557297706604,0.6185200810432434
2.183859348297119,4.68516206741333,0.6270487308502197
2.146507740020752,4.692988872528076,0.6326415538787842
2.116023540496826,4.714443206787109,0.6400351524353027
2.0792102813720703,4.7214789390563965,0.6452879905700684
2.04119873046875,4.728778839111328,0.6502774357795715
1.7541120052337646,4.1469221115112305,0.5737742185592651
1.7183864116668701,4.144380569458008,0.5768394470214844
1.694600224494934,4.170194625854492,0.5838638544082642
1.6648492813110352,4.1814866065979,0.5886749029159546
1.6370187997817993,4.200128078460693,0.5942792296409607
1.6034833192825317,4.20410680770874,0.5978407263755798
1.5787653923034668,4.2293477058410645,0.6043969988822937
1.5485730171203613,4.23985481262207,0.6088771224021912
1.518639087677002,4.250046730041504,0.6132025122642517
1.492823600769043,4.275001525878906,0.6193495392799377
1.4591867923736572,4.277836322784424,0.6223321557044983
1.4356592893600464,4.309682846069336,0.629552960395813
1.4072957038879395,4.326583385467529,0.6346123814582825
1.3746248483657837,4.32838249206543,0.6374427080154419
1.3412322998046875,4.3302226066589355,0.6399206519126892
1.3165916204452515,4.36150598526001,0.646704375743866
1.288294792175293,4.381521701812744,0.6518675088882446
1.259458065032959,4.397430896759033,0.656410813331604
