X,Y,Z
-0.9104032516479492,1.3806675672531128,0.18446387350559235
-0.9546658992767334,1.4263807535171509,0.18726789951324463
-2.3966188430786133,3.532470941543579,0.4554635286331177
-1.2686792612075806,1.8435328006744385,0.23310783505439758
-1.3797155618667603,1.9753577709197998,0.2445894479751587
-1.584851861000061,2.252112627029419,-0.14752253890037537
-1.4500354528427124,2.336010694503784,-0.2144332230091095
-1.410181999206543,2.3095297813415527,-0.21871477365493774
-1.3112819194793701,2.1821365356445312,-0.21271684765815735
-1.2855489253997803,2.174150228500366,-0.21783268451690674
-0.8344659805297852,1.458650827407837,-0.15381932258605957
-1.1426314115524292,2.0300755500793457,-0.21921396255493164
-1.1047340631484985,1.9971349239349365,-0.2207261621952057
-1.0548655986785889,1.9396134614944458,-0.2191096991300583
-1.0209355354309082,1.9087313413619995,-0.2201346606016159
-0.9781849384307861,1.8604274988174438,-0.21890930831432343
-0.937755286693573,1.8151928186416626,-0.2177853286266327
-0.9210165739059448,1.814446210861206,-0.22183409333229065
-0.8786953687667847,1.761275291442871,-0.2192261815071106
-0.8333956003189087,1.7008380889892578,-0.21538513898849487
-0.826012134552002,1.7168058156967163,-0.2211012989282608
-0.785639762878418,1.6624435186386108,-0.2175663262605667
-0.7672585844993591,1.6533801555633545,-0.21980561316013336
-0.7469632625579834,1.6408263444900513,-0.2215089648962021
-0.7160999178886414,1.6031843423843384,-0.2196398377418518
-0.69852614402771,1.593492865562439,-0.22142434120178223
-0.6734074354171753,1.5658717155456543,-0.22061187028884888
-0.6590728759765625,1.5630522966384888,-0.2231535166501999
-0.6476461887359619,1.567307472229004,-0.22673548758029938
-0.6162238121032715,1.5211098194122314,-0.22283950448036194
-0.5982687473297119,1.5069743394851685,-0.22349746525287628
-0.5846146941184998,1.5035476684570312,-0.22562311589717865
-0.5628364086151123,1.4782967567443848,-0.2244091033935547
-0.5441373586654663,1.4600750207901,-0.22418810427188873
-0.524537980556488,1.4380013942718506,-0.2232360988855362
-0.5038712620735168,1.4121495485305786,-0.22150932252407074
-0.49888113141059875,1.4298588037490845,-0.2266010046005249
-0.4787854254245758,1.403663992881775,-0.22470371425151825
0.5295661687850952,1.428261160850525,-0.21987012028694153
0.5395774841308594,1.4249557256698608,-0.2169582098722458
0.5593830943107605,1.4468129873275757,-0.21783295273780823
0.5810369849205017,1.4720498323440552,-0.21902213990688324
0.5999192595481873,1.4899879693984985,-0.21903792023658752
0.613269031047821,1.4933886528015137,-0.2168566733598709
0.6342803835868835,1.5144931077957153,-0.21717104315757751
0.6539959907531738,1.531869649887085,-0.2168283462524414
0.6802186965942383,1.563254475593567,-0.2182648926973343
0.6989791989326477,1.5766761302947998,-0.21712277829647064
0.726058840751648,1.6075303554534912,-0.21825607120990753
0.7437698841094971,1.6170132160186768,-0.21635933220386505
0.7647783756256104,1.6334320306777954,-0.21528027951717377
0.78470379114151,1.645998477935791,-0.21353067457675934
0.823433518409729,1.6967915296554565,-0.21661217510700226
0.8472690582275391,1.71591055393219,-0.21545138955116272
0.8799341320991516,1.7522293329238892,-0.21628819406032562
0.9080587029457092,1.7777146100997925,-0.21557287871837616
0.9456882476806641,1.8200618028640747,-0.21669067442417145
0.9856829047203064,1.8654788732528687,-0.21784546971321106
1.0094610452651978,1.8798043727874756,-0.21526266634464264
1.0580072402954102,1.9380918741226196,-0.21742230653762817
1.0980563163757324,1.9787770509719849,-0.21732942759990692
1.1439018249511719,2.0294859409332275,-0.21804673969745636
1.1947028636932373,2.086245536804199,-0.21900376677513123
1.2329436540603638,2.1187140941619873,-0.21705538034439087
1.2852548360824585,2.174386739730835,-0.2172112762928009
1.3139731884002686,2.189628839492798,-0.213086798787117
1.3454031944274902,2.2076613903045654,-0.20894946157932281
1.3529871702194214,2.1853694915771484,-0.20078521966934204
1.359270691871643,2.1636998653411865,-0.19285428524017334
1.3698283433914185,2.1483988761901855,-0.18542008101940155
1.4146627187728882,2.1850390434265137,-0.18213185667991638
1.790991187095642,2.726564645767212,-0.2191586196422577
1.8507314920425415,2.776581287384033,-0.2146020233631134
1.8375012874603271,2.715761184692383,-0.20120294392108917
1.8379873037338257,2.678374767303467,-0.18978212773799896
1.8759117126464844,2.6955039501190186,-0.1820598989725113
1.4470500946044922,2.0487990379333496,-0.13114799559116364
1.4561690092086792,2.0332348346710205,-0.12278039753437042
1.4469834566116333,1.992225170135498,-0.11283721029758453
1.4606753587722778,1.9826655387878418,-0.10449814796447754
3.3016433715820312,4.6690287590026855,0.6015176773071289
2.6210968494415283,3.768397092819214,0.49745088815689087
2.5896518230438232,3.7789485454559326,0.5095005035400391
2.4932971000671387,3.6971938610076904,0.5088186264038086
2.3074333667755127,3.4790453910827637,0.48811522126197815
2.2822470664978027,3.4941210746765137,0.49872395396232605
1.6149616241455078,2.511186122894287,0.36438798904418945
1.626343846321106,2.5718064308166504,0.37903204560279846
1.5820550918579102,2.543597459793091,0.3805035650730133
3.0305967330932617,4.949039936065674,0.7505120038986206
3.0016229152679443,4.982786178588867,0.7655025720596313
2.974858522415161,5.023841857910156,0.7814683318138123
2.9612245559692383,5.083793640136719,0.8000581860542297
2.933922052383423,5.119982719421387,0.8149235248565674
2.914905309677124,5.173392295837402,0.832153856754303
2.879037618637085,5.200385570526123,0.8449971675872803
2.8571393489837646,5.250241756439209,0.8613887429237366
2.834341049194336,5.295870780944824,0.8769010305404663
2.8222782611846924,5.366034507751465,0.8966089487075806
2.785149574279785,5.392299175262451,0.9084978103637695
2.7757248878479004,5.473400115966797,0.9297732710838318
2.769667148590088,5.556826114654541,0.9511716961860657
2.740438461303711,5.595333576202393,0.965049684047699
1.2222014665603638,2.5426058769226074,0.4416804909706116
1.1965324878692627,2.5369608402252197,0.4436796009540558
1.1745483875274658,2.537954568862915,0.44679343700408936
1.1550239324569702,2.541933536529541,0.4503157138824463
1.1512048244476318,2.5809712409973145,0.46010255813598633
2.5750629901885986,5.8870649337768555,1.055460810661316
2.548823118209839,5.947184085845947,1.0722211599349976
2.518524646759033,5.99609375,1.0869371891021729
2.4936861991882324,6.054917335510254,1.1033598184585571
2.4638116359710693,6.102941513061523,1.1179406642913818
2.4365074634552,6.162069797515869,1.1342101097106934
2.405392646789551,6.218177318572998,1.1498016119003296
2.3757898807525635,6.277435302734375,1.1660124063491821
2.3448143005371094,6.328655242919922,1.1806252002716064
2.3147921562194824,6.383257865905762,1.1959599256515503
2.2889328002929688,6.452354907989502,1.2140228748321533
2.2535791397094727,6.504106521606445,1.228277564048767
2.2245428562164307,6.5736260414123535,1.2459421157836914
2.189253330230713,6.6245808601379395,1.2601529359817505
2.1498429775238037,6.660355091094971,1.2714626789093018
2.084627866744995,6.615256309509277,1.2673711776733398
2.0219762325286865,6.581139087677002,1.2649967670440674
1.9610445499420166,6.550254821777344,1.2627027034759521
1.9038901329040527,6.529906749725342,1.2624626159667969
1.8490016460418701,6.512564659118652,1.2627689838409424
1.7920687198638916,6.483506679534912,1.260772705078125
1.7325745820999146,6.442876815795898,1.256541132926941
1.6693111658096313,6.391076564788818,1.249658465385437
0.8177462816238403,3.225158214569092,0.6320686340332031
1.578912615776062,6.419954299926758,1.2611242532730103
0.7956251502037048,3.336289882659912,0.6569044589996338
1.4564909934997559,6.3013200759887695,1.2436107397079468
1.4091200828552246,6.299337387084961,1.2462272644042969
1.3499548435211182,6.240824222564697,1.2371450662612915
1.2982853651046753,6.215759754180908,1.2343063354492188
1.2462854385375977,6.186524868011475,1.2306774854660034
1.201021432876587,6.1869072914123535,1.2329665422439575
1.1492751836776733,6.153081893920898,1.2284928560256958
1.0994904041290283,6.122495651245117,1.2246582508087158
1.0493699312210083,6.087825298309326,1.2197721004486084
1.007306694984436,6.102118968963623,1.2241584062576294
0.9544110894203186,6.0479841232299805,1.214862585067749
0.9045116305351257,6.012454509735107,1.209364414215088
0.8593683838844299,5.995297431945801,1.2075477838516235
0.8165090680122375,5.992996692657471,1.208776593208313
0.7654494047164917,5.925806999206543,1.19694983959198
0.7245264053344727,5.938266754150391,1.2004622220993042
0.6765069961547852,5.889575481414795,1.1916110515594482
0.5510464310646057,5.120980262756348,1.037034273147583
0.49841198325157166,4.9567341804504395,1.0046970844268799
0.38045990467071533,4.067691326141357,0.8252888321876526
0.3603889048099518,4.165337562561035,0.8459540605545044
0.33132708072662354,4.167533874511719,0.847017765045166
0.30044567584991455,4.154363632202148,0.8446866273880005
0.2718353867530823,4.163852691650391,0.8469973802566528
0.24355217814445496,4.1807861328125,0.8508663177490234
0.27639782428741455,5.390255451202393,1.097611665725708
0.23922207951545715,5.3994975090026855,1.1001437902450562
0.2048703283071518,5.50412654876709,1.1221909523010254
0.16527438163757324,5.467106342315674,1.1146774291992188
0.126907080411911,5.4604268074035645,1.1133511066436768
0.08913880586624146,5.48409366607666,1.1182669401168823
0.050880152732133865,5.469224452972412,1.1153783798217773
0.012256311252713203,5.477054119110107,1.1171765327453613
-0.025736331939697266,5.4616498947143555,1.1142863035202026
-0.06370535492897034,5.468998432159424,1.1158266067504883
-0.10224123299121857,5.499144077301025,1.1215555667877197
-0.1413305401802063,5.536672115325928,1.1288397312164307
-0.1813175082206726,5.5853986740112305,1.138456106185913
-0.22086192667484283,5.5840840339660645,1.1379194259643555
-0.24884088337421417,5.349278450012207,1.0898712873458862
-0.28869494795799255,5.397212028503418,1.0994888544082642
-0.32513976097106934,5.380012512207031,1.0953277349472046
-0.36130356788635254,5.36260986328125,1.0909812450408936
-0.3989899158477783,5.360193729400635,1.0897259712219238
-0.4345558285713196,5.338472843170166,1.0846126079559326
-0.4160205125808716,4.706289768218994,0.9556010961532593
-0.4403567612171173,4.61583948135376,0.936719536781311
-0.4708172380924225,4.597672939300537,0.9324614405632019
-0.5004610419273376,4.571774482727051,0.9261257648468018
-0.5319084525108337,4.56856107711792,0.9244529008865356
-0.562397301197052,4.557528972625732,0.9212431311607361
-0.5905395150184631,4.527270793914795,0.9141903519630432
-0.6219924688339233,4.523396015167236,0.9125131368637085
-0.650691032409668,4.496478080749512,0.9062212109565735
-0.6804760098457336,4.4847307205200195,0.9026434421539307
-0.7112130522727966,4.480414867401123,0.9003790616989136
-0.7368599772453308,4.445652008056641,0.8920496702194214
-0.7661767601966858,4.433369159698486,0.8882759213447571
-0.794346272945404,4.413289546966553,0.8829746842384338
-0.826996922492981,4.415550231933594,0.882168710231781
-0.713479220867157,3.6688780784606934,0.7318934798240662
-0.7370272278785706,3.6568706035614014,0.7280290126800537
-0.7541788816452026,3.6146812438964844,0.7182074785232544
-0.932548463344574,4.322139739990234,0.8571088910102844
-0.9648389220237732,4.323481559753418,0.8556861281394958
-0.9966269135475159,4.324703216552734,0.8543068766593933
-1.0249756574630737,4.310751914978027,0.8499692678451538
-1.0506607294082642,4.289420127868652,0.8437097668647766
-1.0779372453689575,4.275397777557373,0.8388642072677612
-1.1074535846710205,4.268520832061768,0.8354312181472778
-1.1340935230255127,4.250277519226074,0.8298094272613525
-1.1637601852416992,4.242926597595215,0.826347291469574
-1.1871305704116821,4.213191032409668,0.8185763359069824
-1.2159388065338135,4.2057061195373535,0.8147717714309692
-1.2427748441696167,4.190622806549072,0.8093153238296509
-1.2667056322097778,4.16815710067749,0.8025294542312622
-1.300129771232605,4.174727439880371,0.8013197779655457
-1.3269561529159546,4.158993721008301,0.7958413362503052
-1.3417309522628784,4.106534957885742,0.7834005951881409
-1.3824667930603027,4.134402275085449,0.7858972549438477
-1.402945876121521,4.103985786437988,0.7772272229194641
-1.4281079769134521,4.088004112243652,0.771351158618927
-1.4500114917755127,4.060742378234863,0.763320803642273
-1.4823969602584839,4.062193393707275,0.760705292224884
-1.4853007793426514,3.9840683937072754,0.7432660460472107
-1.5345722436904907,4.032251834869385,0.7488988041877747
-1.5561084747314453,4.008421897888184,0.7411508560180664
-1.5830988883972168,3.9987783432006836,0.7360668778419495
-1.611180305480957,3.9885220527648926,0.7307637929916382
-1.6391931772232056,3.978062152862549,0.725459635257721
-1.664249062538147,3.960294008255005,0.7186459302902222
-1.693897008895874,3.9571220874786377,0.7142292857170105
-1.7142963409423828,3.9325408935546875,0.7059928774833679
-1.7413806915283203,3.9216678142547607,0.7001649141311646
-1.7657548189163208,3.903350353240967,0.6929715871810913
-1.7871900796890259,3.8776707649230957,0.6844607591629028
-1.8130735158920288,3.8667430877685547,0.6781803369522095
-1.8355015516281128,3.848698377609253,0.6706850528717041
-1.8684436082839966,3.851097583770752,0.6666784882545471
-1.8854156732559204,3.8181536197662354,0.6564241051673889
-1.912879467010498,3.805629253387451,0.6496602892875671
-1.945432186126709,3.807631731033325,0.6450589895248413
-1.970828652381897,3.7957303524017334,0.6380711793899536
-1.9805376529693604,3.752589702606201,0.6257796883583069
-2.008848190307617,3.743119239807129,0.6190061569213867
-2.0295350551605225,3.7199511528015137,0.6099621653556824
-1.7114973068237305,3.088423490524292,0.5016688704490662
-1.73000967502594,3.0746800899505615,0.4947882890701294
-0.8373229503631592,1.4646072387695312,0.23334643244743347
-0.8516117930412292,1.465822458267212,0.23114746809005737
-0.8576220273971558,1.4538532495498657,0.22678148746490479
-0.8753350377082825,1.461874008178711,0.22542037069797516
-0.881266176700592,1.4497836828231812,0.22091756761074066
-0.8752790093421936,1.4176499843597412,0.21331974864006042
-0.8932313323020935,1.4252772331237793,0.21167659759521484
-0.8942374587059021,1.406846046447754,0.20609194040298462
-0.8913362622261047,1.3816331624984741,0.19943355023860931
-0.9139251708984375,1.3952666521072388,0.19829747080802917
-0.9147498607635498,1.3766924142837524,0.19249574840068817
-0.9041562080383301,1.3423055410385132,0.18453428149223328
-2.3922159671783447,3.4999752044677734,0.4722636640071869
-1.2751777172088623,1.837756872177124,0.24304594099521637
-1.2535006999969482,1.7826098203659058,0.23086759448051453
-1.4228029251098633,2.2747058868408203,-0.21216213703155518
-1.3752975463867188,2.234710454940796,-0.21523892879486084
-1.2612051963806152,2.1158289909362793,-0.21600587666034698
-0.8316643238067627,1.4420087337493896,-0.15527744591236115
-0.8251180052757263,1.4542276859283447,-0.16047434508800507
-1.0794751644134521,1.935072660446167,-0.21864940226078033
-1.0411633253097534,1.8978676795959473,-0.21932001411914825
-1.0055079460144043,1.8635395765304565,-0.22003711760044098
-0.9679246544837952,1.8257185220718384,-0.22017621994018555
-0.9096086025238037,1.7460535764694214,-0.2148609757423401
-0.8688995838165283,1.6965690851211548,-0.21276943385601044
-0.867225706577301,1.7229422330856323,-0.22010938823223114
-0.8442883491516113,1.7077628374099731,-0.222097709774971
-0.8029019236564636,1.6539970636367798,-0.21892045438289642
-0.7794840931892395,1.6345624923706055,-0.21996451914310455
-0.7479981184005737,1.5974129438400269,-0.21845251321792603
-0.7298794388771057,1.5881633758544922,-0.22060386836528778
-0.7152929306030273,1.585729718208313,-0.22361630201339722
-0.6930559277534485,1.5654098987579346,-0.22401556372642517
-0.6754310131072998,1.5556647777557373,-0.22584839165210724
-0.6459584832191467,1.517224669456482,-0.22331881523132324
-0.6261780261993408,1.4998326301574707,-0.22372592985630035
-0.6082255840301514,1.4857949018478394,-0.22454366087913513
-0.5889328718185425,1.4680569171905518,-0.22466112673282623
-0.5781655311584473,1.4718097448349,-0.22804871201515198
-0.5538116693496704,1.4392971992492676,-0.22567898035049438
-0.5368412733078003,1.424585223197937,-0.22599005699157715
-0.5186603665351868,1.4061397314071655,-0.2255697250366211
-0.5059564113616943,1.4020732641220093,-0.2273705154657364
-0.49839144945144653,1.4124833345413208,-0.23155099153518677
0.5540884137153625,1.418824315071106,-0.22053784132003784
0.5612019300460815,1.4081913232803345,-0.21627728641033173
0.5784302353858948,1.4225869178771973,-0.21584081649780273
0.6063066124916077,1.461835503578186,-0.21894042193889618
0.6315165162086487,1.4937455654144287,-0.2208152711391449
0.6465996503829956,1.500453233718872,-0.2188490927219391
0.6696556806564331,1.5247269868850708,-0.21936051547527313
0.689755916595459,1.5417687892913818,-0.21867868304252625
0.7070157527923584,1.551522135734558,-0.21681666374206543
0.7358423471450806,1.5857312679290771,-0.21827881038188934
0.74705970287323,1.5810240507125854,-0.21428418159484863
0.7781913876533508,1.6182833909988403,-0.2158423662185669
0.8012761473655701,1.6378189325332642,-0.2148771435022354
0.833737313747406,1.6742961406707764,-0.21586409211158752
0.8718797564506531,1.7208609580993652,-0.21799392998218536
0.8943917751312256,1.7361005544662476,-0.2159375250339508
0.9243080615997314,1.764902114868164,-0.21544206142425537
0.9605100154876709,1.8034895658493042,-0.2158403992652893
0.9935799241065979,1.8348468542099,-0.2151690572500229
1.0437991619110107,1.8966071605682373,-0.21768873929977417
1.085318922996521,1.9408787488937378,-0.21795378625392914
1.1278661489486694,1.984490156173706,-0.21776598691940308
1.1649452447891235,2.0176799297332764,-0.2161916345357895
1.2159994840621948,2.0741333961486816,-0.2168297916650772
1.2765249013900757,2.1429996490478516,-0.21813662350177765
1.3117870092391968,2.1679036617279053,-0.21470510959625244
1.3365404605865479,2.1762771606445312,-0.20948298275470734
1.3472615480422974,2.161146879196167,-0.20188714563846588
1.3708713054656982,2.165376901626587,-0.19586138427257538
1.3900493383407593,2.1630401611328125,-0.18907223641872406
1.389634132385254,2.1314430236816406,-0.17986871302127838
1.7703979015350342,2.674654722213745,-0.21710725128650665
1.8560014963150024,2.763575792312622,-0.21537405252456665
1.8106162548065186,2.6585285663604736,-0.1985159069299698
1.8718785047531128,2.7071053981781006,-0.1924467235803604
1.8834211826324463,2.685530185699463,-0.1813955157995224
1.4242035150527954,2.002863883972168,-0.12803936004638672
1.4496957063674927,2.0091171264648438,-0.12064895778894424
1.4627900123596191,2.0000901222229004,-0.11229632049798965
1.4762678146362305,1.9906381368637085,-0.10353114455938339
2.6838488578796387,3.77095890045166,0.5074328780174255
2.6342225074768066,3.7565505504608154,0.5173201560974121
2.6102359294891357,3.7807462215423584,0.5322141051292419
2.571260690689087,3.7866439819335938,0.5443222522735596
2.4574880599975586,3.674445152282715,0.5380771160125732
2.2981958389282227,3.489938259124756,0.5202102661132812
1.5077757835388184,2.3290364742279053,0.3531457781791687
1.5985429286956787,2.5090537071228027,0.386407732963562
1.6278972625732422,2.594740390777588,0.4054711163043976
3.0780482292175293,4.9877166748046875,0.790212869644165
3.011054039001465,4.96295166015625,0.7968292832374573
2.998208522796631,5.022736549377441,0.8164904117584229
2.9701316356658936,5.055240154266357,0.831549346446991
2.949044704437256,5.105712413787842,0.8491547703742981
2.913506507873535,5.132857799530029,0.8629060983657837
2.8800430297851562,5.15855598449707,0.8759433627128601
2.881549119949341,5.248406410217285,0.9000799655914307
2.8607444763183594,5.30169677734375,0.917573094367981
2.8347690105438232,5.348606586456299,0.9338734745979309
2.796966791152954,5.370854377746582,0.945725679397583
2.7763750553131104,5.422999382019043,0.9626320004463196
2.773179054260254,5.513494491577148,0.986589789390564
2.7350101470947266,5.539247512817383,0.9983382225036621
1.2289154529571533,2.5360496044158936,0.46034884452819824
1.2073805332183838,2.537008047103882,0.4636475443840027
1.1812660694122314,2.527200937271118,0.46492642164230347
1.1711243391036987,2.5523149967193604,0.4725489020347595
1.154919147491455,2.567337989807129,0.4781632125377655
1.1419938802719116,2.5891621112823486,0.48504552245140076
2.563284158706665,5.924250602722168,1.1160495281219482
2.5348737239837646,5.9723591804504395,1.1313310861587524
2.5098865032196045,6.031196594238281,1.148624300956726
2.478867530822754,6.0838727951049805,1.1643112897872925
2.4465432167053223,6.132538795471191,1.1792631149291992
2.4232850074768066,6.20206880569458,1.198211908340454
2.3878183364868164,6.238875389099121,1.2108383178710938
2.3600406646728516,6.297056674957275,1.2277307510375977
2.3304944038391113,6.359698295593262,1.2449584007263184
2.30196213722229,6.425695896148682,1.2627424001693726
2.268842935562134,6.480686664581299,1.278493046760559
2.2357122898101807,6.5312819480896,1.2933001518249512
2.208069324493408,6.599905490875244,1.311808466911316
2.1760058403015137,6.661525726318359,1.3289419412612915
2.1146392822265625,6.63558292388916,1.327864170074463
2.0492796897888184,6.594438552856445,1.3237496614456177
1.9862205982208252,6.556252479553223,1.320190191268921
1.9325802326202393,6.542954921722412,1.3215583562850952
1.8759725093841553,6.5181965827941895,1.3206440210342407
1.8164671659469604,6.485991477966309,1.317948579788208
1.7563977241516113,6.449741363525391,1.3137959241867065
1.6979964971542358,6.4166646003723145,1.310307264328003
0.8365387916564941,3.2545785903930664,0.6662564873695374
1.589529037475586,6.367175102233887,1.306673526763916
0.8058694005012512,3.328218936920166,0.6847671270370483
1.4790698289871216,6.301147937774658,1.299428105354309
1.4355710744857788,6.318146705627441,1.3053722381591797
1.3779352903366089,6.271267414093018,1.2981666326522827
1.3221149444580078,6.22759485244751,1.2916322946548462
1.2739697694778442,6.2171950340271,1.2920317649841309
1.2186286449432373,6.1649956703186035,1.2837318181991577
1.171862006187439,6.153730392456055,1.2838900089263916
1.1238473653793335,6.138648986816406,1.2824947834014893
1.0694849491119385,6.085518836975098,1.2731913328170776
1.0221736431121826,6.073551177978516,1.2725735902786255
0.9773375391960144,6.064759731292725,1.2726037502288818
0.9304128885269165,6.040511131286621,1.269434928894043
0.8833174705505371,6.012125492095947,1.2654377222061157
0.8399060368537903,6.010087966918945,1.2663788795471191
0.7896197438240051,5.962412357330322,1.257538080215454
0.741281270980835,5.918044567108154,1.2494162321090698
0.7015026807785034,5.937813758850098,1.2548818588256836
0.6559138298034668,5.904087543487549,1.2490874528884888
0.5221538543701172,5.018418312072754,1.0628972053527832
0.3952259421348572,4.074323654174805,0.8637924790382385
0.3704921305179596,4.126326084136963,0.875270664691925
0.34583041071891785,4.181948184967041,0.8875647187232971
0.31526505947113037,4.168823719024658,0.8853159546852112
0.28466543555259705,4.147836685180664,0.8814299702644348
0.25766468048095703,4.180022716522217,0.8888876438140869
0.29550421237945557,5.4176764488220215,1.152947187423706
0.2573455572128296,5.411816596984863,1.1520529985427856
0.22070477902889252,5.443921089172363,1.1590467691421509
0.18433111906051636,5.494866371154785,1.1701109409332275
0.14532947540283203,5.472998142242432,1.1657277345657349
0.1063491478562355,5.458503246307373,1.1629739999771118
0.0686580166220665,5.47428560256958,1.1667217016220093
0.03068840689957142,5.489816188812256,1.170427680015564
-0.007405159063637257,5.474676132202148,1.1668882369995117
-0.045540545135736465,5.489833831787109,1.1698631048202515
-0.0844711884856224,5.497076034545898,1.171203374862671
-0.1233801543712616,5.52697229385376,1.1774297952651978
-0.16304448246955872,5.568050384521484,1.1860936880111694
-0.20252937078475952,5.5897536277771,1.1906870603561401
-0.24166463315486908,5.595975875854492,1.1917091608047485
-0.2712373733520508,5.4112229347229,1.151653528213501
-0.3080283999443054,5.386514186859131,1.1457310914993286
-0.34386590123176575,5.36159086227417,1.1398346424102783
-0.38058042526245117,5.351667404174805,1.1371833086013794
-0.4168144762516022,5.337686538696289,1.1337274312973022
-0.45066630840301514,5.296799182891846,1.1246147155761719
-0.4247055649757385,4.60880708694458,0.9776787757873535
-0.45494386553764343,4.590882778167725,0.9729191064834595
-0.48656782507896423,4.587963581085205,0.9713886976242065
-0.5165604948997498,4.569620609283447,0.9666389226913452
-0.54835444688797,4.566240310668945,0.9650982022285461
-0.5767872929573059,4.532236099243164,0.9571245312690735
-0.6056997776031494,4.509521007537842,0.9514827132225037
-0.6355785131454468,4.498135566711426,0.9477447867393494
-0.6664512157440186,4.494115352630615,0.9456058740615845
-0.6961247324943542,4.48232364654541,0.9418783783912659
-0.7241218090057373,4.4550981521606445,0.9349255561828613
-0.7538281083106995,4.442859649658203,0.9311915636062622
-0.783449113368988,4.430413246154785,0.9274610280990601
-0.809735119342804,4.402875900268555,0.9201989769935608
-0.8333859443664551,4.363973617553711,0.9104083180427551
-0.7219235301017761,3.645425319671631,0.7591531872749329
-0.7490045428276062,3.64825701713562,0.7583880424499512
-0.9176679849624634,4.317446708679199,0.8959433436393738
-0.955951988697052,4.348909854888916,0.9009472131729126
-0.9826691746711731,4.327848434448242,0.8949472308158875
-1.0085746049880981,4.3068389892578125,0.8885496258735657
-1.0383931398391724,4.300442695617676,0.8851768374443054
-1.0658560991287231,4.2865071296691895,0.880329430103302
-1.0919249057769775,4.264817714691162,0.8738981485366821
-1.1216933727264404,4.257778644561768,0.8705151081085205
-1.148363709449768,4.239441871643066,0.8648727536201477
-1.1755826473236084,4.224825859069824,0.8594071865081787
-1.1999948024749756,4.202802658081055,0.8525185585021973
-1.2285161018371582,4.195343017578125,0.848628044128418
-1.2576969861984253,4.187493324279785,0.8446401953697205
-1.2847458124160767,4.172056674957275,0.8391527533531189
-1.3144311904907227,4.163618087768555,0.8350799679756165
-1.337964653968811,4.140878677368164,0.8277108669281006
-1.363592267036438,4.1253252029418945,0.8217605352401733
-1.391485571861267,4.1168928146362305,0.8172758221626282
-1.410127878189087,4.078972816467285,0.806911826133728
-1.4387128353118896,4.069890975952148,0.8022958636283875
-1.4676941633224487,4.060454368591309,0.7976049780845642
-1.4937580823898315,4.04783821105957,0.7918285727500916
-1.522398591041565,4.042253017425537,0.7874497771263123
-1.545514464378357,4.022110462188721,0.7802765965461731
-1.5569698810577393,3.9691977500915527,0.7666865587234497
-1.5996665954589844,3.994666337966919,0.7682256698608398
-1.627389669418335,3.984490156173706,0.7628242373466492
-1.651212453842163,3.9674346446990967,0.7557665109634399
-1.6749136447906494,3.95021390914917,0.7487199306488037
-1.7081313133239746,3.953840970993042,0.7455793023109436
-1.7302507162094116,3.928535223007202,0.7368526458740234
-1.7452709674835205,3.889256715774536,0.7256568670272827
-1.758697509765625,3.8505139350891113,0.7142181992530823
-1.7974481582641602,3.867753267288208,0.7131145596504211
-1.8202742338180542,3.849710464477539,0.7054744362831116
-1.8545794486999512,3.8516581058502197,0.7012555003166199
-1.8851590156555176,3.846585512161255,0.6958432793617249
-1.9113181829452515,3.834901809692383,0.6889365315437317
-1.929909586906433,3.8095483779907227,0.6794536709785461
-1.9554680585861206,3.7977471351623535,0.6724051237106323
-1.978807806968689,3.7782421112060547,0.6637541055679321
-2.0061023235321045,3.7651495933532715,0.6561742424964905
-2.0113089084625244,3.7154653072357178,0.6420449614524841
-1.6991848945617676,3.090590476989746,0.5294099450111389
-1.7183408737182617,3.0766758918762207,0.5222806334495544
-0.8395518660545349,1.478989601135254,0.24868449568748474
-0.8462439179420471,1.4668145179748535,0.2441994994878769
-0.852018415927887,1.4550721645355225,0.23971743881702423
-0.8695284724235535,1.4632604122161865,0.23851780593395233
-0.8838755488395691,1.4642791748046875,0.23594267666339874
-0.8862015008926392,1.4453309774398804,0.23015756905078888
-0.8755064606666565,1.407027006149292,0.2211998999118805
-0.905419647693634,1.4345588684082031,0.22262786328792572
-0.8987614512443542,1.4026790857315063,0.2146378606557846
-0.9087610244750977,1.3968288898468018,0.210648313164711
-0.8859231472015381,1.3428813219070435,0.19938623905181885
-0.9530378580093384,1.424579381942749,0.208110511302948
-2.39491605758667,3.5267326831817627,0.5060755014419556
-1.3648920059204102,1.9810781478881836,0.27906492352485657
-1.3176567554473877,1.8872066736221313,0.26071012020111084
-1.3063273429870605,1.856223702430725,-0.12830068171024323
-1.375178575515747,2.2162482738494873,-0.2163294404745102
-1.3309979438781738,2.1787021160125732,-0.2193358987569809
-1.2503843307495117,2.08117938041687,-0.2159568965435028
-1.2191301584243774,2.0628304481506348,-0.2202075719833374
-0.826358437538147,1.4442760944366455,-0.16237027943134308
-1.0500109195709229,1.8664956092834473,-0.21506817638874054
-1.0401227474212646,1.8802189826965332,-0.22180207073688507
-1.0006482601165771,1.839153528213501,-0.22184649109840393
-0.9632026553153992,1.8013029098510742,-0.22201158106327057
-0.8976631760597229,1.7079448699951172,-0.21490353345870972
-0.8890929818153381,1.7205305099487305,-0.22077693045139313
-0.8536009192466736,1.6813812255859375,-0.21997179090976715
-0.8239657878875732,1.6522332429885864,-0.22018489241600037
-0.805263876914978,1.6435514688491821,-0.22294193506240845
-0.7683401107788086,1.5962190628051758,-0.2202746868133545
-0.7467873096466064,1.5801301002502441,-0.22169934213161469
-0.7238182425498962,1.5603328943252563,-0.22249719500541687
-0.7060948610305786,1.5508265495300293,-0.22465236485004425
-0.6856175661087036,1.5339869260787964,-0.2256043404340744
-0.6589539051055908,1.5028817653656006,-0.2242545485496521
-0.641941487789154,1.4928189516067505,-0.2259489893913269
-0.6148034334182739,1.4575653076171875,-0.22366440296173096
-0.5953988432884216,1.439958930015564,-0.22401632368564606
-0.5849813222885132,1.443677544593811,-0.2275015115737915
-0.5645686984062195,1.4221705198287964,-0.22697000205516815
-0.5489168167114258,1.4111833572387695,-0.22798767685890198
0.5570881962776184,1.3839162588119507,-0.21892228722572327
0.5784604549407959,1.4091323614120483,-0.22009776532649994
0.5988781452178955,1.4305036067962646,-0.22052931785583496
0.6120406985282898,1.4338726997375488,-0.21812836825847626
0.6345307230949402,1.4584413766860962,-0.21874502301216125
0.6619085669517517,1.4934695959091187,-0.22084324061870575
0.6852121353149414,1.5175424814224243,-0.2211316078901291
0.7088851928710938,1.5413717031478882,-0.22127370536327362
0.7261205911636353,1.5510352849960327,-0.2192184180021286
0.7453644871711731,1.5639597177505493,-0.21749740839004517
0.7699629068374634,1.587129831314087,-0.21708768606185913
0.7949175834655762,1.6100424528121948,-0.2165188193321228
0.825136125087738,1.6432558298110962,-0.21712785959243774
0.857653021812439,1.679580807685852,-0.2179556041955948
0.8892244100570679,1.7119635343551636,-0.2179882824420929
0.9195848703384399,1.740519642829895,-0.2172817438840866
0.9553869366645813,1.7792760133743286,-0.2176920473575592
0.9900591373443604,1.8141497373580933,-0.21736469864845276
1.0311832427978516,1.8586982488632202,-0.21787267923355103
1.0765101909637451,1.9097105264663696,-0.2188403457403183
1.1167988777160645,1.9500927925109863,-0.21821005642414093
1.171566367149353,2.013455390930176,-0.2197696417570114
1.2194665670394897,2.0627176761627197,-0.2193986475467682
1.2754806280136108,2.1251513957977295,-0.22005213797092438
1.3183907270431519,2.1635823249816895,-0.21782559156417847
1.3442143201828003,2.1713004112243652,-0.21201220154762268
1.3673781156539917,2.1759145259857178,-0.20591430366039276
1.3778001070022583,2.1607859134674072,-0.19793207943439484
1.3845669031143188,2.138612985610962,-0.18904244899749756
1.3757926225662231,2.093832492828369,-0.17830327153205872
1.792007327079773,2.6882662773132324,-0.21999908983707428
1.8326495885849,2.708746910095215,-0.21229252219200134
1.8116271495819092,2.6389479637145996,-0.19750986993312836
1.893593192100525,2.720508337020874,-0.19394740462303162
1.9035990238189697,2.695215940475464,-0.18188215792179108
1.456413984298706,2.0326642990112305,-0.12915344536304474
1.4513806104660034,1.9983341693878174,-0.11909501999616623
1.4747275114059448,2.001117467880249,-0.11068335920572281
2.6694157123565674,3.7764203548431396,0.5417881608009338
2.6211788654327393,3.7701210975646973,0.5533862113952637
2.5846848487854004,3.774406909942627,0.5653259754180908
1.520667552947998,2.255763053894043,0.34452134370803833
1.5325958728790283,2.311793327331543,0.3595428466796875
1.5110312700271606,2.31550931930542,0.36615604162216187
1.5341119766235352,2.3870222568511963,0.38341280817985535
1.6313672065734863,2.5808136463165283,0.42066580057144165
1.5944478511810303,2.566108465194702,0.42436912655830383
3.0350265502929688,4.961212635040283,0.8310250043869019
3.00309681892395,4.987313270568848,0.8459270000457764
2.968331813812256,5.0147705078125,0.8605469465255737
2.9666407108306885,5.098556041717529,0.884943425655365
2.929544448852539,5.117730617523193,0.8977522850036621
2.908081293106079,5.163214206695557,0.9151085019111633
2.889061212539673,5.220273971557617,0.9339920282363892
2.8564248085021973,5.25356388092041,0.9487622380256653
2.8403167724609375,5.312717437744141,0.9678342342376709
2.812466621398926,5.351502418518066,0.9833998680114746
2.792285442352295,5.407730579376221,1.001713514328003
2.7738282680511475,5.47135591506958,1.021270513534546
2.757042646408081,5.538061141967773,1.0414481163024902
1.2404236793518066,2.535576343536377,0.4801890254020691
1.2121073007583618,2.5226950645446777,0.48116403818130493
1.1933188438415527,2.5307579040527344,0.4857645630836487
1.174329161643982,2.538748264312744,0.49032753705978394
1.1620397567749023,2.5604381561279297,0.497516393661499
1.156391978263855,2.595862627029419,0.5073465704917908
2.5793137550354004,5.9001922607421875,1.1598769426345825
2.5501580238342285,5.952801704406738,1.1764273643493652
2.525165319442749,6.015805244445801,1.1949195861816406
2.4954562187194824,6.067890644073486,1.2113275527954102
2.4597017765045166,6.101381301879883,1.2238999605178833
2.4362895488739014,6.166783809661865,1.2430002689361572
2.4060544967651367,6.222141742706299,1.2598493099212646
2.3736939430236816,6.273902416229248,1.2755450010299683
2.3420279026031494,6.329090595245361,1.2920697927474976
2.3152589797973633,6.394397258758545,1.3106132745742798
2.2791671752929688,6.434157371520996,1.3239960670471191
2.25313663482666,6.506548881530762,1.344319224357605
2.2215943336486816,6.568456172943115,1.361615538597107
2.192796230316162,6.641165256500244,1.3812559843063354
2.145566701889038,6.659023761749268,1.3895909786224365
2.0814709663391113,6.617599964141846,1.3854317665100098
2.0217325687408447,6.590495586395264,1.3843553066253662
1.9597868919372559,6.551761627197266,1.3806077241897583
1.9025830030441284,6.531399250030518,1.3798989057540894
1.840556263923645,6.492149353027344,1.37522554397583
1.7845624685287476,6.470738410949707,1.3743337392807007
1.7272459268569946,6.437480449676514,1.370853304862976
1.6706900596618652,6.407630443572998,1.3681796789169312
1.6142985820770264,6.373501300811768,1.3644213676452637
1.5565869808197021,6.33559513092041,1.3590444326400757
0.7820436954498291,3.2843732833862305,0.7059820890426636
1.4532890319824219,6.303050518035889,1.3576984405517578
1.3909764289855957,6.233832836151123,1.3456332683563232
1.3506274223327637,6.257323265075684,1.3535689115524292
1.2951241731643677,6.20948600769043,1.3461263179779053
1.2448253631591797,6.187753677368164,1.3434804677963257
1.1962848901748657,6.173154830932617,1.3423635959625244
1.1472526788711548,6.1583123207092285,1.341283917427063
1.0938934087753296,6.109019756317139,1.332671046257019
1.0389684438705444,6.044201850891113,1.3206777572631836
1.0018274784088135,6.080645561218262,1.3308566808700562
0.9542513489723206,6.056690692901611,1.3273744583129883
0.9082480072975159,6.047709941864014,1.3268406391143799
0.8594034910202026,6.011835098266602,1.320434808731079
0.8098466396331787,5.964200973510742,1.3114792108535767
0.7653753757476807,5.94640588760376,1.309112310409546
0.7188193798065186,5.909351825714111,1.3025544881820679
0.6785072684288025,5.9212327003479,1.3067880868911743
0.5501163005828857,5.125109672546387,1.1318029165267944
0.4980306625366211,4.969086647033691,1.0980826616287231
0.3802078068256378,4.083317756652832,0.9029921293258667
0.3592071533203125,4.173022747039795,0.9235308766365051
0.32955336570739746,4.167547702789307,0.9230613112449646
0.2983681857585907,4.146678924560547,0.9192360043525696
0.26990169286727905,4.156069278717041,0.9218448996543884
0.2445167750120163,4.222451210021973,0.9368083477020264
0.27693477272987366,5.442731857299805,1.2079118490219116
0.2387867122888565,5.444363117218018,1.2087010145187378
0.2017136812210083,5.483847141265869,1.2179605960845947
0.1636015921831131,5.484941482543945,1.2187485694885254
0.12496080994606018,5.462897300720215,1.214451551437378
0.08699680864810944,5.463603496551514,1.2145869731903076
0.04908590018749237,5.479333877563477,1.217957615852356
0.010211244225502014,5.471922397613525,1.2162421941757202
-0.027906060218811035,5.487117767333984,1.2196125984191895
-0.06605054438114166,5.486795425415039,1.219592809677124
-0.10513316094875336,5.535770416259766,1.2305907011032104
-0.14360268414020538,5.534929275512695,1.2304856777191162
-0.18297308683395386,5.564474582672119,1.236437439918518
-0.22317251563072205,5.586093902587891,1.2406721115112305
-0.2508196234703064,5.348413467407227,1.1874057054519653
-0.29082921147346497,5.400034427642822,1.1984405517578125
-0.32878923416137695,5.40567684173584,1.199324369430542
-0.36374595761299133,5.365389823913574,1.190077543258667
-0.4004356265068054,5.347731113433838,1.1855583190917969
-0.435124009847641,5.31857967376709,1.178091287612915
-0.41687527298927307,4.696441173553467,1.0394450426101685
-0.44162067770957947,4.614012241363525,1.02042555809021
-0.47213929891586304,4.595952033996582,1.015700101852417
-0.5037912130355835,4.5852203369140625,1.0126363039016724
-0.532074511051178,4.551593780517578,1.0045830011367798
-0.5624882578849792,4.540655136108398,1.001054286956787
-0.5926311016082764,4.529565334320068,0.9973751902580261
-0.6237420439720154,4.525829315185547,0.9953623414039612
-0.6505730748176575,4.487792491912842,0.9858372807502747
-0.6783680319786072,4.460953235626221,0.9788439273834229
-0.7118226289749146,4.471643447875977,0.980134904384613
-0.740362286567688,4.451990604400635,0.9747135043144226
-0.7708301544189453,4.447394371032715,0.9720711708068848
-0.7972022891044617,4.420037269592285,0.9645076394081116
-0.8280037045478821,4.4149556159973145,0.9618305563926697
-0.7148308753967285,3.6709790229797363,0.7984858751296997
-0.7388635277748108,3.6589064598083496,0.7946336269378662
-0.7596331834793091,3.6317129135131836,0.787545919418335
-0.9299781322479248,4.299314498901367,0.9305360913276672
-0.9731119275093079,4.353148937225342,0.9401723742485046
-0.9976463317871094,4.324756622314453,0.9321079850196838
-1.0238443613052368,4.303612232208252,0.9256507754325867
-1.053865909576416,4.297067165374756,0.9223576188087463
-1.0800985097885132,4.275477886199951,0.915886640548706
-1.1082714796066284,4.261110305786133,0.9107853174209595
-1.13227117061615,4.235819339752197,0.9029988646507263
-1.1610430479049683,4.228839874267578,0.8991681933403015
-1.1898618936538696,4.2216386795043945,0.8953247666358948
-1.2172759771347046,4.206683158874512,0.8898221850395203
-1.242851972579956,4.184071063995361,0.8827177882194519
-1.2697604894638062,4.168817520141602,0.8771963119506836
-1.297977328300476,4.161052703857422,0.8727542161941528
-1.3238582611083984,4.14578104019165,0.8667783737182617
-1.351927638053894,4.137639999389648,0.8623422980308533
-1.3790162801742554,4.12158203125,0.856157124042511
-1.4004642963409424,4.0909929275512695,0.8470650315284729
-1.429006576538086,4.082062721252441,0.8424608707427979
-1.4449537992477417,4.040850639343262,0.8307182788848877
-1.4722486734390259,4.032018184661865,0.8256961107254028
-1.5116701126098633,4.05531120300293,0.8272510170936584
-1.5311315059661865,4.020362854003906,0.8167858123779297
-1.5621676445007324,4.017706871032715,0.8129978775978088
-1.5872467756271362,4.00069522857666,0.8061668872833252
-1.614160418510437,3.991058826446533,0.80047208070755
-1.632267951965332,3.9599111080169678,0.7905138731002808
-1.6510061025619507,3.9283125400543213,0.7804065346717834
-1.693784475326538,3.9530773162841797,0.7814953327178955
-1.7216424942016602,3.9422011375427246,0.7755374908447266
-1.7390168905258179,3.9105608463287354,0.765146017074585
-1.7716039419174194,3.914041757583618,0.7615247964859009
-1.7790178060531616,3.8611600399017334,0.746927797794342
-1.8028991222381592,3.8428428173065186,0.7389815449714661
-1.8365955352783203,3.8451931476593018,0.7350327372550964
-1.873123288154602,3.8545334339141846,0.7321860194206238
-1.8988163471221924,3.843275785446167,0.7251505255699158
-1.9214093685150146,3.8247568607330322,0.716704249382019
-1.9482961893081665,3.812516927719116,0.7092946767807007
-1.9646620750427246,3.779447078704834,0.6980289816856384
-1.994362711906433,3.7739815711975098,0.6916985511779785
-2.0121970176696777,3.7484240531921387,0.6814419627189636
-2.024231195449829,3.712611436843872,0.669407069683075
-1.7123640775680542,3.088413715362549,0.5518608093261719
-1.7343858480453491,3.077329635620117,0.5449643731117249
-0.8402086496353149,1.4680112600326538,0.2574864327907562
-0.8499615788459778,1.4629831314086914,0.2540726661682129
-0.8639065623283386,1.4643824100494385,0.25169673562049866
-0.8665488958358765,1.4454606771469116,0.24570584297180176
-0.8765586614608765,1.440034031867981,0.24203675985336304
-0.8941519856452942,1.4480193853378296,0.24048668146133423
-0.8832789063453674,1.40985107421875,0.23127610981464386
-0.8933805227279663,1.4041283130645752,0.22725504636764526
-0.890777051448822,1.3788641691207886,0.2200326770544052
-0.9083009958267212,1.3865845203399658,0.21803385019302368
-0.9047690629959106,1.3617202043533325,0.21084855496883392
-2.3816163539886475,3.5310611724853516,0.537674069404602
-2.4362728595733643,3.5612823963165283,0.5328736901283264
-1.3790349960327148,1.9885575771331787,0.2920728027820587
-1.3622180223464966,2.178260564804077,-0.21510767936706543
-1.3119317293167114,2.1308069229125977,-0.21731936931610107
-1.2576167583465576,2.0765554904937744,-0.21845859289169312
-1.200571060180664,2.0147547721862793,-0.21823109686374664
-0.8156012296676636,1.414313793182373,-0.16174404323101044
-0.8204442262649536,1.4468003511428833,-0.16972313821315765
-1.0278104543685913,1.8421926498413086,-0.2212928682565689
-0.9827255010604858,1.790958046913147,-0.22013841569423676
-0.9510439038276672,1.7632780075073242,-0.22160878777503967
-0.8907982110977173,1.6803427934646606,-0.21578308939933777
-0.8608647584915161,1.6515705585479736,-0.21645253896713257
-0.848751425743103,1.6571608781814575,-0.2215031385421753
-0.8103910088539124,1.6107239723205566,-0.21946832537651062
-0.7680090069770813,1.5532430410385132,-0.21550272405147552
-0.7634902000427246,1.5720746517181396,-0.22207482159137726
-0.7403228282928467,1.5524861812591553,-0.22308184206485748
-0.725771963596344,1.5501554012298584,-0.22647590935230255
-0.7017889022827148,1.5265063047409058,-0.22661681473255157
-0.6749218106269836,1.4955902099609375,-0.2255098670721054
-0.6530717015266418,1.4750771522521973,-0.22578831017017365
-0.6391502022743225,1.4721131324768066,-0.22872476279735565
-0.6165547370910645,1.4475562572479248,-0.22813156247138977
-0.5868117809295654,1.40497887134552,-0.22449839115142822
-0.5810279846191406,1.4193321466445923,-0.22983746230602264
-0.5636529326438904,1.4049535989761353,-0.23049357533454895
0.5772407650947571,1.3920260667800903,-0.22342438995838165
0.592958927154541,1.4027752876281738,-0.22211407124996185
0.6165205240249634,1.4311244487762451,-0.22349490225315094
0.6360034346580505,1.4485406875610352,-0.2230125218629837
0.6557125449180603,1.4657832384109497,-0.22240841388702393
0.6740936636924744,1.4793214797973633,-0.22103337943553925
0.7039563059806824,1.5173227787017822,-0.2232339233160019
0.7147176265716553,1.512896180152893,-0.21904432773590088
0.7421612739562988,1.5433390140533447,-0.21981710195541382
0.7681614756584167,1.570109248161316,-0.2198590189218521
0.7896588444709778,1.5860710144042969,-0.2181755155324936
0.8184255957603455,1.6156501770019531,-0.21823880076408386
0.8457272052764893,1.641541838645935,-0.21762672066688538
0.887622058391571,1.694753885269165,-0.22038541734218597
0.9176944494247437,1.7234258651733398,-0.21966086328029633
0.948398768901825,1.7516777515411377,-0.21864372491836548
0.9850862622261047,1.7898551225662231,-0.2185521274805069
1.0257718563079834,1.8345987796783447,-0.21908316016197205
1.0732598304748535,1.88882577419281,-0.22030021250247955
1.111901879310608,1.9256356954574585,-0.21916407346725464
1.170240044593811,1.995866298675537,-0.2214692384004593
1.2001463174819946,2.015070676803589,-0.21765092015266418
1.260788917541504,2.0837693214416504,-0.21879203617572784
1.3220115900039673,2.1520113945007324,-0.21943090856075287
1.3406827449798584,2.1503541469573975,-0.2126898169517517
1.359998345375061,2.148167848587036,-0.2055848389863968
1.375241994857788,2.139188289642334,-0.1976539045572281
1.3895392417907715,2.1306345462799072,-0.1898987740278244
1.3957210779190063,2.1086294651031494,-0.18072572350502014
1.7973471879959106,2.675278425216675,-0.2199014276266098
1.8062750101089478,2.651244878768921,-0.20854468643665314
1.8713905811309814,2.7066948413848877,-0.20269306004047394
1.894745945930481,2.700756549835205,-0.19186608493328094
1.9304888248443604,2.7144875526428223,-0.1823461502790451
1.4448624849319458,2.0026144981384277,-0.1262374222278595
1.4677170515060425,2.0058536529541016,-0.11790306866168976
1.4807727336883545,1.9967557191848755,-0.10873028635978699
2.6435835361480713,3.7156519889831543,0.5549178123474121
2.6203229427337646,3.739285707473755,0.570985734462738
1.5581191778182983,2.2576632499694824,0.3519992530345917
1.5399212837219238,2.2687385082244873,0.3607622981071472
1.5315066576004028,2.2917675971984863,0.3709978461265564
1.514961838722229,2.3014538288116455,0.37888291478157043
1.5091339349746704,2.3316650390625,0.3900338113307953
1.6301238536834717,2.5605616569519043,0.4348200261592865
1.6157578229904175,2.577451467514038,0.4437250792980194
3.0513503551483154,4.945755481719971,0.8627802729606628
3.0086476802825928,4.960268974304199,0.876164436340332
2.9821884632110596,5.000665664672852,0.894067108631134
2.9716529846191406,5.062789440155029,0.9152829051017761
2.9381978511810303,5.0887627601623535,0.9298896193504333
2.9179024696350098,5.142411231994629,0.9491928219795227
2.899442195892334,5.199046611785889,0.9690836071968079
2.85972261428833,5.214264869689941,0.9809696078300476
