X,Y,Z
-0.5872371196746826,4.511728763580322,-0.0952068567276001
-0.5574256777763367,4.531243324279785,-0.09579943865537643
-0.5268514752388,4.546688556671143,-0.09630592912435532
-0.498325377702713,4.581326961517334,-0.09722469002008438
-0.4688470661640167,4.607985973358154,-0.097979336977005
-0.4517076015472412,4.774476051330566,-0.10172326117753983
-0.43607890605926514,4.979814052581787,-0.10625755786895752
-0.4030950963497162,5.006096363067627,-0.10695389658212662
-0.3952360451221466,5.37880277633667,-0.11506776511669159
-0.36145809292793274,5.435970306396484,-0.11644792556762695
-0.32299789786338806,5.4383864402771,-0.1166652962565422
-0.2945335805416107,5.619898796081543,-0.12070129811763763
-0.2654547393321991,5.844188690185547,-0.12560448050498962
-0.22705750167369843,5.908336162567139,-0.12707634270191193
-0.18383663892745972,5.843412399291992,-0.125777930021286
-0.14187563955783844,5.821140289306641,-0.12540403008460999
-0.10080773383378983,5.790745735168457,-0.12485843896865845
-0.06060512363910675,5.80692720413208,-0.12521636486053467
-0.019923608750104904,5.748628616333008,-0.12397219985723495
0.01980706863105297,5.666616439819336,-0.12222221493721008
0.06009511277079582,5.685859680175781,-0.12266237288713455
0.09934668987989426,5.669684886932373,-0.1223440170288086
0.13904422521591187,5.68447732925415,-0.12262602150440216
0.17640407383441925,5.6170196533203125,-0.12109533697366714
0.21478019654750824,5.600052356719971,-0.12066008150577545
0.24820825457572937,5.477485179901123,-0.11795686185359955
0.22320684790611267,4.258794784545898,-0.09166763722896576
0.24794124066829681,4.175273895263672,-0.08981487900018692
0.27734553813934326,4.181254863739014,-0.0898469090461731
0.30831074714660645,4.206500053405762,-0.09029628336429596
0.33405351638793945,4.161440849304199,-0.08924105763435364
0.4807627201080322,5.5012125968933105,-0.11785928905010223
0.5090137124061584,5.3927693367004395,-0.11543292552232742
0.5253629088401794,5.183202743530273,-0.1107686385512352
0.5350371599197388,4.938735485076904,-0.10537125170230865
0.5718333721160889,4.9582037925720215,-0.10561754554510117
0.675285816192627,5.512240886688232,-0.11723242700099945
0.7161713242530823,5.526774883270264,-0.11736242473125458
0.7506682276725769,5.494611740112305,-0.11644649505615234
0.8063098788261414,5.613015651702881,-0.11868110299110413
0.8554719090461731,5.67684268951416,-0.1197579875588417
0.8548135757446289,5.412195205688477,-0.11391324549913406
0.9045467376708984,5.479334831237793,-0.1150708794593811
0.9458097219467163,5.4921875,-0.11505872011184692
0.984946072101593,5.493249416351318,-0.11474127322435379
1.0255234241485596,5.501720428466797,-0.11458303779363632
1.0525089502334595,5.436974048614502,-0.1129048764705658
0.6685802936553955,3.3273258209228516,-0.06889254599809647
1.1453146934509277,5.502004146575928,-0.11358246952295303
1.1829278469085693,5.494051933288574,-0.11300670355558395
1.215445637702942,5.462958335876465,-0.11196138709783554
0.7633912563323975,3.3229198455810547,-0.06785613298416138
0.7643675208091736,3.2224371433258057,-0.06556174159049988
0.7802436351776123,3.190499782562256,-0.06467879563570023
0.8029600381851196,3.188894271850586,-0.06436081230640411
0.8139070868492126,3.14176607131958,-0.06313043087720871
0.8334870338439941,3.1285533905029297,-0.06258637458086014
0.5532068014144897,2.018944263458252,-0.04020506516098976
0.5937141180038452,2.109032154083252,-0.041811585426330566
0.8844530582427979,3.0617401599884033,-0.060389161109924316
0.8941633701324463,3.0182149410247803,-0.059224702417850494
0.9125810265541077,3.0045435428619385,-0.05865068361163139
0.9291929006576538,2.9830973148345947,-0.05792023241519928
0.9416255950927734,2.9505200386047363,-0.05698544159531593
0.9567747116088867,2.9292211532592773,-0.0562279187142849
0.9667029976844788,2.8930444717407227,-0.05519305542111397
0.984049379825592,2.8789453506469727,-0.05458134785294533
0.9937285780906677,2.8425490856170654,-0.05355021730065346
1.0097423791885376,2.8244690895080566,-0.05285955220460892
1.0261019468307495,2.8102622032165527,-0.0522242933511734
1.0395876169204712,2.7886438369750977,-0.05145658180117607
1.0477162599563599,2.752202033996582,-0.05041484162211418
1.0583527088165283,2.7230114936828613,-0.04951265826821327
1.0772722959518433,2.7155919075012207,-0.0489858016371727
1.091127872467041,2.6974284648895264,-0.048254843801259995
1.1004046201705933,2.668335437774658,-0.04733355715870857
1.106824278831482,2.631824493408203,-0.04627907648682594
1.1281812191009521,2.631251335144043,-0.04586213454604149
1.136731743812561,2.602025270462036,-0.0449199303984642
1.1493663787841797,2.5836594104766846,-0.04417821019887924
1.16708505153656,2.575713634490967,-0.04360751062631607
1.1817066669464111,2.5604474544525146,-0.042910460382699966
1.1824637651443481,2.5170199871063232,-0.04173309728503227
1.1995160579681396,2.508948564529419,-0.041126858443021774
1.1942659616470337,2.455118179321289,-0.03978203982114792
1.2164838314056396,2.4572770595550537,-0.03934110701084137
1.2244678735733032,2.4314723014831543,-0.03844952955842018
1.2369787693023682,2.4163684844970703,-0.03772158920764923
1.245935082435608,2.3941736221313477,-0.03688279166817665
1.255528450012207,2.3715028762817383,-0.036017030477523804
1.264331340789795,2.3491034507751465,-0.035162296146154404
1.2910308837890625,2.3612911701202393,-0.03480461239814758
1.2859792709350586,2.3150272369384766,-0.033581361174583435
1.2981804609298706,2.299250364303589,-0.03279343247413635
1.3100574016571045,2.2835121154785156,-0.03199406713247299
1.3131734132766724,2.254650831222534,-0.031020350754261017
1.3244550228118896,2.238980293273926,-0.03021552972495556
1.3399903774261475,2.229727268218994,-0.02948555164039135
1.3424232006072998,2.200867176055908,-0.028495900332927704
1.3529105186462402,2.185262680053711,-0.027671687304973602
1.3638719320297241,2.1692256927490234,-0.026820218190550804
1.3721264600753784,2.1501352787017822,-0.02592565305531025
1.3923168182373047,2.1510980129241943,-0.02526025101542473
1.3962318897247314,2.1252386569976807,-0.024243462830781937
1.4173824787139893,2.125300645828247,-0.023499879986047745
1.4243298768997192,2.1065292358398438,-0.022558946162462234
1.425365924835205,2.077476739883423,-0.021469738334417343
1.4438647031784058,2.07419753074646,-0.0206284299492836
1.4705079793930054,2.084153413772583,-0.019899366423487663
1.4577330350875854,2.0357351303100586,-0.018539568409323692
1.4616795778274536,2.013636350631714,-0.017451707273721695
1.4839061498641968,2.016753673553467,-0.016548383980989456
2.285325288772583,3.2205514907836914,0.04081360995769501
2.2742297649383545,3.256998300552368,0.04287033528089523
2.557015895843506,3.716815710067749,0.05057726800441742
3.15425443649292,4.661649227142334,0.06549528986215591
3.1571643352508545,4.739642143249512,0.06852034479379654
3.1195554733276367,4.755107402801514,0.07058154791593552
3.1046879291534424,4.811347484588623,0.07325486838817596
1.6271650791168213,2.5618181228637695,0.03992808982729912
1.629555344581604,2.606462240219116,0.041543882340192795
1.6058188676834106,2.6119697093963623,0.042511604726314545
2.9249844551086426,4.83601188659668,0.08027273416519165
1.5884870290756226,2.66807222366333,0.04510919749736786
1.52944016456604,2.6122026443481445,0.04495096951723099
1.4960029125213623,2.5999813079833984,0.045527383685112
1.470171332359314,2.5967204570770264,0.046189650893211365
1.4518080949783325,2.607015609741211,0.04708694666624069
1.436206579208374,2.624534845352173,0.04809851199388504
1.420857310295105,2.641733169555664,0.0490950345993042
1.4112828969955444,2.668955087661743,0.05026980862021446
2.46752667427063,4.747876167297363,0.0905696302652359
2.4255406856536865,4.751900672912598,0.0917542427778244
2.3545877933502197,4.695852279663086,0.09174101054668427
1.189393401145935,2.41386342048645,0.047690216451883316
1.1940003633499146,2.4681015014648438,0.04930104687809944
1.1759064197540283,2.476759672164917,0.04998498782515526
1.184425711631775,2.541795253753662,0.05181291699409485
1.1813242435455322,2.581929922103882,0.053136248141527176
1.1632070541381836,2.5901286602020264,0.05380551517009735
1.1506377458572388,2.612802505493164,0.05475549399852753
1.128180980682373,2.614058256149292,0.05526917055249214
1.1038398742675781,2.6074602603912354,0.055587682873010635
1.0856353044509888,2.615078926086426,0.05620945617556572
2.0071709156036377,4.934445858001709,0.1068829670548439
1.9829120635986328,4.977867126464844,0.10863641649484634
2.041888475418091,5.2358503341674805,0.11512177437543869
1.9999040365219116,5.235286235809326,0.11593063175678253
1.9688111543655396,5.263715744018555,0.11737817525863647
2.224721670150757,6.080941677093506,0.13647709786891937
2.1546292304992676,6.023210525512695,0.13604970276355743
1.8769513368606567,5.367478370666504,0.12200882285833359
1.8445967435836792,5.395171165466309,0.12339572608470917
1.9439641237258911,5.819140434265137,0.13387708365917206
1.9324287176132202,5.925737380981445,0.13705974817276
1.8970164060592651,5.9617390632629395,0.13862991333007812
1.8614495992660522,5.997453689575195,0.14020147919654846
1.8501862287521362,6.1111674308776855,0.1436019241809845
1.8126646280288696,6.142739772796631,0.1450522094964981
1.777318000793457,6.185549259185791,0.14671438932418823
1.7456576824188232,6.243210315704346,0.14874424040317535
1.7235121726989746,6.3343682289123535,0.15157757699489594
1.6896119117736816,6.387916088104248,0.15353965759277344
1.6584638357162476,6.452516555786133,0.15574105083942413
0.8147706389427185,3.2661659717559814,0.07912655174732208
1.5499813556671143,6.407092094421387,0.15579919517040253
1.467574119567871,6.258096694946289,0.15274038910865784
1.4301741123199463,6.298769950866699,0.15431196987628937
1.382910966873169,6.2933030128479,0.15474390983581543
1.3301560878753662,6.264730930328369,0.15450593829154968
1.283363938331604,6.262507915496826,0.15492190420627594
1.2286370992660522,6.217737674713135,0.1542849987745285
1.1765625476837158,6.18406343460083,0.15392634272575378
1.1264805793762207,6.153669834136963,0.1536424160003662
1.072998285293579,6.103740215301514,0.15278461575508118
1.0298398733139038,6.111156463623047,0.15333665907382965
0.986688494682312,6.118257999420166,0.15388795733451843
0.9362382292747498,6.0787577629089355,0.15327295660972595
0.8797665238380432,5.9885172843933105,0.15137048065662384
0.8422772884368896,6.025437831878662,0.15264876186847687
0.7998611927032471,6.031204700469971,0.15306876599788666
0.7515718340873718,5.990176677703857,0.15230658650398254
0.5953912734985352,5.02966833114624,0.1281232088804245
0.4587576389312744,4.125580310821533,0.10529622435569763
0.4255874454975128,4.085941791534424,0.1044871062040329
0.3980777859687805,4.100478649139404,0.10499244928359985
0.3685912489891052,4.095387935638428,0.10498417913913727
0.3424231708049774,4.129002094268799,0.1059739887714386
0.31201592087745667,4.11574125289917,0.10576754808425903
0.27723827958106995,4.02820348739624,0.10365156829357147
0.2487151324748993,4.022235870361328,0.10361532121896744
0.22103308141231537,4.031671047210693,0.10392208397388458
0.19397738575935364,4.056517124176025,0.1046316921710968
0.31577247381210327,7.756618976593018,0.20021434128284454
0.2610824406147003,7.735204219818115,0.19981202483177185
0.2067052125930786,7.713404655456543,0.19940850138664246
0.15232987701892853,7.675610065460205,0.19849714636802673
0.09862636774778366,7.656960487365723,0.19803810119628906
0.0442684181034565,7.634037017822266,0.19747857749462128
-0.008771509863436222,7.595109462738037,0.19651378691196442
-0.06142624467611313,7.575338840484619,0.19605383276939392
-0.11362732201814651,7.543492317199707,0.1952841728925705
-0.16549736261367798,7.519100189208984,0.19457121193408966
-0.2172601968050003,7.502159118652344,0.19406084716320038
-0.26932692527770996,7.47312068939209,0.1932462453842163
-0.32129329442977905,7.4710693359375,0.1931401938199997
-0.3754616677761078,7.51155424118042,0.19414283335208893
-0.3097001314163208,5.438596248626709,0.14049416780471802
-0.34633710980415344,5.420739650726318,0.13990557193756104
-0.37706825137138367,5.312999725341797,0.13700446486473083
-0.3917805254459381,5.026059150695801,0.12949924170970917
-0.4237286448478699,4.988200664520264,0.12842456996440887
-0.43228593468666077,4.701274394989014,0.12094966322183609
-0.45821017026901245,4.632120609283447,0.11900928616523743
-0.48821377754211426,4.6055006980896,0.11814992129802704
-0.5190889835357666,4.594270706176758,0.11769509315490723
-0.5490791201591492,4.5750579833984375,0.11704132705926895
-0.5798563361167908,4.563392639160156,0.11658687144517899
-0.6093281507492065,4.543798446655273,0.11591317504644394
-0.6383004188537598,4.520110607147217,0.11506516486406326
-0.6681304574012756,4.50791072845459,0.11452087014913559
-0.6980381608009338,4.495482444763184,0.11397535353899002
-0.7255165576934814,4.467403411865234,0.11303849518299103
-0.7565550804138184,4.462260723114014,0.11268862336874008
-0.7858718633651733,4.449269771575928,0.11208441108465195
-0.8112269043922424,4.412968158721924,0.11087151616811752
-0.8414366841316223,4.407318592071533,0.11044132709503174
-0.7277887463569641,3.673569440841675,0.09181510657072067
-0.7532467842102051,3.668442964553833,0.09145160019397736
-0.7761120796203613,3.6517069339752197,0.09078621864318848
-0.9414054751396179,4.283198833465576,0.10613729804754257
-0.9869840741157532,4.349055767059326,0.10742539167404175
-1.0115680694580078,4.31935453414917,0.10635051876306534
-1.0342344045639038,4.281863212585449,0.10508993268013
-1.0639348030090332,4.274592876434326,0.10457896441221237
-1.0828728675842285,4.225518703460693,0.10296580940485
-1.1204949617385864,4.252068996429443,0.10320038348436356
-1.149532675743103,4.244325160980225,0.10260136425495148
-1.1769213676452637,4.228720664978027,0.10181087255477905
-1.2009669542312622,4.20166540145874,0.10075163096189499
-1.2345876693725586,4.208206653594971,0.10044921934604645
-1.2540853023529053,4.169839859008789,0.09906570613384247
-1.2823940515518188,4.161236763000488,0.09839601814746857
-1.3064894676208496,4.137372016906738,0.09736274182796478
-1.3255454301834106,4.098499298095703,0.09598541259765625
-1.3588794469833374,4.104043960571289,0.09560614824295044
-1.3864575624465942,4.094826698303223,0.09485916793346405
-1.4140082597732544,4.08541202545166,0.09411123394966125
-1.4345154762268066,4.053426742553711,0.09283456206321716
-1.462652564048767,4.0433759689331055,0.09206701815128326
-1.4956430196762085,4.0479655265808105,0.09159938246011734
-1.5205223560333252,4.030357837677002,0.0905902087688446
-1.5447983741760254,4.012765884399414,0.08959735929965973
-1.5726574659347534,4.001948833465576,0.08874122053384781
-1.600407361984253,3.9909512996673584,0.08788608759641647
-1.6199798583984375,3.96197772026062,0.08659914880990982
-1.6469056606292725,3.9508814811706543,0.08567888289690018
-1.6705440282821655,3.932478904724121,0.08460931479930878
-1.6947271823883057,3.9136276245117188,0.0835183784365654
-1.7218233346939087,3.9018023014068604,0.08258195221424103
-1.7349443435668945,3.86177921295166,0.08100035041570663
-1.7610740661621094,3.849954605102539,0.08000577241182327
-1.7842066287994385,3.8306944370269775,0.07885085791349411
-1.8107962608337402,3.818218231201172,0.07783234119415283
-1.8298649787902832,3.7917985916137695,0.07650824636220932
-1.8515170812606812,3.772594928741455,0.07531595230102539
-1.8913460969924927,3.7877631187438965,0.07477934658527374
-1.901755928993225,3.7431838512420654,0.07305600494146347
-1.9327954053878784,3.740466594696045,0.07214491069316864
-1.9538525342941284,3.7207119464874268,0.07087145000696182
-1.6825366020202637,3.1528706550598145,0.05929087847471237
-1.6913928985595703,3.117076873779297,0.05782530829310417
-1.7093756198883057,3.0983521938323975,0.05666733160614967
-1.7296473979949951,3.0871005058288574,0.05563898757100105
-0.8093753457069397,1.4223649501800537,0.025249773636460304
-0.7625594139099121,1.3186488151550293,0.02303178980946541
-0.7715287804603577,1.3134292364120483,0.02255677618086338
-0.8442354202270508,1.4156420230865479,0.023876214399933815
-0.8780056834220886,1.4500395059585571,0.02400113455951214
-0.8675844073295593,1.410651445388794,0.022889187559485435
-0.8892550468444824,1.4248026609420776,0.022643981501460075
-0.9026026129722595,1.4256482124328613,0.02217690460383892
-2.3429272174835205,3.4892051219940186,0.048968296498060226
-1.3856701850891113,2.033559560775757,0.027685709297657013
-1.4054126739501953,2.034238576889038,0.026803480461239815
-1.3429967164993286,1.915890097618103,0.024350611492991447
-1.5630100965499878,2.1379072666168213,0.023913322016596794
-2.5692458152770996,3.4682817459106445,0.03687330335378647
-1.2846829891204834,1.837478518486023,-0.02582879178225994
-1.6097148656845093,2.3393077850341797,-0.03418268263339996
-1.2570713758468628,1.8846641778945923,-0.029477311298251152
-0.8537213206291199,1.3870404958724976,-0.02478558011353016
-0.8702986836433411,1.436398983001709,-0.026238147169351578
-0.8015942573547363,1.3455277681350708,-0.0251055546104908
-0.7957751154899597,1.3580273389816284,-0.02585272677242756
-0.7607796788215637,1.3196289539337158,-0.025607088580727577
-0.8205031156539917,1.447432518005371,-0.028596164658665657
-0.9998781085014343,1.7946261167526245,-0.036078080534935
-1.6180238723754883,2.9523403644561768,-0.0603145994246006
-1.6324437856674194,3.0289359092712402,-0.06285694241523743
-1.5951194763183594,3.0134246349334717,-0.06349355727434158
-1.6327588558197021,3.1391971111297607,-0.06710471957921982
-1.6073349714279175,3.1434948444366455,-0.06811858713626862
-1.581526756286621,3.147794008255005,-0.06911938637495041
-1.558525562286377,3.1592204570770264,-0.07025781273841858
-1.5389140844345093,3.1774754524230957,-0.07155121862888336
-1.5167618989944458,3.188084602355957,-0.07263994216918945
-1.4941641092300415,3.1987133026123047,-0.07371701300144196
-1.4741644859313965,3.2165486812591553,-0.07494407147169113
-1.4510928392410278,3.2269983291625977,-0.07599390298128128
-1.4286189079284668,3.2369861602783203,-0.077013298869133
-1.408528447151184,3.2542667388916016,-0.0782136395573616
-1.3849987983703613,3.264326572418213,-0.07919193059206009
-1.3674451112747192,3.288619041442871,-0.08052128553390503
-1.341583251953125,3.290797710418701,-0.08128959685564041
-1.3215281963348389,3.3072915077209473,-0.08241626620292664
-1.2973406314849854,3.31683087348938,-0.08334138989448547
-1.2776256799697876,3.3369998931884766,-0.08452387899160385
-1.254163146018982,3.3458659648895264,-0.08541012555360794
-1.2309062480926514,3.3544692993164062,-0.08628631383180618
-1.2072876691818237,3.3630199432373047,-0.08713991940021515
-1.1827818155288696,3.371694803237915,-0.08797691017389297
-1.1612730026245117,3.387399196624756,-0.08899006247520447
-1.145093321800232,3.4176011085510254,-0.09038045257329941
-1.1188585758209229,3.418041229248047,-0.09099003672599792
-1.101686954498291,3.4481990337371826,-0.09235178679227829
-1.069632887840271,3.433723211288452,-0.09252028912305832
-1.045319676399231,3.4411826133728027,-0.09326609969139099
-1.0191140174865723,3.4408700466156006,-0.09379623830318451
-1.1986463069915771,4.153209686279297,-0.11386510729789734
-1.1648099422454834,4.146582126617432,-0.11425144970417023
-1.1475967168807983,4.199952602386475,-0.11630089581012726
-1.1195491552352905,4.215574264526367,-0.11732034385204315
-1.1009589433670044,4.2648210525512695,-0.11927181482315063
-1.074999213218689,4.287520885467529,-0.12048035860061646
-1.050125241279602,4.317776679992676,-0.12183547019958496
-1.0212926864624023,4.332691192626953,-0.1227673664689064
-0.9938863515853882,4.355061054229736,-0.12392199784517288
-0.9661009311676025,4.373286247253418,-0.12495572119951248
-0.9421039819717407,4.410446643829346,-0.12652507424354553
-0.9093287587165833,4.409329414367676,-0.1269247829914093
-0.8811861872673035,4.430947303771973,-0.12798605859279633
-0.8540135025978088,4.460102558135986,-0.12927865982055664
-0.821570098400116,4.458233833312988,-0.129669189453125
-0.7931998372077942,4.479213714599609,-0.13072070479393005
-0.7603211402893066,4.476975917816162,-0.13099631667137146
-0.733112096786499,4.509191036224365,-0.13228842616081238
-0.7034013271331787,4.529712200164795,-0.13325060904026031
-0.674176037311554,4.549928665161133,-0.13420456647872925
-0.6425219178199768,4.554492473602295,-0.13470451533794403
-0.6105261445045471,4.558879375457764,-0.13510824739933014
-0.5814295411109924,4.586285591125488,-0.13619676232337952
-0.5521041750907898,4.613491058349609,-0.13728776574134827
-0.520341157913208,4.625028133392334,-0.1379241794347763
-0.4886258840560913,4.6324005126953125,-0.13843855261802673
-0.45851367712020874,4.659008979797363,-0.13945254683494568
-0.4407697916030884,4.825408935546875,-0.1446349024772644
-0.41223466396331787,4.890618324279785,-0.14680053293704987
-0.36652040481567383,4.749364376068115,-0.1427745372056961
-0.33895808458328247,4.829687118530273,-0.14540995657444
-0.2993873357772827,4.7384033203125,-0.142830953001976
-0.2693467438220978,4.794950485229492,-0.1446528285741806
-0.23661315441131592,4.8123087882995605,-0.14530128240585327
-0.2004888951778412,4.7670488357543945,-0.14406739175319672
-0.16672568023204803,4.752716064453125,-0.14377106726169586
-0.13359712064266205,4.753757953643799,-0.14392465353012085
-0.09986943006515503,4.72724723815918,-0.14315588772296906
-0.06664001941680908,4.712211608886719,-0.14274129271507263
-0.03321290761232376,4.712563514709473,-0.1428004652261734
-0.00047330098459497094,4.615067481994629,-0.13989946246147156
0.03191544860601425,4.657905101776123,-0.14125876128673553
0.06450796127319336,4.67318868637085,-0.1416885107755661
0.09540623426437378,4.598461627960205,-0.13938261568546295
0.12736646831035614,4.597688674926758,-0.13932567834854126
0.16046002507209778,4.612281799316406,-0.13974055647850037
0.18913643062114716,4.529133319854736,-0.13720166683197021
0.20915168523788452,4.29372501373291,-0.12999331951141357
0.2348017692565918,4.218106269836426,-0.12758494913578033
0.26234170794487,4.189103603363037,-0.12659552693367004
0.29386937618255615,4.214413166046143,-0.1272514909505844
0.32316839694976807,4.212272644042969,-0.12708598375320435
0.38009098172187805,4.540657997131348,-0.13686105608940125
0.40723878145217896,4.491268634796143,-0.13516339659690857
0.44362974166870117,4.542755126953125,-0.13650748133659363
0.4776812195777893,4.5589399337768555,-0.13679033517837524
0.5093097686767578,4.55552339553833,-0.13649404048919678
0.5386517643928528,4.532496929168701,-0.13561728596687317
0.5742178559303284,4.563560962677002,-0.136253222823143
0.6133579611778259,4.61756706237793,-0.1375720202922821
0.6333368420600891,4.5242180824279785,-0.13450349867343903
0.655121386051178,4.45404577255249,-0.13214321434497833
0.70218425989151,4.553581237792969,-0.13482163846492767
0.7360532879829407,4.5640645027160645,-0.13478010892868042
0.7576904892921448,4.501155376434326,-0.13255155086517334
0.7906816005706787,4.507386207580566,-0.13236865401268005
0.8211783766746521,4.494007587432861,-0.1316055804491043
0.870673418045044,4.5840959548950195,-0.13387805223464966
0.9007772207260132,4.570333957672119,-0.13305754959583282
0.9383417963981628,4.594675064086914,-0.13330143690109253
0.9763232469558716,4.618706226348877,-0.13353583216667175
1.0390346050262451,4.749020099639893,-0.13681821525096893
1.0487847328186035,4.638867378234863,-0.13318416476249695
1.0790441036224365,4.6239237785339355,-0.1322554051876068
1.125274896621704,4.677196502685547,-0.1332186609506607
1.161012887954712,4.684569358825684,-0.13287171721458435
1.2008248567581177,4.702760219573975,-0.1328153759241104
1.2375212907791138,4.709411144256592,-0.13244234025478363
1.276093602180481,4.723402976989746,-0.1322382539510727
1.3186811208724976,4.752252101898193,-0.13238736987113953
1.3296297788619995,4.668074131011963,-0.12939907610416412
1.4096876382827759,4.8197550773620605,-0.13291917741298676
1.4578166007995605,4.858466148376465,-0.1333097219467163
0.9034587740898132,2.9373724460601807,-0.08016271889209747
0.9140089750289917,2.9013874530792236,-0.07871974259614944
0.9313037991523743,2.8876943588256836,-0.07789114862680435
0.9431213140487671,2.8551008701324463,-0.07654343545436859
0.9604246020317078,2.8411004543304443,-0.0757116973400116
0.9746971130371094,2.8197317123413086,-0.0746564120054245
0.9885208010673523,2.798372268676758,-0.07358880341053009
1.0128185749053955,2.806300163269043,-0.07329171895980835
1.0296412706375122,2.7918667793273926,-0.07240015268325806
1.0383869409561157,2.7552833557128906,-0.07093559950590134
1.054221749305725,2.7409160137176514,-0.07001713663339615
1.0669804811477661,2.71921968460083,-0.06891502439975739
1.0783613920211792,2.6937243938446045,-0.06771686673164368
1.0911710262298584,2.6717138290405273,-0.06660870462656021
1.1068288087844849,2.656825304031372,-0.06566078960895538
1.127675175666809,2.656550645828247,-0.06505554169416428
1.136206865310669,2.627422332763672,-0.06374850869178772
1.1481592655181885,2.6051790714263916,-0.06259893625974655
1.163076639175415,2.590013027191162,-0.061626821756362915
1.1758708953857422,2.5713717937469482,-0.0605350062251091
1.1897571086883545,2.5563833713531494,-0.059542737901210785
1.1838743686676025,2.4987616539001465,-0.05755797028541565
1.1944011449813843,2.4764339923858643,-0.056398503482341766
1.2059499025344849,2.457805871963501,-0.05530799925327301
1.2155545949935913,2.4356424808502197,-0.05412169173359871
1.2250161170959473,2.4134104251861572,-0.052940014749765396
1.2345818281173706,2.3909823894500732,-0.051749732345342636
1.2543611526489258,2.3895103931427,-0.051001958549022675
1.2590832710266113,2.360518455505371,-0.04966059699654579
1.2639108896255493,2.3313350677490234,-0.04830989986658096
1.27472984790802,2.3120858669281006,-0.04714557155966759
1.2864083051681519,2.2966787815093994,-0.046065520495176315
1.305346965789795,2.2949774265289307,-0.0452534481883049
1.3171205520629883,2.279242753982544,-0.04413478821516037
1.3329505920410156,2.270040512084961,-0.04313375800848007
1.3320887088775635,2.2342638969421387,-0.04160679131746292
1.3427274227142334,2.2187798023223877,-0.04047904163599014
1.3580894470214844,2.2094292640686035,-0.03942236304283142
1.3729510307312012,2.2002439498901367,-0.03836018964648247
1.3704490661621094,2.164929151535034,-0.0368436835706234
1.3812026977539062,2.148822546005249,-0.035605207085609436
1.3937538862228394,2.136059522628784,-0.03442639857530594
1.4074164628982544,2.1270999908447266,-0.03330672159790993
1.4216771125793457,2.1176133155822754,-0.032132912427186966
1.4186184406280518,2.081976890563965,-0.030538566410541534
1.4365112781524658,2.0791916847229004,-0.029400883242487907
1.4415063858032227,2.056698799133301,-0.02794599160552025
1.4507157802581787,2.0406527519226074,-0.026557477191090584
1.4862736463546753,2.0632550716400146,-0.025655226781964302
1.4821242094039917,2.0276753902435303,-0.023895369842648506
1.4647687673568726,1.9774179458618164,-0.021992729976773262
2.295733690261841,3.212944269180298,0.054103586822748184
2.282008647918701,3.241791248321533,0.05667269229888916
2.3090691566467285,3.3324239253997803,0.06034434586763382
2.5922229290008545,3.8012759685516357,0.07111574709415436
3.1558868885040283,4.697824478149414,0.09050287306308746
3.1244730949401855,4.728082656860352,0.09365842491388321
3.0956971645355225,4.760897159576416,0.09680555015802383
3.1003901958465576,4.8414788246154785,0.10080967843532562
1.6380211114883423,2.6008923053741455,0.055395714938640594
1.6190162897109985,2.6127333641052246,0.056841786950826645
1.5682531595230103,2.5705599784851074,0.05703823268413544
2.794536590576172,4.658690929412842,0.10538101196289062
2.759861707687378,4.679261207580566,0.10779546946287155
2.7605741024017334,4.755714416503906,0.11140214651823044
2.7344350814819336,4.788735389709473,0.11400802433490753
2.459881067276001,4.383141994476318,0.10598552227020264
2.4032692909240723,4.3564934730529785,0.10693110525608063
1.350353479385376,2.488595962524414,0.06194443255662918
2.3946070671081543,4.489937782287598,0.11325953900814056
2.455659866333008,4.687313079833984,0.11976823955774307
2.4491982460021973,4.756628513336182,0.12302566319704056
2.394273042678833,4.732000350952148,0.12386269867420197
2.3375051021575928,4.7036261558532715,0.12450797855854034
1.1900261640548706,2.4392528533935547,0.06527423113584518
1.1827682256698608,2.4687623977661133,0.0667562410235405
1.2004252672195435,2.5511341094970703,0.06968420743942261
1.1821898221969604,2.559610605239868,0.0705965906381607
1.1711816787719727,2.586090087890625,0.07200565934181213
1.1589127779006958,2.60868763923645,0.07329592108726501
1.1407132148742676,2.6166722774505615,0.07416276633739471
1.1223782300949097,2.6245646476745605,0.07502347975969315
2.0421109199523926,4.872673988342285,0.1403895616531372
2.016458511352539,4.912859916687012,0.14268086850643158
1.9878885746002197,4.941286563873291,0.14458690583705902
1.976407766342163,5.013064384460449,0.1477780044078827
2.0152711868286133,5.220002174377441,0.1549604833126068
1.9775662422180176,5.234359264373779,0.156428262591362
1.952892541885376,5.28521728515625,0.15901349484920502
1.933325171470642,5.346373081207275,0.16188493371009827
1.9038841724395752,5.381741046905518,0.1639968305826187
1.860285758972168,5.380402088165283,0.16489891707897186
1.8552905321121216,5.493477821350098,0.16930589079856873
1.935372233390808,5.8700995445251465,0.18192853033542633
1.917145013809204,5.954020023345947,0.18552768230438232
1.875647783279419,5.9671783447265625,0.186941459774971
1.8570359945297241,6.058767795562744,0.19072359800338745
1.8270090818405151,6.116763114929199,0.19346164166927338
1.7977806329727173,6.178255558013916,0.19632486999034882
1.7678838968276978,6.239606857299805,0.19920560717582703
1.7389823198318481,6.304402828216553,0.20220573246479034
1.7093794345855713,6.373110294342041,0.2052302062511444
1.6697502136230469,6.407780170440674,0.20714960992336273
0.5257785320281982,2.0779855251312256,0.06743787974119186
1.5732280015945435,6.407963752746582,0.2087714821100235
0.7986862063407898,3.3536813259124756,0.10968396812677383
1.4614611864089966,6.334169864654541,0.20787571370601654
1.40199613571167,6.279576301574707,0.2067382037639618
1.354088306427002,6.274072170257568,0.20721900463104248
1.3023463487625122,6.249095439910889,0.207061767578125
1.2479976415634155,6.204400539398193,0.20623959600925446
1.1904844045639038,6.140118598937988,0.20472033321857452
1.141208529472351,6.117671966552734,0.204478919506073
1.095754623413086,6.1140522956848145,0.20487350225448608
1.0480748414993286,6.098612308502197,0.2048836350440979
1.004373550415039,6.0980224609375,0.2053859829902649
0.9528313279151917,6.0469865798950195,0.20419344305992126
0.9009974002838135,5.991745471954346,0.20272301137447357
0.8664916157722473,6.052031993865967,0.20514288544654846
0.8147010207176208,5.996168613433838,0.20364171266555786
0.7694530487060547,5.974570274353027,0.20329730212688446
0.6401604413986206,5.2589287757873535,0.17929619550704956
0.5785225629806519,5.046053409576416,0.17234548926353455
0.5534628629684448,5.147023677825928,0.17603088915348053
0.5231614708900452,5.209036827087402,0.17839951813220978
0.38674813508987427,4.147548198699951,0.14225240051746368
0.3538762331008911,4.103452205657959,0.14094649255275726
0.33242952823638916,4.195313453674316,0.14431960880756378
0.30227211117744446,4.185844421386719,0.1441342979669571
0.2709008455276489,4.156688213348389,0.1432451605796814
0.2456120252609253,4.2325544357299805,0.14598557353019714
0.3982740044593811,7.801605701446533,0.2693261504173279
0.3429470658302307,7.78077507019043,0.26885920763015747
0.28776928782463074,7.755654335021973,0.26823508739471436
0.2325308471918106,7.718446254730225,0.26700490713119507
0.17683792114257812,7.680868625640869,0.26577574014663696
0.12298580259084702,7.662394046783447,0.26521867513656616
0.06944438070058823,7.631829738616943,0.26425519585609436
0.01642577350139618,7.608700275421143,0.26356106996536255
-0.03633909299969673,7.585206031799316,0.2627832293510437
-0.08952885866165161,7.5496296882629395,0.2614876329898834
-0.14132548868656158,7.517603874206543,0.26032930612564087
-0.19335897266864777,7.50863790512085,0.25998228788375854
-0.2446366250514984,7.479803085327148,0.2589600086212158
-0.29567766189575195,7.454519748687744,0.25807327032089233
-0.34842371940612793,7.475697994232178,0.2586546242237091
-0.2914350926876068,5.430351734161377,0.18774700164794922
-0.3289765417575836,5.428213596343994,0.18754473328590393
-0.3635570704936981,5.379061698913574,0.18572746217250824
-0.37651604413986206,5.04939079284668,0.17424137890338898
-0.4049331545829773,4.964947700500488,0.17122098803520203
-0.4370265603065491,4.930883884429932,0.1698155552148819
-0.4427800178527832,4.632410049438477,0.15933093428611755
-0.474000483751297,4.621481418609619,0.15875685214996338
-0.5043757557868958,4.602566719055176,0.15791620314121246
-0.5318425893783569,4.560181617736816,0.15627984702587128
-0.5620033144950867,4.5408406257629395,0.15538665652275085
-0.594216525554657,4.544626712799072,0.15523704886436462
-0.6254866719245911,4.54044246673584,0.1548217087984085
-0.6557841897010803,4.528290748596191,0.15414099395275116
-0.6830554604530334,4.496631622314453,0.15280526876449585
-0.7135927081108093,4.483994960784912,0.15212048590183258
-0.744316577911377,4.479015350341797,0.15159663558006287
-0.772291898727417,4.458446502685547,0.15053953230381012
-0.7986776232719421,4.430013656616211,0.14922653138637543
-0.8280498385429382,4.416690826416016,0.14842678606510162
-0.849068284034729,4.361021518707275,0.1462155431509018
-0.7444208860397339,3.685265302658081,0.12323527038097382
-0.7664052248001099,3.6648213863372803,0.12217774987220764
-0.7873196601867676,3.6404333114624023,0.12099795788526535
-0.9674242734909058,4.328385829925537,0.14342886209487915
-0.9974032640457153,4.321597576141357,0.14277362823486328
-1.0242818593978882,4.299275875091553,0.14160561561584473
-1.0498011112213135,4.277061462402344,0.14036361873149872
-1.0788172483444214,4.269859790802002,0.1396174430847168
-1.1030291318893433,4.243525981903076,0.1382516771554947
-1.1334865093231201,4.239558696746826,0.1376141458749771
-1.1623387336730957,4.227715492248535,0.13671967387199402
-1.196536898612976,4.238478660583496,0.1365034282207489
-1.2208341360092163,4.215315818786621,0.1351587474346161
-1.2460218667984009,4.195749282836914,0.1339385062456131
-1.266024112701416,4.157143592834473,0.13210785388946533
-1.2907967567443848,4.133187770843506,0.13074339926242828
-1.3334466218948364,4.168874740600586,0.13123823702335358
-1.3543225526809692,4.137526988983154,0.12956388294696808
-1.3773152828216553,4.113493919372559,0.12813064455986023
-1.400614619255066,4.089144229888916,0.1266845017671585
-1.4237494468688965,4.064631938934326,0.12524177134037018
-1.452102780342102,4.054620265960693,0.12421099841594696
-1.473922848701477,4.03014612197876,0.1226966604590416
-1.4968116283416748,4.009232044219971,0.12130207568407059
-1.531386375427246,4.017087459564209,0.12076020240783691
-1.5592621564865112,4.006382465362549,0.11965690553188324
-1.5842316150665283,3.9882071018218994,0.1182933822274208
-1.6065003871917725,3.9666879177093506,0.11680919677019119
-1.6300100088119507,3.948671817779541,0.11543827503919601
-1.6604313850402832,3.944486141204834,0.11444436013698578
-1.6877927780151367,3.9328911304473877,0.11323942244052887
-1.7054471969604492,3.8997457027435303,0.11135570704936981
-1.731393814086914,3.888331651687622,0.11009326577186584
-1.7512059211730957,3.8623411655426025,0.10841233283281326
-1.778041124343872,3.8500983715057373,0.10709867626428604
-1.801345944404602,3.830657482147217,0.10558383911848068
-1.830531120300293,3.825495481491089,0.10437735170125961
-1.8490492105484009,3.7992520332336426,0.10261978954076767
-1.8683643341064453,3.7724058628082275,0.10081422328948975
-1.9015953540802002,3.773303270339966,0.0997491180896759
-1.916153073310852,3.7396609783172607,0.09773524850606918
-1.9516541957855225,3.7477331161499023,0.09680166840553284
-1.9702590703964233,3.7203586101531982,0.09490001201629639
-2.003495931625366,3.7203569412231445,0.09369630366563797
-1.7097184658050537,3.1244585514068604,0.07764220982789993
-1.7187697887420654,3.0927412509918213,0.07579223811626434
-1.7358721494674683,3.074241876602173,0.0742412656545639
-0.7699331045150757,1.3412712812423706,0.031888190656900406
-0.7749285697937012,1.329372763633728,0.031102044507861137
-0.7935280799865723,1.3411097526550293,0.03086172044277191
-0.8731035590171814,1.4528234004974365,0.032843880355358124
-0.8913236856460571,1.4600682258605957,0.03240359202027321
-0.8885719776153564,1.4342671632766724,0.03120321035385132
-0.9021199345588684,1.4350359439849854,0.030588798224925995
-1.2263286113739014,1.7874958515167236,0.03264345973730087
-1.3612942695617676,1.9553720951080322,0.03454024717211723
-1.299910306930542,1.8743478059768677,-0.03398970514535904
-1.3147422075271606,1.925748348236084,-0.03627700358629227
-1.3556089401245117,2.0159761905670166,-0.03931383416056633
-1.2777189016342163,1.9317495822906494,-0.03894149139523506
-1.2466691732406616,1.9147251844406128,-0.039783090353012085
-0.8795210719108582,1.4397917985916138,-0.03314274922013283
-0.8604891300201416,1.4330337047576904,-0.033749476075172424
-0.8204458951950073,1.3886792659759521,-0.03339249640703201
-0.7911357283592224,1.3605717420578003,-0.03336964547634125
-0.7888531684875488,1.3799000978469849,-0.034486234188079834
-0.8553181886672974,1.5217669010162354,-0.038726650178432465
-1.64178466796875,2.9700963497161865,-0.0768975168466568
-1.6429003477096558,3.022883415222168,-0.07955913990736008
-1.6022164821624756,3.000401496887207,-0.08023162186145782
-1.5736171007156372,2.9978280067443848,-0.08137605339288712
-1.6190232038497925,3.137040853500366,-0.08639220893383026
-1.5924675464630127,3.141808271408081,-0.08774632215499878
-1.5625637769699097,3.1393065452575684,-0.08885957300662994
-1.5575867891311646,3.1852638721466064,-0.09131570160388947
-1.5319740772247314,3.188957691192627,-0.09256337583065033
-1.5055769681930542,3.19283127784729,-0.09377183020114899
-1.4856045246124268,3.2107388973236084,-0.09538586437702179
-1.459393858909607,3.214120864868164,-0.09655478596687317
-1.4401562213897705,3.231297731399536,-0.09811563044786453
-1.4201208353042603,3.248638153076172,-0.09965386986732483
-1.3935106992721558,3.251605987548828,-0.1007428914308548
-1.3765764236450195,3.2757198810577393,-0.10247024148702621
-1.3563710451126099,3.2925448417663574,-0.10398221015930176
-1.3301892280578613,3.2947499752044678,-0.10498998314142227
-1.5649189949035645,3.957754135131836,-0.12720082700252533
-1.5422799587249756,3.983336925506592,-0.1291070133447647
-1.520016074180603,4.008547306060791,-0.13099032640457153
-1.4914664030075073,4.019209384918213,-0.13242526352405548
-1.469180941581726,4.0481390953063965,-0.1343691647052765
-1.4478946924209595,4.08062219619751,-0.13644671440124512
-1.4295084476470947,4.12013053894043,-0.1387537568807602
-1.403383493423462,4.137304306030273,-0.14031502604484558
-1.3761804103851318,4.154614448547363,-0.1418599635362625
-1.3525439500808716,4.18284797668457,-0.1437186896800995
-1.3204212188720703,4.184870719909668,-0.14468435943126678
-1.2981544733047485,4.216305732727051,-0.14665833115577698
-1.2687416076660156,4.225207328796387,-0.14786137640476227
-1.2409690618515015,4.241544246673584,-0.14925086498260498
-1.2123239040374756,4.257899284362793,-0.15064090490341187
-1.1843420267105103,4.273831367492676,-0.15200446546077728
-1.1606988906860352,4.304539203643799,-0.15389502048492432
-1.1247671842575073,4.289817810058594,-0.15416979789733887
-1.1039862632751465,4.335473537445068,-0.15650759637355804
-1.0689505338668823,4.328125953674316,-0.15694983303546906
-1.0403209924697876,4.343090534210205,-0.15818995237350464
-1.0101076364517212,4.350181579589844,-0.15914447605609894
-0.9823595881462097,4.36850118637085,-0.16051587462425232
-0.9530761241912842,4.382943153381348,-0.16163574159145355
-0.9230948090553284,4.39730167388916,-0.16277320683002472
-0.8938112854957581,4.411282539367676,-0.1638905555009842
-0.856415331363678,4.382872104644775,-0.16343194246292114
-0.821574330329895,4.365675926208496,-0.16338896751403809
-0.7866098284721375,4.34828519821167,-0.16321316361427307
-0.7494264245033264,4.319169044494629,-0.16260692477226257
-0.7178736329078674,4.316586017608643,-0.16299201548099518
-0.6804507970809937,4.275191783905029,-0.16191042959690094
-0.6483330726623535,4.264362812042236,-0.16198724508285522
-0.6205572485923767,4.284249305725098,-0.16312357783317566
-0.5797735452651978,4.215085983276367,-0.16087113320827484
-0.5547451376914978,4.253863334655762,-0.16273514926433563
-0.5237382650375366,4.245973587036133,-0.16282036900520325
-0.48877158761024475,4.202967166900635,-0.161561980843544
-0.4610702097415924,4.221786975860596,-0.16256926953792572
-0.42987075448036194,4.209368705749512,-0.16235150396823883
-0.3969339430332184,4.181221008300781,-0.1615363210439682
-0.36608827114105225,4.164428234100342,-0.16115859150886536
-0.33514344692230225,4.1435227394104,-0.16062703728675842
-0.2989847660064697,4.048434257507324,-0.15714329481124878
-0.27607741951942444,4.132207870483398,-0.16055692732334137
-0.2440328150987625,4.091202735900879,-0.15913476049900055
-0.21192891895771027,4.022626876831055,-0.15663860738277435
-0.17419223487377167,3.809535503387451,-0.14851011335849762
-0.14941473305225372,3.8535494804382324,-0.15035942196846008
-0.12283565104007721,3.862294912338257,-0.15076255798339844
-0.09490832686424255,3.839651346206665,-0.14994871616363525
-0.07074284553527832,3.9846131801605225,-0.15568892657756805
-0.04317377880215645,4.000617504119873,-0.15640117228031158
-0.015234713442623615,3.97739839553833,-0.15557391941547394
0.01241331361234188,3.961796283721924,-0.15493151545524597
0.04027100279927254,3.9381911754608154,-0.15398353338241577
0.06779153645038605,3.945622444152832,-0.15425720810890198
0.0947219654917717,3.9255473613739014,-0.1534629613161087
0.12380193173885345,3.9833168983459473,-0.1557193249464035
0.15025995671749115,3.9511630535125732,-0.154359370470047
0.17728343605995178,3.942234754562378,-0.15389393270015717
0.2024635225534439,3.8902180194854736,-0.1517535150051117
0.22998115420341492,3.896514415740967,-0.1518980711698532
0.2570819556713104,3.894826650619507,-0.1517384946346283
0.2852310836315155,3.9085302352905273,-0.15210877358913422
0.3104153573513031,3.8831281661987305,-0.15090787410736084
0.33575430512428284,3.857522964477539,-0.14970512688159943
0.3632871210575104,3.862879991531372,-0.1497150957584381
0.3893406391143799,3.852505683898926,-0.14912258088588715
0.4223311245441437,3.907938241958618,-0.15104049444198608
0.4452987611293793,3.870043992996216,-0.14927373826503754
0.4733867943286896,3.8745901584625244,-0.149148628115654
0.5067827105522156,3.9215517044067383,-0.15066224336624146
0.5250735282897949,3.8521997928619385,-0.14771510660648346
0.5518108010292053,3.8484771251678467,-0.14728128910064697
0.5736379027366638,3.8137288093566895,-0.14556068181991577
0.6015635132789612,3.8173482418060303,-0.1453068107366562
0.6476202607154846,3.93251633644104,-0.14929835498332977
0.673663318157196,3.920238971710205,-0.14844490587711334
0.7050344944000244,3.938535690307617,-0.14875537157058716
0.7220732569694519,3.8798975944519043,-0.1460602879524231
0.7486943602561951,3.874873638153076,-0.1453924924135208
0.7920131683349609,3.949920654296875,-0.14771506190299988
0.8178746104240417,3.9366986751556396,-0.1467396467924118
0.8518316149711609,3.96146559715271,-0.14718404412269592
0.8662813305854797,3.898397922515869,-0.14427399635314941
0.9165061116218567,3.995140314102173,-0.14726120233535767
0.9318569302558899,3.9354758262634277,-0.1444694995880127
0.9629494547843933,3.944089412689209,-0.14420002698898315
0.9980162382125854,3.967603921890259,-0.14447562396526337
1.0320563316345215,3.9871530532836914,-0.14451448619365692
1.0542417764663696,3.9611830711364746,-0.1428912878036499
1.099462628364563,4.017753601074219,-0.14422738552093506
0.5980163216590881,2.127168655395508,-0.07599209249019623
0.5900481343269348,2.0442121028900146,-0.07267702370882034
1.214606523513794,4.102778434753418,-0.14506025612354279
1.2549294233322144,4.135562896728516,-0.1454002559185028
1.2745201587677002,4.096909523010254,-0.14321032166481018
1.3149064779281616,4.125162124633789,-0.14336661994457245
1.3532910346984863,4.145637035369873,-0.1432410329580307
1.3901292085647583,4.162297248840332,-0.1428738832473755
1.4461511373519897,4.234077453613281,-0.1443822979927063
1.4701272249221802,4.209318161010742,-0.14257784187793732
1.5353295803070068,4.298130035400391,-0.14458127319812775
1.5622228384017944,4.280163288116455,-0.1429615020751953
1.6115102767944336,4.324454307556152,-0.14334474503993988
1.6809322834014893,4.419351577758789,-0.14536990225315094
1.7144396305084229,4.414889335632324,-0.14407193660736084
1.7456811666488647,4.402681350708008,-0.14250411093235016
1.8063340187072754,4.466768741607666,-0.14334911108016968
1.065505862236023,2.584656000137329,-0.08222266286611557
1.0997772216796875,2.616943836212158,-0.08250455558300018
1.1133344173431396,2.5984976291656494,-0.08116930723190308
1.1424840688705444,2.615699529647827,-0.08092031627893448
1.150465965270996,2.5866105556488037,-0.07921968400478363
1.1710333824157715,2.5859713554382324,-0.07839661836624146
1.1840389966964722,2.5671801567077637,-0.07700160145759583
1.191879153251648,2.5377206802368164,-0.0752996951341629
1.1922571659088135,2.4943645000457764,-0.07314183562994003
1.2088500261306763,2.4863972663879395,-0.07204822450876236
1.2155964374542236,2.4570255279541016,-0.07031410187482834
1.22037672996521,2.424121856689453,-0.06849148869514465
1.2473018169403076,2.4367613792419434,-0.06793249398469925
1.2454301118850708,2.393815517425537,-0.06582590937614441
1.2511913776397705,2.3643646240234375,-0.06406589597463608
1.2676100730895996,2.3556346893310547,-0.06288432329893112
1.2795320749282837,2.3403146266937256,-0.06150144338607788
1.287388563156128,2.318181276321411,-0.05994350090622902
1.3033337593078613,2.30928635597229,-0.058694612234830856
1.3020590543746948,2.269604206085205,-0.05665373429656029
1.3247392177581787,2.274568557739258,-0.05573094263672829
1.3278406858444214,2.245609998703003,-0.05396999418735504
1.343420386314392,2.236356019973755,-0.05264163017272949
1.338136076927185,2.1939332485198975,-0.050540849566459656
1.3608558177947998,2.198338747024536,-0.04949946701526642
1.3716703653335571,2.182417869567871,-0.04796399548649788
1.3866572380065918,2.172956943511963,-0.0465545617043972
1.385797142982483,2.1410410404205322,-0.04466131329536438
1.4107770919799805,2.1480965614318848,-0.04354478791356087
1.430227279663086,2.1446220874786377,-0.042131196707487106
1.419840693473816,2.09987473487854,-0.039932556450366974
1.433759331703186,2.0904252529144287,-0.03837479650974274
1.434801459312439,2.0612499713897705,-0.03640226647257805
1.4433330297470093,2.045759916305542,-0.034687623381614685
1.4436943531036377,2.0167808532714844,-0.032645393162965775
1.4662106037139893,2.0198373794555664,-0.03110186755657196
1.4882361888885498,2.0231199264526367,-0.029503680765628815
2.2805261611938477,3.213874578475952,0.06994848698377609
