X,Y,Z
-0.03093625418841839,2.3319201469421387,-0.5075606107711792
-0.014744333922863007,2.332066059112549,-0.5076190829277039
0.0014608283527195454,2.324465751647949,-0.5060158371925354
0.017308900132775307,2.2480499744415283,-0.4894552528858185
0.0329507440328598,2.247905969619751,-0.48931238055229187
0.049069732427597046,2.2706174850463867,-0.4938444197177887
0.06616000086069107,2.316107749938965,-0.5033426284790039
0.08252985030412674,2.323322057723999,-0.5045378804206848
0.09900340437889099,2.3304295539855957,-0.5056909322738647
0.11512526869773865,2.322260618209839,-0.5030379891395569
0.13321207463741302,2.3559253215789795,-0.5094778537750244
0.1495940238237381,2.355156660079956,-0.5084835290908813
0.16597171127796173,2.354274034500122,-0.5074891448020935
0.18411891162395477,2.3762102127075195,-0.5110102891921997
0.20222502946853638,2.3904056549072266,-0.5127264857292175
0.21746405959129333,2.3740503787994385,-0.5079373121261597
0.23098526895046234,2.342384099960327,-0.49992114305496216
0.2537153959274292,2.4018967151641846,-0.5111233592033386
0.2751513719558716,2.4422874450683594,-0.5179329514503479
0.29518693685531616,2.4635002613067627,-0.5206230878829956
0.3166814148426056,2.495967149734497,-0.5257068276405334
0.3351069688796997,2.5017452239990234,-0.5250741243362427
0.3578817844390869,2.5377795696258545,-0.5303462147712708
0.3789518177509308,2.558488368988037,-0.5323843955993652
0.3994831442832947,2.5714290142059326,-0.5327567458152771
0.42053893208503723,2.588026762008667,-0.5339196920394897
0.4424578547477722,2.6083271503448486,-0.5353895425796509
0.464698851108551,2.628464460372925,-0.5367372632026672
0.4934599697589874,2.682333469390869,-0.5449188947677612
0.5208377838134766,2.724660634994507,-0.5506758689880371
0.5484247207641602,2.762996196746826,-0.5552121996879578
0.5785307884216309,2.81246280670166,-0.5617402195930481
0.6053815484046936,2.8429083824157715,-0.5643885135650635
0.6286037564277649,2.85439133644104,-0.5632335543632507
0.6596596837043762,2.8993892669677734,-0.5685078501701355
0.6943429708480835,2.955324649810791,-0.5753923654556274
0.7222381234169006,2.981168508529663,-0.5763967633247375
0.7515473365783691,3.0104832649230957,-0.577997624874115
0.7985377311706543,3.106508255004883,-0.592244565486908
0.8369725346565247,3.165040969848633,-0.5986724495887756
0.884743869304657,3.252797842025757,-0.6103368997573853
0.9375948309898376,3.354976177215576,-0.6245095729827881
0.9770948886871338,3.4048659801483154,-0.6287316679954529
1.030264139175415,3.498774766921997,-0.640519917011261
1.08920419216156,3.6069276332855225,-0.6544898748397827
1.1434227228164673,3.6922800540924072,-0.6638948321342468
1.1962440013885498,3.769838333129883,-0.6717191338539124
1.285803198814392,3.956871271133423,-0.6983767151832581
1.3584662675857544,4.084517002105713,-0.713801920413971
1.4156490564346313,4.160305500030518,-0.7198028564453125
1.4792447090148926,4.250035762786865,-0.7278794050216675
0.7477031946182251,2.100471019744873,-0.355919748544693
1.566907525062561,4.308006286621094,-0.7219971418380737
1.5862605571746826,4.269587516784668,-0.7076293230056763
1.6164448261260986,4.259838581085205,-0.6980111002922058
1.6381089687347412,4.228289604187012,-0.6848273873329163
1.6552917957305908,4.185844898223877,-0.6695676445960999
1.3649123907089233,3.38362193107605,-0.5345773696899414
1.3976776599884033,3.396592617034912,-0.5298239588737488
1.4246585369110107,3.3950235843658447,-0.522746741771698
1.4482247829437256,3.386322021484375,-0.514362096786499
1.4690684080123901,3.370180130004883,-0.504758358001709
1.4928908348083496,3.3609654903411865,-0.4962325096130371
1.5134137868881226,3.3445286750793457,-0.486664354801178
1.5365586280822754,3.335214853286743,-0.47797900438308716
1.549743890762329,3.304683208465576,-0.4663293957710266
1.5769095420837402,3.301661968231201,-0.4583022892475128
1.5968639850616455,3.284663438796997,-0.44845354557037354
1.6195303201675415,3.2747621536254883,-0.43949368596076965
1.6264808177947998,3.233473539352417,-0.4264005422592163
1.6794722080230713,3.281754732131958,-0.42487311363220215
2.057349443435669,3.952815532684326,-0.5021764039993286
2.0740675926208496,3.9191784858703613,-0.48810333013534546
2.0828397274017334,3.8718783855438232,-0.47256240248680115
2.0859971046447754,3.8140995502471924,-0.4557647705078125
2.152048349380493,3.8722169399261475,-0.452710896730423
2.134474992752075,3.780933141708374,-0.4321867823600769
2.153594493865967,3.7534992694854736,-0.41879555583000183
2.1919336318969727,3.759582996368408,-0.4091741144657135
2.205569267272949,3.725778579711914,-0.39516159892082214
2.2229044437408447,3.6985576152801514,-0.3819209933280945
2.26129150390625,3.7038605213165283,-0.3715977072715759
2.274975061416626,3.6692605018615723,-0.35708948969841003
2.2955265045166016,3.648419141769409,-0.3441866636276245
2.346163511276245,3.672834873199463,-0.3350520133972168
2.346367835998535,3.6182782649993896,-0.3185703456401825
2.3747706413269043,3.61014461517334,-0.3062903583049774
2.413019895553589,3.6139719486236572,-0.29436588287353516
2.416478157043457,3.5657589435577393,-0.27813130617141724
2.4444189071655273,3.5571634769439697,-0.2650948762893677
2.4910528659820557,3.573333978652954,-0.25330835580825806
2.497866153717041,3.53143048286438,-0.23697365820407867
2.516723871231079,3.509378671646118,-0.22187858819961548
2.5730881690979004,3.536987066268921,-0.2091909497976303
2.587667226791382,3.5078580379486084,-0.19270147383213043
2.7777233123779297,3.9371538162231445,0.5663329362869263
2.75801420211792,3.9723262786865234,0.5844089388847351
2.7248713970184326,3.983576536178589,0.5980777144432068
2.6929142475128174,4.003023147583008,0.6127966642379761
2.650648355484009,4.005742073059082,0.6245051622390747
2.645085334777832,4.058323860168457,0.6430792808532715
2.614567756652832,4.075992107391357,0.6560071110725403
2.5866291522979736,4.100857257843018,0.6698904633522034
2.5514109134674072,4.111728191375732,0.6811851859092712
2.5420241355895996,4.160966396331787,0.6984208226203918
2.502270460128784,4.165023326873779,0.7077128291130066
2.469886302947998,4.182358264923096,0.7191489338874817
2.4430654048919678,4.205155372619629,0.7311055660247803
2.433500051498413,4.257815837860107,0.7483174800872803
2.3957645893096924,4.26405668258667,0.7569020390510559
2.351809501647949,4.260202884674072,0.7635366916656494
2.2630856037139893,4.170650482177734,0.7544133067131042
2.2096915245056152,4.140766620635986,0.7556053400039673
2.2165095806121826,4.2270660400390625,0.778003454208374
2.1878435611724854,4.248995304107666,0.7882222533226013
2.155487298965454,4.2638349533081055,0.7971814274787903
2.1318066120147705,4.291355133056641,0.8082054853439331
2.106332778930664,4.315188407897949,0.8185737133026123
2.0689501762390137,4.318863391876221,0.8248562216758728
2.0478997230529785,4.357147216796875,0.8374953269958496
2.0119667053222656,4.36384916305542,0.8441194295883179
1.9873608350753784,4.390544891357422,0.8543697595596313
2.018676996231079,4.5435943603515625,0.8894298076629639
1.9916020631790161,4.570842742919922,0.8996623754501343
1.9478754997253418,4.563121318817139,0.9029058218002319
1.9346389770507812,4.625665664672852,0.9200477004051208
1.91340970993042,4.666317939758301,0.9327467083930969
1.8818519115447998,4.681868553161621,0.9404811859130859
1.848236322402954,4.693867206573486,0.9473101496696472
1.8088146448135376,4.695533275604248,0.951715350151062
1.7782021760940552,4.71820592880249,0.9603601098060608
3.1298773288726807,8.487398147583008,1.7347352504730225
1.3293144702911377,3.6834611892700195,0.755926787853241
1.305909514427185,3.698972463607788,0.7622124552726746
1.27107572555542,3.6858346462249756,0.7622247338294983
1.631888747215271,4.84559965133667,1.0054709911346436
1.594040870666504,4.848940372467041,1.0096135139465332
1.5865634679794312,4.94287633895874,1.0326210260391235
1.5494637489318848,4.94544792175293,1.0366207361221313
1.5162897109985352,4.962554454803467,1.0437604188919067
1.5010037422180176,5.0421247482299805,1.063330888748169
1.446218490600586,4.9893479347229,1.0550545454025269
1.4016833305358887,4.969205856323242,1.0536777973175049
0.5622759461402893,2.048007011413574,0.4354327619075775
1.3110610246658325,4.908778190612793,1.0465035438537598
1.2865878343582153,4.957733631134033,1.0598928928375244
1.2546089887619019,4.980849742889404,1.0670503377914429
1.2223631143569946,5.0037522315979,1.0742310285568237
1.188090205192566,5.019000053405762,1.079833745956421
1.1544393301010132,5.033847332000732,1.0853615999221802
1.1202470064163208,5.048541069030762,1.0909435749053955
1.091329574584961,5.085298538208008,1.1013238430023193
1.053621530532837,5.084716320037842,1.1030471324920654
1.0254895687103271,5.132632732391357,1.115201473236084
0.9830127358436584,5.109118938446045,1.1118961572647095
1.4958019256591797,8.086162567138672,1.7627456188201904
1.4452918767929077,8.129175186157227,1.7750910520553589
1.3859044313430786,8.122928619384766,1.776773452758789
1.318242073059082,8.06744384765625,1.767216682434082
1.2656768560409546,8.105942726135254,1.7776128053665161
1.2058922052383423,8.106486320495605,1.7798209190368652
1.1584206819534302,8.185822486877441,1.7993996143341064
0.5690333843231201,4.232598304748535,0.9315427541732788
0.5439208745956421,4.270097732543945,0.9409863948822021
0.5142112970352173,4.273346900939941,0.9429375529289246
0.4858569800853729,4.291720390319824,0.9476606249809265
0.45588281750679016,4.302382946014404,0.9506874680519104
0.42332953214645386,4.282413005828857,0.9469786286354065
0.3933206796646118,4.284982681274414,0.9482933878898621
0.36666807532310486,4.325338840484619,0.9580197930335999
0.33272024989128113,4.278058052062988,0.9483781456947327
0.30233174562454224,4.280062675476074,0.9495075941085815
0.2730020582675934,4.293346405029297,0.952724814414978
0.2391948103904724,4.2302751541137695,0.9390411376953125
0.2819666266441345,5.694319725036621,1.2645127773284912
0.24403582513332367,5.737856864929199,1.2747255563735962
0.20422740280628204,5.762100696563721,1.280730128288269
0.1654161512851715,5.808920383453369,1.2918124198913574
0.12522196769714355,5.821284770965576,1.2947285175323486
0.08514216542243958,5.8601298332214355,1.3032718896865845
0.044364772737026215,5.868192672729492,1.3050322532653809
0.002747425576671958,5.933166980743408,1.319514274597168
-0.03892088308930397,5.994036674499512,1.3331482410430908
-0.08054505288600922,5.993607521057129,1.3332139253616333
-0.12317539751529694,6.0424485206604,1.344305396080017
-0.16470791399478912,6.026367664337158,1.3401631116867065
-0.2077738344669342,6.063375473022461,1.3478113412857056
-0.2505711615085602,6.061944961547852,1.346967339515686
-0.172352135181427,3.5691065788269043,0.7927911281585693
-0.19906224310398102,3.602200746536255,0.799911618232727
-0.2260040044784546,3.6312899589538574,0.8061776161193848
-0.43291640281677246,6.255068778991699,1.388228416442871
-0.4803004562854767,6.297913551330566,1.396541953086853
-0.5251132249832153,6.310042858123779,1.398118495941162
-0.5700432658195496,6.321860313415527,1.3996891975402832
-0.6193664073944092,6.375113010406494,1.410485863685608
-0.6688881516456604,6.420378684997559,1.419562816619873
-0.7185553312301636,6.45381498336792,1.426066517829895
-0.7622483372688293,6.441630840301514,1.4220651388168335
-0.7984389662742615,6.372483253479004,1.4050984382629395
-0.8382919430732727,6.337174415588379,1.395681619644165
-0.8728857040405273,6.267600059509277,1.3788105249404907
-0.9221569895744324,6.295875549316406,1.383496880531311
-0.9694057106971741,6.312551975250244,1.385713815689087
-1.022987723350525,6.366573333740234,1.396176815032959
-1.074818730354309,6.409150123596191,1.4033111333847046
-1.1258050203323364,6.443850517272949,1.4086424112319946
-1.1794368028640747,6.4894208908081055,1.4163793325424194
-1.2327252626419067,6.523118495941162,1.4215065240859985
-1.2885276079177856,6.567680358886719,1.429050087928772
-1.3442494869232178,6.608046054840088,1.4357171058654785
-1.3993881940841675,6.644377708435059,1.441206693649292
-1.4431227445602417,6.628251552581787,1.4347110986709595
-1.480794906616211,6.581838130950928,1.4216948747634888
-1.512772560119629,6.516753673553467,1.404806137084961
-0.6748982667922974,2.8185088634490967,0.60635906457901
-0.6881710290908813,2.788191556930542,0.5986493825912476
-0.7038489580154419,2.76894474029541,0.5933650135993958
-0.7249776124954224,2.771930456161499,0.5924570560455322
-0.7418200969696045,2.760075807571411,0.5884106159210205
-0.7646733522415161,2.770240545272827,0.5890792608261108
-1.7523839473724365,6.182608127593994,1.311358094215393
-1.7870407104492188,6.142000198364258,1.299436330795288
-1.818651556968689,6.089993476867676,1.2851494550704956
-1.8513065576553345,6.049419403076172,1.2727959156036377
-1.8831123113632202,6.00883150100708,1.2602821588516235
-1.9132808446884155,5.964424133300781,1.2470664978027344
-1.9423564672470093,5.916041851043701,1.2330632209777832
-1.9736109972000122,5.870687007904053,1.2196509838104248
-2.0048296451568604,5.829020977020264,1.207176685333252
-2.034562826156616,5.787635326385498,1.1942893266677856
-2.0646049976348877,5.749939918518066,1.1819661855697632
-2.0929067134857178,5.708482265472412,1.168966293334961
-2.126863718032837,5.681006908416748,1.1588319540023804
-1.3942772150039673,3.6454694271087646,0.7406363487243652
-1.425504446029663,3.6508190631866455,0.7388125658035278
-1.4858132600784302,3.731245756149292,0.75169837474823
-1.49940824508667,3.6937270164489746,0.74070805311203
-1.5169677734375,3.6668221950531006,0.7319228053092957
-1.5340033769607544,3.6358115673065186,0.7222157120704651
-1.5565721988677979,3.6189157962799072,0.7153997421264648
-1.5694100856781006,3.5808956623077393,0.7043697834014893
-1.582414984703064,3.546840190887451,0.6938139796257019
-1.5966531038284302,3.5162384510040283,0.684009313583374
-1.6145802736282349,3.492236614227295,0.6754281520843506
-1.6360046863555908,3.4748995304107666,0.6681150197982788
-1.657260537147522,3.45742130279541,0.6608242392539978
-1.6805638074874878,3.447347640991211,0.6545703411102295
-1.7104904651641846,3.450995445251465,0.6508784294128418
-1.7307037115097046,3.433495283126831,0.6431109309196472
-4.528141021728516,8.83032512664795,1.6421334743499756
-2.7704005241394043,5.311489105224609,0.9806391000747681
-2.7934417724609375,5.270858287811279,0.965509295463562
-1.164661169052124,2.163461685180664,0.3931180536746979
-1.1792486906051636,2.156362771987915,0.3886064887046814
-5.019554138183594,9.02623176574707,1.612151026725769
-2.507556200027466,4.436477184295654,0.7853298187255859
-2.548576593399048,4.441584587097168,0.7786194682121277
-5.34472131729126,9.176453590393066,1.5929027795791626
-1.247345209121704,2.1086201667785645,0.36223167181015015
-2.907633066177368,4.836935043334961,0.8218042850494385
-2.9444258213043213,4.825778961181641,0.8105679154396057
-2.9802818298339844,4.814909934997559,0.7991642355918884
-3.0129408836364746,4.796672344207764,0.7862726449966431
-3.0430989265441895,4.770636558532715,0.7716107368469238
-3.061539888381958,4.728811264038086,0.7540237307548523
-3.054255247116089,4.652523994445801,0.7310736179351807
-3.0708887577056885,4.611222743988037,0.7134178876876831
-3.0561466217041016,4.5207133293151855,0.6878361701965332
-3.1037137508392334,4.528075218200684,0.6769236922264099
-3.146813154220581,4.52884578704834,0.6645867228507996
-2.8345565795898438,4.020521640777588,0.578052818775177
-6.742938995361328,9.429421424865723,1.3267569541931152
-2.929081916809082,4.043038368225098,0.5560959577560425
-2.933863639831543,3.993680238723755,0.53568434715271
-2.9663233757019043,3.9815590381622314,0.5196644067764282
-2.4483840465545654,3.4561400413513184,-0.23804871737957
-2.44020676612854,3.498886823654175,-0.25583094358444214
-2.8748056888580322,4.187767028808594,-0.3234350383281708
-2.2747535705566406,3.364290952682495,-0.27292105555534363
-1.2843153476715088,1.9301962852478027,-0.1639171540737152
-2.809014320373535,4.288491725921631,-0.37987685203552246
-2.7993717193603516,4.3396992683410645,-0.39962026476860046
-2.161421060562134,3.40580677986145,-0.32547929883003235
-1.2658392190933228,2.027284860610962,-0.20067211985588074
-1.2676674127578735,2.0620322227478027,-0.21076905727386475
-2.693610429763794,4.45431661605835,-0.4695573151111603
-2.6665701866149902,4.482436656951904,-0.4865768849849701
-2.6306586265563965,4.492910385131836,-0.5011946558952332
-2.6241261959075928,4.557860851287842,-0.5222476720809937
-1.194564700126648,2.1101911067962646,-0.24802209436893463
-1.854252576828003,3.3295094966888428,-0.4007212221622467
-1.8377221822738647,3.355076313018799,-0.41315677762031555
-1.8091951608657837,3.3603885173797607,-0.42308640480041504
-1.7933377027511597,3.3894765377044678,-0.436077356338501
-1.7727646827697754,3.4076807498931885,-0.4473875164985657
-2.4488413333892822,4.79022216796875,-0.6413522958755493
-2.4240407943725586,4.826907634735107,-0.658703088760376
-2.406461477279663,4.87699556350708,-0.6777852177619934
-2.37783145904541,4.906221866607666,-0.6942285895347595
-1.063605785369873,2.2351162433624268,-0.32168686389923096
-1.0439698696136475,2.2348837852478027,-0.3270550072193146
-1.0070515871047974,2.195603609085083,-0.3264637291431427
-1.0072410106658936,2.2371151447296143,-0.3378509283065796
-0.9909554719924927,2.243455171585083,-0.3439148962497711
-0.9882021546363831,2.2816953659057617,-0.35504046082496643
-0.968958854675293,2.28059720993042,-0.35991987586021423
-0.9556471705436707,2.293637752532959,-0.3670085072517395
-0.9390499591827393,2.2995405197143555,-0.3728680908679962
-0.9281836748123169,2.3196394443511963,-0.3810698091983795
-0.9198881983757019,2.3468639850616455,-0.3905382752418518
-0.9087238907814026,2.366783857345581,-0.3987429440021515
-0.8957634568214417,2.3831262588500977,-0.40625840425491333
-0.8892841339111328,2.4174726009368896,-0.4169386327266693
-0.8695114850997925,2.415478229522705,-0.4213569760322571
-0.8622673749923706,2.4497745037078857,-0.43220627307891846
-0.9236493110656738,2.684382200241089,-0.4786076247692108
-0.9399840235710144,2.7956976890563965,-0.5036764144897461
-0.9406070709228516,2.863330125808716,-0.5211483836174011
-0.9344297051429749,2.9127323627471924,-0.5355066061019897
-0.9178906083106995,2.9329748153686523,-0.5443915128707886
-0.8857371211051941,2.901533842086792,-0.5435890555381775
-0.7961061596870422,2.6745188236236572,-0.5056732892990112
-0.7729286551475525,2.664271593093872,-0.5083323121070862
-0.754021942615509,2.6687028408050537,-0.5134586691856384
-0.7350773215293884,2.673001289367676,-0.5185432434082031
-0.7079159021377563,2.647548198699951,-0.5178927183151245
-0.7008136510848999,2.6960561275482178,-0.531679093837738
-0.7296542525291443,2.8896567821502686,-0.5741618275642395
-0.7164969444274902,2.9235429763793945,-0.5851293802261353
-0.6870043277740479,2.8902170658111572,-0.5826497077941895
-0.6457012295722961,2.8044111728668213,-0.5694912075996399
-0.6193210482597351,2.7780330181121826,-0.5679547190666199
-0.5844407081604004,2.710312604904175,-0.5576081275939941
-0.5575503706932068,2.676015615463257,-0.5540290474891663
-0.5289462208747864,2.6302316188812256,-0.547979474067688
-0.49849754571914673,2.573009490966797,-0.5393770337104797
-0.47690072655677795,2.5569186210632324,-0.5388861298561096
-0.45489782094955444,2.536891460418701,-0.5375425219535828
-0.42673230171203613,2.479013442993164,-0.5281076431274414
-0.40935370326042175,2.4812326431274414,-0.5314325094223022
-0.3815500736236572,2.4193010330200195,-0.5205278396606445
-0.3611876368522644,2.398653030395508,-0.5183939933776855
-0.34277746081352234,2.3891868591308594,-0.5186669230461121
-0.3209231197834015,2.353100299835205,-0.5131356120109558
-0.3015557825565338,2.332061767578125,-0.5104812979698181
-0.2820374369621277,2.307116985321045,-0.5068142414093018
-0.2577943503856659,2.2403500080108643,-0.4939424693584442
-0.24134515225887299,2.2340505123138428,-0.4943338632583618
-0.2238377183675766,2.2162973880767822,-0.49195969104766846
-0.20980967581272125,2.232644557952881,-0.4969043433666229
-0.19027893245220184,2.1881158351898193,-0.48830610513687134
-0.17294448614120483,2.1662564277648926,-0.4847719967365265
-0.15841934084892273,2.1746938228607178,-0.48789581656455994
-0.14102481305599213,2.141282558441162,-0.48123273253440857
-0.12613508105278015,2.1419832706451416,-0.48224517703056335
-0.11124240607023239,2.142580509185791,-0.48325756192207336
-0.09641825407743454,2.1506943702697754,-0.48600855469703674
-0.08147584646940231,2.151190757751465,-0.48654523491859436
-0.06712022423744202,2.170628786087036,-0.49137187004089355
-0.05122024938464165,2.1366467475891113,-0.48412609100341797
-0.03649299591779709,2.1444530487060547,-0.4863671064376831
-0.021104374900460243,2.1217641830444336,-0.48134762048721313
-0.006334332749247551,2.11423921585083,-0.4796256422996521
0.00845059659332037,2.137087345123291,-0.4848172068595886
0.02348569594323635,2.152212381362915,-0.4882805347442627
0.03830888867378235,2.144428253173828,-0.48633652925491333
0.05304331332445145,2.136606454849243,-0.48410797119140625
0.06865248084068298,2.1515250205993652,-0.48704656958580017
0.08375827223062515,2.154916763305664,-0.48740366101264954
0.09977171570062637,2.1772565841674805,-0.49196645617485046
0.11411220580339432,2.161517858505249,-0.48751506209373474
0.13005752861499786,2.176116943359375,-0.4899299740791321
0.1454545557498932,2.175374984741211,-0.4888942241668701
0.1617121696472168,2.1897456645965576,-0.4912874102592468
0.1763632893562317,2.181300401687622,-0.4880877137184143
0.19088928401470184,2.172762632369995,-0.48486658930778503
0.20672927796840668,2.1793131828308105,-0.48503750562667847
0.22292973101139069,2.1857290267944336,-0.4851714074611664
0.23732909560203552,2.1769490242004395,-0.48163583874702454
0.25074303150177,2.1605224609375,-0.47628912329673767
0.2686024308204651,2.181887626647949,-0.4792909324169159
0.29220855236053467,2.2447526454925537,-0.49136292934417725
0.3123082220554352,2.273386240005493,-0.4956498444080353
0.33363598585128784,2.3095099925994873,-0.5012752413749695
0.3537830412387848,2.334127902984619,-0.504362940788269
0.3749065101146698,2.3623576164245605,-0.5081988573074341
0.39830082654953003,2.401744842529297,-0.5143167972564697
0.4092540740966797,2.3656787872314453,-0.5038819909095764
0.4335695505142212,2.4047834873199463,-0.5094284415245056
0.4637905955314636,2.473801612854004,-0.5212579965591431
0.48695531487464905,2.5012354850769043,-0.5242364406585693
0.5150421857833862,2.5510799884796143,-0.5314004421234131
0.539948582649231,2.5819485187530518,-0.5344766974449158
0.5648522973060608,2.6088037490844727,-0.5366014838218689
0.5906866788864136,2.6392416954040527,-0.5394646525382996
0.62299644947052,2.6956586837768555,-0.5472320318222046
0.6516698598861694,2.733172655105591,-0.550884485244751
0.681833803653717,2.7741551399230957,-0.5551348924636841
0.7176699638366699,2.833388566970825,-0.5628355145454407
0.7520736455917358,2.884974956512451,-0.568752110004425
0.7901743650436401,2.9474289417266846,-0.5763880610466003
0.8241071701049805,2.9910130500793457,-0.5801750421524048
0.8598465919494629,3.0379583835601807,-0.5844592452049255
0.8912681341171265,3.0660595893859863,-0.5848453044891357
0.9610910415649414,3.22298526763916,-0.6092464327812195
1.007321834564209,3.2946085929870605,-0.6171359419822693
1.0512511730194092,3.3547472953796387,-0.6226346492767334
1.1125131845474243,3.465761184692383,-0.637298047542572
1.1768773794174194,3.579812526702881,-0.6515761613845825
1.2412240505218506,3.689680337905884,-0.6647940874099731
1.3186101913452148,3.8316242694854736,-0.6832907795906067
1.3968610763549805,3.969092845916748,-0.7004555463790894
0.7593076825141907,2.1109745502471924,-0.3684520423412323
1.5414701700210571,4.194826602935791,-0.7239741086959839
1.5946035385131836,4.246762275695801,-0.7244235873222351
1.6302162408828735,4.251461982727051,-0.7168041467666626
1.6600542068481445,4.241631984710693,-0.7064818143844604
1.6839672327041626,4.217296600341797,-0.6936882138252258
1.7063356637954712,4.1891608238220215,-0.680316686630249
1.7365154027938843,4.178466320037842,-0.6696350574493408
1.4385733604431152,3.3955209255218506,-0.5368534326553345
1.4591411352157593,3.3796913623809814,-0.526968777179718
1.482855200767517,3.3707234859466553,-0.5181354284286499
1.503578543663025,3.3544154167175293,-0.5081403255462646
1.5242360830307007,3.3379499912261963,-0.49792638421058655
1.5441274642944336,3.3215999603271484,-0.4878307580947876
1.5641074180603027,3.305004358291626,-0.4776713252067566
1.5875568389892578,3.295131206512451,-0.46843212842941284
1.6105209589004517,3.2852818965911865,-0.4591292142868042
1.6267069578170776,3.2612953186035156,-0.44770827889442444
1.6531312465667725,3.257972478866577,-0.43917131423950195
1.6727012395858765,3.2405219078063965,-0.4286665916442871
2.0557923316955566,3.9173693656921387,-0.5081897974014282
2.079118251800537,3.8977487087249756,-0.4956066608428955
2.1251296997070312,3.918599843978882,-0.48787304759025574
2.1139652729034424,3.8332619667053223,-0.46677911281585693
2.121195077896118,3.7862324714660645,-0.45077404379844666
2.1549415588378906,3.786435127258301,-0.4404025375843048
2.1740376949310303,3.7589728832244873,-0.4265028238296509
2.196227788925171,3.7384166717529297,-0.41343802213668823
2.2260501384735107,3.731165647506714,-0.4016546905040741
2.244029998779297,3.7035398483276367,-0.3876025676727295
2.266123056411743,3.682248830795288,-0.3741295039653778
2.3032736778259277,3.687969923019409,-0.3633624315261841
2.3117175102233887,3.647111654281616,-0.3478991985321045
2.3338236808776855,3.625025510787964,-0.33365604281425476
2.3797495365142822,3.6428754329681396,-0.3232261538505554
2.3782906532287598,3.589036226272583,-0.3064609169960022
2.4036872386932373,3.573256254196167,-0.29238489270210266
2.445525884628296,3.5836994647979736,-0.28038549423217773
2.4562835693359375,3.5490152835845947,-0.2646281123161316
2.4769294261932373,3.5262038707733154,-0.24914149940013885
2.5232150554656982,3.5422658920288086,-0.23632046580314636
2.5283942222595215,3.5011308193206787,-0.21948672831058502
2.562319040298462,3.496730089187622,-0.20406614243984222
2.180042266845703,2.9358181953430176,-0.15852861106395721
2.777235269546509,3.9058940410614014,0.5845924615859985
2.7631099224090576,3.9512503147125244,0.6052855849266052
2.749681234359741,3.9912478923797607,0.6238694787025452
2.715057134628296,4.003163814544678,0.6378632187843323
2.691577434539795,4.035224914550781,0.6548340916633606
2.657198667526245,4.046421527862549,0.6676738262176514
2.635627031326294,4.076667785644531,0.6835386753082275
2.6074869632720947,4.101653575897217,0.6979141235351562
2.575436592102051,4.1196136474609375,0.7110164761543274
2.5499038696289062,4.142455101013184,0.7242056131362915
2.515421152114868,4.1523566246032715,0.734998345375061
2.4944405555725098,4.189855575561523,0.7504839301109314
2.4701786041259766,4.220017433166504,0.7644861936569214
2.428317070007324,4.215571403503418,0.7717238068580627
2.4051477909088135,4.244589805603027,0.78499835729599
2.3818039894104004,4.277853012084961,0.7986782789230347
2.266909122467041,4.1455607414245605,0.7813891172409058
2.2481000423431396,4.180257320404053,0.7947648763656616
2.211033821105957,4.180751323699951,0.8016581535339355
2.1973319053649902,4.22963809967041,0.8174269795417786
2.1721434593200684,4.258146286010742,0.8292421698570251
2.1450674533843994,4.2829813957214355,0.840395987033844
2.1179563999176025,4.303334712982178,0.85036700963974
2.090562582015991,4.323550701141357,0.8603383898735046
2.05798602104187,4.3375244140625,0.8685042858123779
2.0318377017974854,4.365159034729004,0.8794652223587036
1.9965404272079468,4.371358394622803,0.8860440850257874
1.9775303602218628,4.412086486816406,0.8995997905731201
2.0018410682678223,4.550929069519043,0.9332976341247559
1.9709635972976685,4.571218013763428,0.9421995282173157
1.9398455619812012,4.591300964355469,0.9511319994926453
1.9279656410217285,4.657100677490234,0.9695999026298523
1.8900911808013916,4.658665657043457,0.974674642086029
1.8726650476455688,4.70960807800293,0.9900809526443481
1.8327828645706177,4.707387924194336,0.993890106678009
1.8061319589614868,4.7408881187438965,1.0050660371780396
1.7711045742034912,4.752676010131836,1.0117065906524658
1.3444056510925293,3.6881487369537354,0.7882867455482483
1.320941686630249,3.70369815826416,0.7947465181350708
1.2821630239486694,3.675736904144287,0.7918409109115601
1.657629132270813,4.8649983406066895,1.0514551401138306
1.6171934604644775,4.86121129989624,1.0540940761566162
1.5951777696609497,4.915486812591553,1.0694624185562134
1.5432413816452026,4.870678901672363,1.0631276369094849
1.5213788747787476,4.920382022857666,1.0774646997451782
1.5118826627731323,5.014017105102539,1.1013922691345215
1.4711791276931763,5.009083271026611,1.1031506061553955
1.4305706024169922,5.003840923309326,1.1048860549926758
1.395710825920105,5.020493030548096,1.1115550994873047
1.3624331951141357,5.036475658416748,1.1179993152618408
1.2979645729064941,4.934036731719971,1.0981463193893433
1.2717379331588745,4.975311756134033,1.1101738214492798
1.2340580224990845,4.976025581359863,1.1125516891479492
1.1975499391555786,4.984020233154297,1.116654634475708
1.170307993888855,5.028772830963135,1.1290265321731567
1.138298749923706,5.050870418548584,1.136338472366333
1.1135207414627075,5.106269836425781,1.151216745376587
1.0730750560760498,5.09063720703125,1.1501489877700806
1.0377047061920166,5.104988098144531,1.1552056074142456
1.0085333585739136,5.148960590362549,1.1669145822525024
1.4865400791168213,7.8865556716918945,1.790116310119629
1.4341970682144165,7.914496421813965,1.7992984056472778
1.3920598030090332,7.998296737670898,1.8212649822235107
0.6951719522476196,4.168823719024658,0.9508619904518127
0.6694673299789429,4.195664405822754,0.9582914113998413
0.6362582445144653,4.17725944519043,0.9550790786743164
0.6077198386192322,4.188760757446289,0.9587492346763611
0.5790014863014221,4.200071334838867,0.962429404258728
0.5482280254364014,4.196069717407227,0.9626473188400269
0.5208283066749573,4.2144694328308105,0.9680353999137878
0.4941291809082031,4.240246772766113,0.9751736521720886
0.46507424116134644,4.250880241394043,0.9782773852348328
0.4370686411857605,4.272691249847412,0.9839324951171875
0.4043995440006256,4.248836040496826,0.9791198968887329
0.3693571388721466,4.198220729827881,0.9681859612464905
0.34254640340805054,4.230757713317871,0.9764541387557983
0.316473126411438,4.278299331665039,0.9882457852363586
0.28558623790740967,4.264950275421143,0.9858702421188354
0.2520046830177307,4.2059149742126465,0.9724414944648743
0.22013139724731445,4.173255920410156,0.9651592969894409
0.19083932042121887,4.174556732177734,0.9657717943191528
0.16173683106899261,4.175644397735596,0.9663801193237305
0.18422211706638336,5.796928405761719,1.3421560525894165
0.14442314207553864,5.816895008087158,1.347403645515442
0.10368974506855011,5.840503692626953,1.353109359741211
0.06294804811477661,5.833479404449463,1.3513203859329224
0.022673461586236954,5.9213080406188965,1.371567964553833
-0.018499061465263367,5.906106948852539,1.3680156469345093
-0.0605018176138401,6.000974178314209,1.39002525806427
-0.10298385471105576,6.000401973724365,1.3899980783462524
-0.1457817554473877,6.045200824737549,1.400547981262207
-0.18876896798610687,6.0784406661987305,1.407774806022644
-0.23118199408054352,6.084814071655273,1.4085780382156372
-0.27513134479522705,6.121304988861084,1.4164154529571533
-0.18698181211948395,3.6032681465148926,0.8334454894065857
-0.2129114419221878,3.609588623046875,0.8346229791641235
-0.4123879075050354,6.251598834991455,1.4451044797897339
-0.45530804991722107,6.241215229034424,1.4423600435256958
-0.5037769675254822,6.306666851043701,1.4562495946884155
-0.564096212387085,6.496916770935059,1.498928189277649
-0.6168144345283508,6.569079399108887,1.5143630504608154
-0.6481677293777466,6.424951553344727,1.4800361394882202
-0.6952666640281677,6.4434661865234375,1.4832631349563599
-0.7426540851593018,6.461638450622559,1.4864760637283325
-0.7810598611831665,6.40391206741333,1.4720832109451294
-0.8184370398521423,6.342331409454346,1.4560710191726685
-0.8543391227722168,6.280609607696533,1.4401557445526123
-0.8974490761756897,6.275259971618652,1.4372532367706299
-0.9471079111099243,6.311009883880615,1.4438079595565796
-0.9981160759925842,6.35011100769043,1.4511688947677612
-1.0523818731307983,6.399974346160889,1.4610074758529663
-1.1035797595977783,6.434689044952393,1.4669041633605957
-1.1556397676467896,6.4729132652282715,1.4732003211975098
-1.2075785398483276,6.50698709487915,1.478588581085205
-1.2636432647705078,6.5593791007995605,1.4881728887557983
-1.3190665245056152,6.599954605102539,1.4950668811798096
-1.376720905303955,6.64366340637207,1.502668857574463
-1.4270250797271729,6.653493404388428,1.5026980638504028
-1.4649492502212524,6.611240386962891,1.4900168180465698
-1.49809730052948,6.550172328948975,1.4731929302215576
-0.6675590872764587,2.830322027206421,0.6352684497833252
-0.6838427186012268,2.8112292289733887,0.6296823024749756
-0.697012722492218,2.7809531688690186,0.6216468214988708
-0.710746169090271,2.7543179988861084,0.6144772171974182
-0.7336727976799011,2.764647960662842,0.6153388619422913
-0.7575143575668335,2.7785909175872803,0.6168224811553955
-1.7379251718521118,6.206246376037598,1.3741039037704468
-1.7719404697418213,6.166126251220703,1.3617140054702759
-1.8042538166046143,6.1182379722595215,1.3476347923278809
-1.8371546268463135,6.073821544647217,1.3344204425811768
-1.870181918144226,6.033071994781494,1.3218482732772827
-1.8990001678466797,5.9814300537109375,1.3062901496887207
-1.9253268241882324,5.926213264465332,1.2901414632797241
-1.9607048034667969,5.8999152183532715,1.2803819179534912
-1.9910081624984741,5.854869365692139,1.2665108442306519
-2.0220305919647217,5.813282012939453,1.2534934282302856
-2.0496551990509033,5.76447057723999,1.238828182220459
-2.0852925777435303,5.741076946258545,1.2289541959762573
-1.3396903276443481,3.6130449771881104,0.7704421281814575
-1.3695532083511353,3.619222402572632,0.7687935829162598
-1.3992037773132324,3.621234178543091,0.7661526203155518
-1.4331676959991455,3.633704662322998,0.7657355666160583
-1.4645178318023682,3.6388187408447266,0.7635120153427124
-1.5007150173187256,3.658360481262207,0.7640354037284851
-1.5283621549606323,3.6563518047332764,0.7600579857826233
-1.5444062948226929,3.625741958618164,0.7501285672187805
-1.5638527870178223,3.6018359661102295,0.7415570616722107
-1.58034348487854,3.57063364982605,0.7314971089363098
-1.5903376340866089,3.5295276641845703,0.7191428542137146
-1.6043943166732788,3.499030828475952,0.70893394947052
-1.624607801437378,3.482412338256836,0.7016007900238037
-1.6491138935089111,3.4721243381500244,0.6953887343406677
-1.6708089113235474,3.454469919204712,0.6876423358917236
-1.6980570554733276,3.4510061740875244,0.6826047897338867
-1.7246333360671997,3.447713851928711,0.677344560623169
-2.7105326652526855,5.33100700378418,1.0402274131774902
-4.453980445861816,8.613914489746094,1.6688494682312012
-4.556259632110596,8.66386890411377,1.666303277015686
-4.658972263336182,8.713220596313477,1.6627625226974487
-1.1750882863998413,2.1637730598449707,0.4095592796802521
-1.1764451265335083,2.1331534385681152,0.40044966340065
-4.954376220703125,8.839221954345703,1.6447986364364624
-5.068880081176758,8.897953033447266,1.6408803462982178
-5.153653144836426,8.906654357910156,1.6264830827713013
-1.2489326000213623,2.12668776512146,0.38451313972473145
-1.2534161806106567,2.102555274963379,0.3762589395046234
-2.94497013092041,4.863004684448242,0.8607180118560791
-2.958740472793579,4.811619758605957,0.8420056700706482
-3.003269910812378,4.81363582611084,0.832066535949707
-3.0225586891174316,4.77638053894043,0.8155583143234253
-3.04837703704834,4.743986129760742,0.7991102337837219
-3.0246963500976562,4.637258529663086,0.7703218460083008
-3.0443267822265625,4.60355806350708,0.7534630298614502
-3.090353012084961,4.607834815979004,0.7425156235694885
-3.0864522457122803,4.533512115478516,0.7181962728500366
-3.135256767272949,4.540079593658447,0.706571638584137
-2.8358256816864014,4.052028179168701,0.6189928650856018
-2.8727197647094727,4.047271251678467,0.6058710217475891
-2.8975725173950195,4.022336006164551,0.5889156460762024
-2.918773889541626,3.9996683597564697,0.572194516658783
-2.9156453609466553,3.941689968109131,0.5499438047409058
-2.459712266921997,3.4482431411743164,-0.23577450215816498
-2.4393467903137207,3.471074104309082,-0.25244879722595215
-2.876828908920288,4.1580986976623535,-0.3202209770679474
-2.882638454437256,4.232975959777832,-0.34362781047821045
-1.30465829372406,1.9447331428527832,-0.16543717682361603
-2.768706798553467,4.193720817565918,-0.37298282980918884
-2.796334743499756,4.3043622970581055,-0.39923104643821716
-1.2967628240585327,2.0268189907073975,-0.19521376490592957
-2.7142961025238037,4.311941623687744,-0.43057650327682495
-1.2786329984664917,2.064225673675537,-0.21325227618217468
-2.6978414058685303,4.42399263381958,-0.47165021300315857
-2.1422324180603027,3.5719826221466064,-0.3927322328090668
-2.6488196849823,4.49054479598999,-0.5082786083221436
-2.616793632507324,4.507479667663574,-0.524030327796936
-1.2023781538009644,2.105375289916992,-0.2511749267578125
-2.58071231842041,4.595884799957275,-0.5621830821037292
-1.8486509323120117,3.348273277282715,-0.4195403456687927
-1.8246270418167114,3.360016345977783,-0.4306800961494446
-1.8051739931106567,3.382269859313965,-0.443139910697937
-1.7910157442092896,3.4146244525909424,-0.456983357667923
-2.4687044620513916,4.7872090339660645,-0.6536315679550171
-2.437007188796997,4.810012340545654,-0.6698665022850037
-2.394745349884033,4.811784267425537,-0.6828727126121521
-1.0786983966827393,2.2063753604888916,-0.31887087225914
-1.0529145002365112,2.1920876502990723,-0.3224034309387207
-1.027117371559143,2.177680492401123,-0.3257581889629364
-1.020965576171875,2.2052159309387207,-0.3353720009326935
-1.0048273801803589,2.2116239070892334,-0.34185338020324707
-0.9984776377677917,2.238939046859741,-0.3515048325061798
-0.9868758916854858,2.2557475566864014,-0.35947519540786743
-0.9704406261444092,2.2618582248687744,-0.36576828360557556
-0.963239848613739,2.289090633392334,-0.3754521310329437
-0.946662187576294,2.294955015182495,-0.3817625641822815
-0.9358623623847961,2.315026044845581,-0.3902337849140167
-0.9247958660125732,2.335043430328369,-0.39876610040664673
-0.9137205481529236,2.354917287826538,-0.4072853922843933
-0.89699387550354,2.3602890968322754,-0.41332754492759705
-0.8891479969024658,2.391005277633667,-0.42377138137817383
-0.8653690814971924,2.3781790733337402,-0.4264291226863861
-1.0240535736083984,2.87656307220459,-0.5217044353485107
-1.0112013816833496,2.904296398162842,-0.5326912999153137
-0.9879434108734131,2.902914524078369,-0.538122296333313
-0.9595056772232056,2.8868603706359863,-0.5408504605293274
-0.9389570951461792,2.892364263534546,-0.5474696159362793
-0.9230823516845703,2.9123451709747314,-0.5568675398826599
-0.9080092906951904,2.9359683990478516,-0.5667747259140015
-0.8172065019607544,2.709528923034668,-0.5279474854469299
-0.7860509157180786,2.673619508743286,-0.5257613062858582
-0.7646953463554382,2.6706857681274414,-0.5300655364990234
-0.7395662069320679,2.652787208557129,-0.5310690402984619
-0.7207338809967041,2.656914472579956,-0.5363025069236755
-0.7116929888725281,2.6979501247406006,-0.5490652322769165
-0.6993313431739807,2.727799654006958,-0.5596646070480347
-0.6742177605628967,2.709364414215088,-0.5602869391441345
-0.6416129469871521,2.657224416732788,-0.553499698638916
-0.6097949147224426,2.6047916412353516,-0.5465067625045776
-0.5795919895172119,2.5558106899261475,-0.5401017069816589
-0.5525450706481934,2.5177958011627197,-0.5358172655105591
-0.526544988155365,2.4834189414978027,-0.5319026112556458
-0.49754106998443604,2.4300506114959717,-0.5237600803375244
-0.47752857208251953,2.4176533222198486,-0.5243639349937439
-0.4484478831291199,2.3563199043273926,-0.5142692923545837
-0.4278094172477722,2.3361499309539795,-0.512605607509613
-0.40389516949653625,2.2970571517944336,-0.5067765712738037
-0.3826967179775238,2.2690258026123047,-0.5032876133918762
-0.359477698802948,2.2257611751556396,-0.4963548481464386
-0.33862441778182983,2.193694591522217,-0.49148324131965637
-0.3154802620410919,2.1426219940185547,-0.4821767807006836
-0.3012930750846863,2.151785373687744,-0.48643893003463745
-0.2797294557094574,2.104156970977783,-0.47780558466911316
-0.2650449573993683,2.1055562496185303,-0.48000821471214294
-0.24948137998580933,2.0993294715881348,-0.4802740812301636
-0.23398622870445251,2.0929925441741943,-0.4805293679237366
-0.2154025286436081,2.0562493801116943,-0.47379156947135925
-0.2000558227300644,2.049729347229004,-0.4738609492778778
-0.1854102611541748,2.0469441413879395,-0.47445404529571533
-0.17146210372447968,2.051637887954712,-0.47680264711380005
-0.15398608148097992,2.0107078552246094,-0.4685462415218353
-0.1405099481344223,2.0189998149871826,-0.47169867157936096
-0.12575945258140564,2.0121231079101562,-0.47089168429374695
-0.11092688888311386,1.9975358247756958,-0.46828076243400574
-0.09702648222446442,1.9980379343032837,-0.4692246615886688
-0.08344048261642456,2.0060412883758545,-0.47195613384246826
-0.0681740865111351,1.9684549570083618,-0.46350517868995667
-0.054869528859853745,1.9915847778320312,-0.4693358242511749
-0.040723767131567,1.9766063690185547,-0.46620288491249084
-0.026736779138445854,1.957728385925293,-0.46216556429862976
-0.013221317902207375,1.9692492485046387,-0.46495360136032104
0.0004338838334660977,1.9655025005340576,-0.46401140093803406
0.014365163631737232,1.9692624807357788,-0.46486330032348633
0.02829534187912941,1.9843310117721558,-0.4684077799320221
0.04172608628869057,1.9651508331298828,-0.4636242687702179
0.05541439726948738,1.9649384021759033,-0.46308985352516174
0.06883445382118225,1.9570307731628418,-0.4607659876346588
0.08323895186185837,1.9756262302398682,-0.4647029638290405
0.09833002835512161,1.9979429244995117,-0.46935680508613586
0.11137887835502625,1.9822633266448975,-0.4647604525089264
0.12709176540374756,2.012051582336426,-0.47084030508995056
0.1394830197095871,1.9885926246643066,-0.46447986364364624
0.1550816148519516,2.0105860233306885,-0.46870794892311096
0.17059624195098877,2.0249671936035156,-0.47067970037460327
0.18609721958637238,2.03924822807312,-0.47265228629112244
0.19955652952194214,2.030683994293213,-0.4693492352962494
0.2164786010980606,2.056108236312866,-0.4739139676094055
0.22700104117393494,2.0209434032440186,-0.46410512924194336
0.24405941367149353,2.0424416065216064,-0.46725764870643616
0.2626258134841919,2.075169563293457,-0.47298312187194824
0.2831595540046692,2.1190831661224365,-0.48121607303619385
0.3006168007850647,2.136475086212158,-0.48306089639663696
0.3166655898094177,2.1424498558044434,-0.4821648597717285
0.3377569317817688,2.1784250736236572,-0.48795652389526367
0.3554333448410034,2.191664218902588,-0.488664835691452
0.37524712085723877,2.2160983085632324,-0.4916223883628845
0.39076951146125793,2.214113235473633,-0.48846378922462463
0.41179996728897095,2.2420592308044434,-0.49189573526382446
0.4382530748844147,2.2960946559906006,-0.5009710192680359
0.45759278535842896,2.3086531162261963,-0.5007683634757996
0.486076682806015,2.366098403930664,-0.5099356770515442
0.513018786907196,2.4120688438415527,-0.5165007710456848
0.5365207195281982,2.439126491546631,-0.5189328789710999
0.5595961809158325,2.4622554779052734,-0.5204593539237976
0.5876756310462952,2.503859519958496,-0.5253093838691711
0.6169553995132446,2.5489935874938965,-0.5308508276939392
0.6478608846664429,2.5975749492645264,-0.5369734764099121
0.6728271245956421,2.6198954582214355,-0.5375699400901794
0.704957902431488,2.668020486831665,-0.5430072546005249
0.7431395649909973,2.734299659729004,-0.5518088936805725
0.7799479365348816,2.792888879776001,-0.5589278340339661
0.8197106122970581,2.858513116836548,-0.5672637820243835
0.859314501285553,2.920135736465454,-0.5743333101272583
0.8942413330078125,2.963040828704834,-0.5773918032646179
0.934796929359436,3.0201914310455322,-0.5829401016235352
0.9921602606773376,3.128314971923828,-0.5981146097183228
1.0462727546691895,3.221285104751587,-0.6098476052284241
1.0992271900177002,3.306480646133423,-0.6195554733276367
1.148518443107605,3.37656569480896,-0.6261228919029236
1.2230019569396973,3.515197515487671,-0.6449651122093201
1.2960063219070435,3.642072916030884,-0.6608900427818298
1.3965696096420288,3.840825319290161,-0.6890521049499512
1.46780526638031,3.9517931938171387,-0.7008200883865356
1.5381619930267334,4.054741859436035,-0.7106553316116333
1.619752049446106,4.182161808013916,-0.7242201566696167
1.6651222705841064,4.211854457855225,-0.7200506329536438
1.6945905685424805,4.201927661895752,-0.7092161178588867
1.722914457321167,4.188063621520996,-0.6976380348205566
1.7525838613510132,4.177561283111572,-0.6866161823272705
1.7574542760849,4.110204696655273,-0.6661322116851807
1.4577345848083496,3.344730854034424,-0.534268319606781
1.4908866882324219,3.35695219039917,-0.5283802151679993
1.5082982778549194,3.3336477279663086,-0.5168790817260742
1.5379496812820435,3.3385722637176514,-0.5096118450164795
1.5545850992202759,3.315199136734009,-0.4980498254299164
1.5752549171447754,3.298311710357666,-0.4872039258480072
1.5985918045043945,3.2884786128997803,-0.4775647222995758
1.6179746389389038,3.2717461585998535,-0.4668351709842682
1.6372344493865967,3.254854917526245,-0.45612475275993347
1.6603829860687256,3.2444911003112793,-0.4461756646633148
1.68679678440094,3.240945816040039,-0.43713271617889404
1.7095310688018799,3.230376720428467,-0.42693063616752625
2.1199748516082764,3.940890073776245,-0.5101613998413086
2.1237740516662598,3.8830344676971436,-0.4918820559978485
2.131884813308716,3.8357865810394287,-0.475139856338501
2.125697374343872,3.765080213546753,-0.4557368755340576
2.1487314701080322,3.744556188583374,-0.44215184450149536
2.190957546234131,3.7575342655181885,-0.43255361914634705
2.200695037841797,3.7171871662139893,-0.4167804419994354
2.226128339767456,3.703425168991089,-0.4040285348892212
2.2646470069885254,3.7088077068328857,-0.39286544919013977
2.2702794075012207,3.6610639095306396,-0.37591448426246643
2.2992005348205566,3.653507709503174,-0.3633926510810852
2.3331947326660156,3.651731014251709,-0.35096800327301025
2.341808557510376,3.6104440689086914,-0.3346470594406128
2.378812074661255,3.6154370307922363,-0.3226641118526459
2.4128499031066895,3.612839937210083,-0.3092783987522125
2.4207870960235596,3.571150779724121,-0.2924691140651703
2.4400136470794678,3.5497467517852783,-0.27748003602027893
2.5089173316955566,3.5980286598205566,-0.26726034283638
2.5070436000823975,3.5432944297790527,-0.24882404506206512
2.5169730186462402,3.5085582733154297,-0.23180559277534485
2.5640861988067627,3.523688316345215,-0.2175024449825287
2.2497506141662598,3.0487353801727295,-0.17448559403419495
2.792259454727173,3.960634231567383,0.6298290491104126
2.752901792526245,3.966618776321411,0.6442227363586426
2.7240474224090576,3.983959197998047,0.6596886515617371
2.700061321258545,4.01631498336792,0.6774241924285889
2.6601436138153076,4.021807670593262,0.6901101469993591
