X,Y,Z
-0.2024742215871811,4.350057125091553,1.0865894556045532
-0.23029157519340515,4.303264617919922,1.0746946334838867
-0.263475626707077,4.347067356109619,1.0854753255844116
-0.2950740158557892,4.368118762969971,1.0899875164031982
-0.3241384029388428,4.351162433624268,1.084980845451355
-0.34528881311416626,4.239546298980713,1.0564433336257935
-0.38294023275375366,4.331771373748779,1.0787550210952759
-0.4060254693031311,4.250001907348633,1.0577703714370728
-0.4309135973453522,4.202113628387451,1.0452988147735596
-0.45388370752334595,4.142791271209717,1.0299756526947021
-0.4832252562046051,4.147562503814697,1.0300191640853882
-0.5010815262794495,4.058011054992676,1.0067061185836792
-0.525510847568512,4.024769306182861,0.9974251985549927
-0.5455544590950012,3.96510910987854,0.9816787838935852
-0.5650264024734497,3.9053242206573486,0.9659675359725952
-0.5985434651374817,3.9429869651794434,0.9744091629981995
-0.609765350818634,3.838043689727783,0.9474208354949951
-0.6328255534172058,3.811809539794922,0.9395155310630798
-0.6479510068893433,3.744358777999878,0.9215529561042786
-0.6709721684455872,3.7254319190979004,0.9156021475791931
-0.6918796300888062,3.6951277256011963,0.9069022536277771
-0.7089429497718811,3.646035671234131,0.8936503529548645
-0.7373692393302917,3.6564481258392334,0.8950366973876953
-0.7450017929077148,3.566349506378174,0.8714025616645813
-0.7645390033721924,3.5395638942718506,0.863213300704956
-0.776296079158783,3.4792850017547607,0.8469317555427551
-0.7949413061141968,3.4523284435272217,0.8388363718986511
-0.813754677772522,3.4251649379730225,0.8307180404663086
-0.8335525393486023,3.4014999866485596,0.8234806656837463
-0.8515360355377197,3.374199628829956,0.8152938485145569
-0.8668259978294373,3.339639663696289,0.8050143122673035
-0.8836460709571838,3.3123655319213867,0.7965579032897949
-0.8910829424858093,3.251971960067749,0.7802170515060425
-0.9140172600746155,3.2463667392730713,0.7770227193832397
-0.9367382526397705,3.2406423091888428,0.7738524079322815
-0.9529258012771606,3.2128500938415527,0.7654624581336975
-0.9626234769821167,3.1670405864715576,0.7523656487464905
-0.9727928638458252,3.1248931884765625,0.7401943206787109
-0.9920874834060669,3.1116695404052734,0.7348989844322205
-1.0087802410125732,3.091102361679077,0.7279291152954102
-1.0268356800079346,3.0739426612854004,0.721775472164154
-1.03856360912323,3.038618803024292,0.7114163041114807
-1.0542739629745483,3.0179548263549805,0.7041636109352112
-1.0695492029190063,2.9972970485687256,0.6968625783920288
-1.0836505889892578,2.9728548526763916,0.6886961460113525
-1.093468427658081,2.9376111030578613,0.6780989170074463
-1.1087552309036255,2.916471481323242,0.6707684993743896
-1.126590609550476,2.9023611545562744,0.6651027202606201
-1.128051996231079,2.8494222164154053,0.6502357125282288
-1.1505420207977295,2.8496639728546143,0.6474522352218628
-1.1436219215393066,2.7791450023651123,0.6287292242050171
-1.1259211301803589,2.6839394569396973,0.6045297384262085
-1.1283190250396729,2.638181209564209,0.5915788412094116
-1.1468271017074585,2.631145715713501,0.5873069763183594
-1.1648410558700562,2.6242496967315674,0.5826899409294128
-1.1919517517089844,2.6382884979248047,0.582778811454773
-1.2273517847061157,2.6694719791412354,0.5866047739982605
-1.2495369911193848,2.6686995029449463,0.5832272171974182
-1.2552742958068848,2.6331429481506348,0.5723021626472473
-1.2685046195983887,2.6151344776153564,0.56490558385849
-1.279283046722412,2.5938873291015625,0.5568211078643799
-1.2829498052597046,2.5588736534118652,0.5458621978759766
-1.2974252700805664,2.5440738201141357,0.5391332507133484
-1.3402667045593262,2.583615779876709,0.5438439249992371
-1.318570852279663,2.500770092010498,0.5226327180862427
-1.333770513534546,2.489511013031006,0.5163038969039917
-1.332046389579773,2.4478988647460938,0.5038302540779114
-1.3493164777755737,2.439602851867676,0.4980798065662384
-1.3592122793197632,2.417651653289795,0.48953649401664734
-1.3717930316925049,2.4028799533843994,0.4822348654270172
-1.3765078783035278,2.374739646911621,0.47215908765792847
-1.386646032333374,2.3566291332244873,0.4641856253147125
-1.4035658836364746,2.3478448390960693,0.45780184864997864
-1.4121240377426147,2.325939655303955,0.4488207995891571
-1.4154407978057861,2.2980480194091797,0.43853089213371277
-1.4228073358535767,2.2765722274780273,0.4294651746749878
-1.4306550025939941,2.2546777725219727,0.4201664328575134
-1.4801958799362183,2.2975986003875732,0.4227800965309143
-1.478418231010437,2.2632477283477783,0.410847544670105
-1.484760046005249,2.241868734359741,0.4013896584510803
-1.4599777460098267,2.1715097427368164,0.3828255236148834
-1.4796634912490845,2.168851852416992,0.376305490732193
-1.5114614963531494,2.185887336730957,0.37290212512016296
-1.4993573427200317,2.13907790184021,0.358551561832428
-1.5014128684997559,2.1106081008911133,0.3468892574310303
-1.5044440031051636,2.0860254764556885,0.33568447828292847
-1.5248202085494995,2.086949586868286,0.32868245244026184
-1.5283015966415405,2.0617945194244385,0.3168124854564667
-1.48518705368042,2.0828962326049805,-0.14889398217201233
-1.4870493412017822,2.118989944458008,-0.16156989336013794
-1.5088752508163452,2.1837124824523926,-0.17643076181411743
-1.4929635524749756,2.1937711238861084,-0.18670473992824554
-1.493499755859375,2.230109453201294,-0.19934578239917755
-1.4642995595932007,2.2205464839935303,-0.20750349760055542
-1.4561572074890137,2.243539333343506,-0.2186611294746399
-1.4453479051589966,2.26340913772583,-0.2294735163450241
-1.4102494716644287,2.2432219982147217,-0.23575901985168457
-1.3775053024291992,2.2259936332702637,-0.24203336238861084
-1.3445597887039185,2.208712577819824,-0.24812349677085876
-1.318123459815979,2.200960874557495,-0.25504931807518005
-1.3061959743499756,2.2160933017730713,-0.2643035650253296
-1.2954533100128174,2.2348411083221436,-0.27405038475990295
-1.2866216897964478,2.2567853927612305,-0.2841891646385193
-1.2780603170394897,2.278416872024536,-0.29415363073349
-1.2759662866592407,2.3140010833740234,-0.30616873502731323
-1.2624784708023071,2.329096794128418,-0.3154568374156952
-1.2584567070007324,2.3609585762023926,-0.32691147923469543
-1.236027479171753,2.358520030975342,-0.33360958099365234
-1.296660304069519,2.5179693698883057,-0.36359739303588867
-1.4212082624435425,2.8096795082092285,-0.4140722453594208
-1.433837652206421,2.8842506408691406,-0.43325328826904297
-1.373792052268982,2.813178062438965,-0.43047866225242615
-1.2343854904174805,2.5741124153137207,-0.4010567367076874
-1.212404727935791,2.574697256088257,-0.4082087278366089
-1.1858142614364624,2.5644776821136475,-0.41352277994155884
-1.174742341041565,2.5894737243652344,-0.42453595995903015
-1.1510448455810547,2.5860934257507324,-0.43080833554267883
-1.140169382095337,2.6106646060943604,-0.44164782762527466
-1.1564472913742065,2.69897723197937,-0.4635043144226074
-1.1144351959228516,2.6525864601135254,-0.4621470868587494
-1.049354076385498,2.5488357543945312,-0.450518399477005
-0.993602991104126,2.462061882019043,-0.4412161111831665
-0.9476672410964966,2.396191120147705,-0.43523889780044556
-0.9122562408447266,2.3550853729248047,-0.43332207202911377
-0.8693111538887024,2.2920331954956055,-0.427113801240921
-0.8285772204399109,2.2321722507476807,-0.4212353229522705
-0.7903549671173096,2.175434112548828,-0.4155367612838745
-0.7631525993347168,2.1473629474639893,-0.4149319529533386
-0.7351129651069641,2.115410566329956,-0.41345080733299255
-0.7015267014503479,2.06497859954834,-0.4081362783908844
-0.6696426868438721,2.017937660217285,-0.4033277630805969
-0.6481180787086487,1.9997787475585938,-0.403859943151474
-0.6211004257202148,1.963148832321167,-0.4005530774593353
-0.5958082675933838,1.9299185276031494,-0.3977879583835602
-0.5699246525764465,1.892788052558899,-0.3940599262714386
-0.5477967262268066,1.8665039539337158,-0.3922065794467926
-0.5300492644309998,1.8547914028167725,-0.39341217279434204
-0.5076509714126587,1.8244380950927734,-0.39051350951194763
-0.480749249458313,1.7754220962524414,-0.3834644556045532
-0.4662116765975952,1.7705821990966797,-0.38558724522590637
-0.4432406425476074,1.7323124408721924,-0.3803582191467285
-0.4289455711841583,1.7272287607192993,-0.3823932409286499
-0.40961596369743347,1.6997202634811401,-0.3793555498123169
-0.39504095911979675,1.690682053565979,-0.3801151514053345
-0.3890209197998047,1.7187385559082031,-0.38922667503356934
-0.36303186416625977,1.6573797464370728,-0.37804996967315674
-0.34795162081718445,1.6442984342575073,-0.37783175706863403
-0.3455132842063904,1.6908389329910278,-0.39105695486068726
-0.31740203499794006,1.6103631258010864,-0.3747996687889099
-0.31175580620765686,1.6418368816375732,-0.38453778624534607
-0.278327614068985,1.5235466957092285,-0.3590852916240692
-0.2635069191455841,1.5024470090866089,-0.35615381598472595
-0.2649731934070587,1.5749757289886475,-0.37535417079925537
-0.25151845812797546,1.5612252950668335,-0.3740840554237366
-0.23075057566165924,1.4985469579696655,-0.3610067367553711
-0.21807870268821716,1.4846020936965942,-0.3593749701976776
-0.20648673176765442,1.4781336784362793,-0.3594282865524292
-0.19316935539245605,1.456508755683899,-0.35575488209724426
-0.18155121803283691,1.446082592010498,-0.3548020124435425
-0.16134463250637054,1.4477189779281616,-0.35787972807884216
-0.1106952428817749,1.450882077217102,-0.36426353454589844
0.08221521228551865,1.4558889865875244,-0.36791616678237915
0.10252460092306137,1.4550385475158691,-0.3661763668060303
0.12425515055656433,1.4691004753112793,-0.367803692817688
0.14177539944648743,1.5477895736694336,-0.3863283395767212
0.14699238538742065,1.4904930591583252,-0.3709130585193634
0.15977345407009125,1.5123790502548218,-0.37524741888046265
0.16696327924728394,1.4814791679382324,-0.36612468957901
0.18203555047512054,1.5183403491973877,-0.37372493743896484
0.19456186890602112,1.5325052738189697,-0.37573397159576416
0.21686632931232452,1.618072271347046,-0.39517197012901306
0.22183671593666077,1.571908712387085,-0.38205772638320923
0.2412261813879013,1.6271965503692627,-0.39356860518455505
0.2574964165687561,1.6560150384902954,-0.39856502413749695
0.27276313304901123,1.6772191524505615,-0.40172040462493896
0.2896326780319214,1.7058701515197754,-0.4062889814376831
0.29765576124191284,1.6819521188735962,-0.3982778787612915
0.31706124544143677,1.7216123342514038,-0.40531861782073975
0.32914212346076965,1.7199807167053223,-0.4026065766811371
0.34887251257896423,1.755639672279358,-0.4082695543766022
0.3712366223335266,1.8023746013641357,-0.4163375198841095
0.38710838556289673,1.8153667449951172,-0.41653621196746826
0.4081071615219116,1.8505715131759644,-0.4217720627784729
0.4211438298225403,1.8484512567520142,-0.41823941469192505
0.4492764174938202,1.9093681573867798,-0.4286902844905853
0.47445952892303467,1.955225944519043,-0.4356462061405182
0.4863991439342499,1.945279598236084,-0.43012362718582153
0.5058413147926331,1.9648898839950562,-0.430946946144104
0.5363489985466003,2.025015115737915,-0.4403614401817322
0.5629746913909912,2.0663490295410156,-0.44544121623039246
0.5899440050125122,2.1074938774108887,-0.45040810108184814
0.6227952837944031,2.1668174266815186,-0.45893594622612
0.6445790529251099,2.1854681968688965,-0.45851922035217285
0.6810735464096069,2.251600742340088,-0.4679042398929596
0.7188835144042969,2.3172948360443115,-0.47684434056282043
0.748060405254364,2.353480339050293,-0.479485422372818
0.788404107093811,2.4222846031188965,-0.48836013674736023
0.8334083557128906,2.5016119480133057,-0.4990425705909729
0.8796608448028564,2.5804638862609863,-0.5092716217041016
0.9245256781578064,2.6516151428222656,-0.5175811052322388
0.97968989610672,2.7476439476013184,-0.5300554037094116
1.031976342201233,2.8323631286621094,-0.5400473475456238
1.0883311033248901,2.923715591430664,-0.5508630871772766
1.1514756679534912,3.0288944244384766,-0.5637692213058472
1.2229301929473877,3.1514718532562256,-0.5791569948196411
1.2951600551605225,3.2695798873901367,-0.5930110216140747
1.4007362127304077,3.4655699729919434,-0.6202881336212158
1.4855749607086182,3.6034047603607178,-0.6362930536270142
1.599069356918335,3.804471731185913,-0.6623883843421936
1.6895934343338013,3.94400954246521,-0.6769244074821472
1.8170839548110962,4.160052299499512,-0.7033542394638062
1.925140619277954,4.3255109786987305,-0.7203516364097595
1.9458513259887695,4.292956352233887,-0.7038244009017944
1.950047254562378,4.225155830383301,-0.6817320585250854
1.5574736595153809,3.3138935565948486,-0.5259328484535217
1.5696444511413574,3.2798078060150146,-0.511608362197876
1.592499852180481,3.270371198654175,-0.5012800693511963
1.6085227727890015,3.2468268871307373,-0.48880863189697266
1.6386399269104004,3.250663995742798,-0.4803207814693451
1.6243705749511719,3.1682047843933105,-0.45921361446380615
1.6015571355819702,3.0724215507507324,-0.4365939497947693
1.6307286024093628,3.0760719776153564,-0.4280816614627838
1.6563578844070435,3.0726094245910645,-0.41853249073028564
1.709420919418335,3.120258331298828,-0.4157126843929291
1.7309917211532593,3.1097617149353027,-0.40496811270713806
1.7338200807571411,3.0650665760040283,-0.38969606161117554
1.374515175819397,2.3905770778656006,-0.2963193655014038
1.3262442350387573,2.2714180946350098,-0.27437517046928406
0.965301513671875,1.6280206441879272,-0.19144967198371887
0.8886467218399048,1.4752662181854248,-0.16857761144638062
0.8866851925849915,1.4497888088226318,-0.1608014702796936
0.9131554961204529,1.4706412553787231,-0.15806064009666443
0.9940707087516785,1.576688289642334,-0.16391874849796295
1.017660140991211,1.5900108814239502,-0.15963080525398254
1.0050429105758667,1.5478119850158691,-0.1498335748910904
1.0350418090820312,1.5706754922866821,-0.14620229601860046
1.0355007648468018,1.547608494758606,-0.13796891272068024
1.0458589792251587,1.541200876235962,-0.1314094364643097
1.0564265251159668,1.5345380306243896,-0.12468098849058151
2.565260648727417,3.6720592975616455,-0.28299540281295776
2.589416980743408,3.6563124656677246,-0.26639947295188904
2.6239593029022217,3.6520769596099854,-0.24968527257442474
2.644500494003296,3.6287670135498047,-0.2313603162765503
2.668079137802124,3.612562894821167,-0.21355144679546356
2.494338035583496,3.5406014919281006,0.6189060807228088
2.520571708679199,3.6374082565307617,0.6485621929168701
2.5503532886505127,3.7407209873199463,0.6796569228172302
1.0352904796600342,1.5418330430984497,0.28497907519340515
1.0487481355667114,1.5874186754226685,0.29809799790382385
1.014994740486145,1.5622864961624146,0.2979167401790619
1.0200068950653076,1.5947095155715942,0.308368980884552
1.0246798992156982,1.6272077560424805,0.318872332572937
1.0115675926208496,1.6343166828155518,0.3243357539176941
0.9986449480056763,1.6411774158477783,0.32969459891319275
0.9748802185058594,1.627561330795288,0.33058422803878784
0.9590035080909729,1.6270626783370972,0.33404088020324707
1.3413846492767334,2.315545082092285,0.4801458716392517
1.8438326120376587,3.239879846572876,0.6785691380500793
1.823992371559143,3.258087635040283,0.688605546951294
1.7727223634719849,3.2188608646392822,0.6863942742347717
1.7937490940093994,3.314969062805176,0.7126435041427612
1.768211841583252,3.326873779296875,0.7209398746490479
2.392422676086426,4.582717418670654,1.0009090900421143
2.3630576133728027,4.6042280197143555,1.013008952140808
2.3329412937164307,4.625843524932861,1.0249675512313843
2.307932138442993,4.661789417266846,1.039650797843933
2.2725045680999756,4.6769022941589355,1.0497690439224243
2.237572431564331,4.69148063659668,1.0597124099731445
2.2040493488311768,4.705171585083008,1.0692245960235596
2.172997236251831,4.725893497467041,1.0801246166229248
2.1374127864837646,4.74004602432251,1.0890766382217407
2.101731061935425,4.753916263580322,1.0980256795883179
2.069868326187134,4.774187088012695,1.108380675315857
2.017310619354248,4.744867324829102,1.107172966003418
1.746843934059143,4.189864635467529,0.9824676513671875
1.7184582948684692,4.208227634429932,0.9909707307815552
1.6842257976531982,4.212214469909668,0.9961433410644531
1.6584513187408447,4.237203121185303,1.006333351135254
1.627925157546997,4.247450351715088,1.0129562616348267
1.605841875076294,4.2787275314331055,1.0246021747589111
1.5748252868652344,4.288755416870117,1.0308011770248413
1.5457857847213745,4.305973052978516,1.0384782552719116
1.5114874839782715,4.308622360229492,1.04270339012146
1.4747627973556519,4.303795337677002,1.045157551765442
1.4540464878082275,4.341579437255859,1.0578701496124268
1.4234020709991455,4.350330352783203,1.0635840892791748
1.3929531574249268,4.36289119720459,1.0696940422058105
1.3678547143936157,4.393482685089111,1.08012855052948
1.3252534866333008,4.369499683380127,1.077249526977539
1.3035593032836914,4.4104743003845215,1.0903397798538208
1.2788645029067993,4.440214157104492,1.1006808280944824
1.247610092163086,4.447872638702393,1.1056216955184937
1.2196463346481323,4.47027063369751,1.1136976480484009
1.189190149307251,4.485260963439941,1.1198064088821411
1.156184434890747,4.492796421051025,1.1241545677185059
1.1239354610443115,4.499910831451416,1.1283960342407227
1.0959230661392212,4.521393775939941,1.1362512111663818
1.0650596618652344,4.531614780426025,1.1413421630859375
1.0362341403961182,4.552896022796631,1.1488831043243408
1.0045644044876099,4.566863059997559,1.1542879343032837
0.9749501943588257,4.5879058837890625,1.161515235900879
0.7957766056060791,3.8808650970458984,0.9841775894165039
0.7729774713516235,3.907926082611084,0.9927201867103577
0.7378219366073608,3.871554136276245,0.9851864576339722
0.8488150238990784,4.6325578689575195,1.1808887720108032
0.8216769099235535,4.671391487121582,1.1921253204345703
0.7883606553077698,4.676443576812744,1.194811224937439
0.7562745213508606,4.688727378845215,1.1994054317474365
0.7254254221916199,4.708242893218994,1.2059072256088257
0.6975284814834595,4.750041484832764,1.2181990146636963
0.66439288854599,4.754106521606445,1.2208598852157593
0.6309902667999268,4.758072376251221,1.2231295108795166
0.6001613140106201,4.784458637237549,1.2308286428451538
0.5667679905891418,4.791848182678223,1.2337074279785156
0.5387333035469055,4.847896099090576,1.2491875886917114
0.5003146529197693,4.813469886779785,1.2414275407791138
0.46892857551574707,4.838947772979736,1.249152660369873
0.43659132719039917,4.85667610168457,1.2549450397491455
0.4030919671058655,4.866837024688721,1.2581530809402466
0.37061354517936707,4.891891002655029,1.2651159763336182
0.3350890874862671,4.8865766525268555,1.2642998695373535
0.30070507526397705,4.888524532318115,1.2654155492782593
0.26898321509361267,4.9317498207092285,1.2772759199142456
0.233979269862175,4.918102741241455,1.2744723558425903
0.16920247673988342,4.16745138168335,1.0806010961532593
0.14253005385398865,4.255404949188232,1.1033869981765747
0.11107809096574783,4.191973686218262,1.0869736671447754
0.08248762786388397,4.226607799530029,1.0960419178009033
0.05261337757110596,4.196769714355469,1.0884442329406738
0.023723497986793518,4.249905586242676,1.1024196147918701
-0.006315466482192278,4.234777450561523,1.0987471342086792
-0.03577297553420067,4.242165565490723,1.1008163690567017
-0.06548957526683807,4.257051467895508,1.104299545288086
-0.09507706016302109,4.256607532501221,1.103858232498169
-0.12466155737638474,4.255958557128906,1.1034168004989624
-0.154789537191391,4.270219802856445,1.1068936586380005
-0.18612459301948547,4.295581340789795,1.1132972240447998
-0.21592888236045837,4.294301509857178,1.1128522157669067
-0.2452845424413681,4.285326957702637,1.110207438468933
-0.27320459485054016,4.257406234741211,1.102221131324768
-0.30718937516212463,4.319848537445068,1.1176761388778687
-0.33579009771347046,4.29525899887085,1.1106491088867188
-0.3626915216445923,4.259202003479004,1.1007277965545654
-0.3930283784866333,4.264405250549316,1.1015245914459229
-0.42046791315078735,4.239273548126221,1.0945407152175903
-0.44506898522377014,4.191490650177002,1.0813953876495361
-0.46718618273735046,4.12482213973999,1.063082218170166
-0.49559417366981506,4.121964454650879,1.061301589012146
-0.512090802192688,4.0250372886657715,1.035372018814087
-0.5354717373847961,3.988072395324707,1.0249419212341309
-0.5558080673217773,3.932216167449951,1.0097224712371826
-0.5786306858062744,3.894925355911255,0.9993245005607605
-0.6054226160049438,3.8914096355438232,0.9971463680267334
-0.6224085092544556,3.8279471397399902,0.9795033931732178
-0.6404080390930176,3.775628089904785,0.9647986888885498
-0.6610146164894104,3.741882085800171,0.9549123644828796
-0.6795198917388916,3.696779251098633,0.9421782493591309
-0.7014517188072205,3.67012095451355,0.9341903328895569
-0.7196357250213623,3.6285483837127686,0.9224522709846497
-0.7329795956611633,3.568552017211914,0.9055327773094177
-0.7510534524917603,3.534482955932617,0.8952744603157043
-0.769508957862854,3.504025936126709,0.8859978318214417
-0.7889745831489563,3.477060079574585,0.8776319622993469
-0.8080608248710632,3.4499917030334473,0.8693050146102905
-0.8223522305488586,3.404374599456787,0.8563735485076904
-0.8467476963996887,3.4030416011810303,0.8543498516082764
-0.8652473092079163,3.379603147506714,0.8465262055397034
-0.8828336000442505,3.3523120880126953,0.8377725481987
-0.8888024091720581,3.2846882343292236,0.8190563917160034
-0.9056180119514465,3.257237434387207,0.8103995323181152
-0.9263732433319092,3.244286298751831,0.805397629737854
-0.9426528811454773,3.2166390419006348,0.7967537045478821
-0.9572045803070068,3.1854777336120605,0.7867664098739624
-0.9699118137359619,3.1507081985473633,0.7759982347488403
-0.986729085445404,3.130413293838501,0.7688643932342529
-1.0014119148254395,3.102660894393921,0.7599164247512817
-1.0184416770935059,3.081979990005493,0.7527329325675964
-1.031964659690857,3.0502681732177734,0.7428817749023438
-1.042772650718689,3.015347957611084,0.7319119572639465
-1.0607138872146606,3.0019760131835938,0.7261773347854614
-1.0759023427963257,2.9813332557678223,0.7187389731407166
-1.0872421264648438,2.949774742126465,0.7086942791938782
-1.1026188135147095,2.9287538528442383,0.7012009024620056
-1.1263253688812256,2.9288792610168457,0.6987687349319458
-1.132245421409607,2.8867151737213135,0.6859169602394104
-1.138995885848999,2.8481554985046387,0.6739610433578491
-1.1553303003311157,2.834357976913452,0.667937695980072
-1.1266443729400635,2.7109806537628174,0.6361677646636963
-1.1297863721847534,2.6651463508605957,0.6226779222488403
-1.1364158391952515,2.630082368850708,0.6117964386940002
-1.1418724060058594,2.5954208374023438,0.6007141470909119
-1.1656595468521118,2.6026437282562256,0.599370002746582
-1.2101876735687256,2.6549112796783447,0.6083466410636902
-1.2325387001037598,2.6541919708251953,0.6049283742904663
-1.2513641119003296,2.6464920043945312,0.599993109703064
-1.2661794424057007,2.632103681564331,0.5933071970939636
-1.2687205076217651,2.5937395095825195,0.5811439156532288
-1.2827390432357788,2.579436779022217,0.5744493007659912
-1.2906454801559448,2.5509538650512695,0.564471423625946
-1.2982982397079468,2.52242112159729,0.5545511245727539
-1.3158106803894043,2.5145363807678223,0.5490552186965942
-1.3290696144104004,2.500096082687378,0.5419420003890991
-1.3367173671722412,2.4754436016082764,0.5326770544052124
-1.3429064750671387,2.4470927715301514,0.5225430130958557
-1.353261113166809,2.425086259841919,0.5136656761169434
-1.3662139177322388,2.41025447845459,0.5062373280525208
-1.3708261251449585,2.3823375701904297,0.49596232175827026
-1.3867560625076294,2.374359369277954,0.4898976683616638
-1.3899586200714111,2.342552900314331,0.47868895530700684
-1.4031271934509277,2.3270440101623535,0.4707767069339752
-1.4186357259750366,2.3189618587493896,0.4641323387622833
-1.430019497871399,2.3042235374450684,0.4561779499053955
-1.4336652755737305,2.2760348320007324,0.44543683528900146
-1.4375879764556885,2.2475311756134033,0.4345453083515167
-1.4824392795562744,2.2842726707458496,0.4358927309513092
-1.4720648527145386,2.237131357192993,0.4212488532066345
-1.4638819694519043,2.1930205821990967,0.4071449935436249
-1.4710357189178467,2.171027660369873,0.3970140814781189
-1.4767423868179321,2.149848699569702,0.3868708908557892
-1.5374470949172974,2.2079875469207764,0.3907030522823334
-1.4973598718643188,2.1195433139801025,0.3682149052619934
-1.5528513193130493,2.1670327186584473,0.3691737949848175
-1.516924500465393,2.0894548892974854,0.34869205951690674
-1.5243650674819946,2.0711371898651123,0.33799540996551514
-1.5346598625183105,2.055434226989746,0.32723313570022583
-1.486009955406189,2.1008267402648926,-0.15820901095867157
-1.4788042306900024,2.1240763664245605,-0.17022594809532166
-1.492195963859558,2.175546407699585,-0.18410658836364746
-1.488311767578125,2.2055187225341797,-0.1966530978679657
-1.4846829175949097,2.235114097595215,-0.2089233547449112
-1.4600598812103271,2.2317326068878174,-0.21771708130836487
-1.4662712812423706,2.2777364253997803,-0.2314460724592209
-1.4097696542739868,2.2250702381134033,-0.23485571146011353
-1.3729346990585327,2.2012593746185303,-0.24077965319156647
-1.3339521884918213,2.1740479469299316,-0.24595320224761963
-1.3217726945877075,2.189523935317993,-0.25574901700019836
-1.306107521057129,2.1978776454925537,-0.26442950963974
-1.3015886545181274,2.226529359817505,-0.2756322920322418
-1.2866019010543823,2.238581418991089,-0.2850032150745392
-1.2742706537246704,2.253450632095337,-0.29438313841819763
-1.2766609191894531,2.2954673767089844,-0.30742695927619934
-1.2632486820220947,2.3105506896972656,-0.3169952929019928
-1.2573108673095703,2.339047431945801,-0.3283783197402954
-1.2637752294540405,2.3914756774902344,-0.343305379152298
-1.4407426118850708,2.774178981781006,-0.4067710340023041
-1.4519069194793701,2.8453609943389893,-0.42591193318367004
-1.4279258251190186,2.847334384918213,-0.4346652925014496
-1.4227371215820312,2.8872978687286377,-0.44925457239151
-1.2377543449401855,2.558627128601074,-0.40567222237586975
-1.2057350873947144,2.538308620452881,-0.409761518239975
-1.197350025177002,2.5665252208709717,-0.4215226173400879
-1.1787636280059814,2.573737382888794,-0.4298502504825592
-1.150473952293396,2.5597479343414307,-0.4345259964466095
-1.1521471738815308,2.612517833709717,-0.4505774974822998
-1.1162632703781128,2.5804519653320312,-0.45207348465919495
-1.0794929265975952,2.5444741249084473,-0.4524614214897156
-1.0136224031448364,2.4370152950286865,-0.43969428539276123
-0.9669782519340515,2.3715860843658447,-0.4339925944805145
-0.9229132533073425,2.3091979026794434,-0.4284537136554718
-0.8821587562561035,2.2536981105804443,-0.42384377121925354
-0.839745283126831,2.190534830093384,-0.4173484146595001
-0.8077834844589233,2.1521189212799072,-0.4153003692626953
-0.7777815461158752,2.1169843673706055,-0.41368886828422546
-0.7469270825386047,2.078012704849243,-0.4109756052494049
-0.7100340723991394,2.0207200050354004,-0.4044501483440399
-0.6818355321884155,1.9847360849380493,-0.4018588662147522
-0.6603716611862183,1.9666386842727661,-0.40273892879486084
-0.6295973062515259,1.9192657470703125,-0.39728400111198425
-0.6053450107574463,1.8898580074310303,-0.39533957839012146
-0.5870643854141235,1.878545880317688,-0.3971553146839142
-0.5592133402824402,1.8340610265731812,-0.39175429940223694
-0.5417948961257935,1.8223692178726196,-0.39304837584495544
-0.5096641778945923,1.7591288089752197,-0.38301464915275574
-0.4899000823497772,1.7360397577285767,-0.3815469741821289
-0.4694874584674835,1.7090920209884644,-0.37913358211517334
-0.45911169052124023,1.7189366817474365,-0.38472235202789307
-0.43637239933013916,1.6806621551513672,-0.37934792041778564
-0.4244583249092102,1.6828714609146118,-0.38305315375328064
-0.3980378806591034,1.6257342100143433,-0.37315279245376587
-0.3883060812950134,1.6351406574249268,-0.3782561421394348
-0.3731304705142975,1.622262716293335,-0.37814441323280334
-0.36167779564857483,1.624092698097229,-0.3814021944999695
-0.3261740505695343,1.5142223834991455,-0.35825175046920776
-0.3108580410480499,1.4934542179107666,-0.3557954430580139
-0.3018661141395569,1.5024133920669556,-0.36027148365974426
-0.2867777943611145,1.4814821481704712,-0.3576194941997528
-0.27357375621795654,1.4678760766983032,-0.3566538691520691
-0.26058173179626465,1.4542019367218018,-0.35548412799835205
-0.24911092221736908,1.447945237159729,-0.3559384346008301
-0.23711207509040833,1.4378583431243896,-0.3554449677467346
-0.22743552923202515,1.442689061164856,-0.35868537425994873
0.16771554946899414,1.4442272186279297,-0.36888962984085083
0.18012531101703644,1.46222722530365,-0.37205055356025696
0.18838950991630554,1.4463406801223755,-0.36652693152427673
0.20387423038482666,1.4830148220062256,-0.37397170066833496
0.21319833397865295,1.4745562076568604,-0.37004750967025757
0.2292177528142929,1.5110278129577637,-0.37738463282585144
0.249920055270195,1.5736100673675537,-0.3910777270793915
0.25851160287857056,1.5574641227722168,-0.3848406970500946
0.28178641200065613,1.6273012161254883,-0.39978930354118347
0.307588130235672,1.704389214515686,-0.41629135608673096
0.3104674816131592,1.654317021369934,-0.4017055332660675
0.32359153032302856,1.6602809429168701,-0.40047121047973633
0.33833298087120056,1.6735961437225342,-0.4009912610054016
0.3532290756702423,1.6867997646331787,-0.4014677107334137
0.3757942318916321,1.7333325147628784,-0.4097248613834381
0.3946956694126129,1.7611901760101318,-0.41316863894462585
0.4071362018585205,1.7591960430145264,-0.4095768332481384
0.4346010088920593,1.8201278448104858,-0.42054781317710876
0.4547562003135681,1.8474849462509155,-0.42361530661582947
0.47461801767349243,1.870998740196228,-0.42532476782798767
0.510033130645752,1.953467845916748,-0.44030019640922546
0.5258268117904663,1.958162784576416,-0.4375932216644287
0.5498403310775757,1.9921894073486328,-0.4413781762123108
0.5733152031898499,2.022386074066162,-0.4439007341861725
0.5964401364326477,2.0486490726470947,-0.445346474647522
0.6295685172080994,2.10775089263916,-0.4538363516330719
0.664697527885437,2.170191764831543,-0.4627985954284668
0.6926631927490234,2.206786870956421,-0.4657905101776123
0.725875973701477,2.2577197551727295,-0.47156989574432373
0.7661692500114441,2.3264544010162354,-0.48070621490478516
0.8108689188957214,2.405764579772949,-0.4917932450771332
0.8491711616516113,2.4629275798797607,-0.4978182911872864
0.8959561586380005,2.541457414627075,-0.507788360118866
0.941322922706604,2.6122803688049316,-0.5158618092536926
0.9931017160415649,2.697053909301758,-0.5263106226921082
1.057180404663086,2.8100597858428955,-0.5414795279502869
1.1114976406097412,2.8938050270080566,-0.5505672693252563
1.176958680152893,3.002044916152954,-0.5638148188591003
1.2584131956100464,3.145303964614868,-0.582980215549469
1.3345074653625488,3.269960403442383,-0.597827136516571
1.4423376321792603,3.464871644973755,-0.624478280544281
1.5256494283676147,3.5948030948638916,-0.6386556625366211
1.6417040824890137,3.79455828666687,-0.6642982959747314
1.755649447441101,3.982612371444702,-0.6866820454597473
1.8564201593399048,4.134249687194824,-0.7017890810966492
1.9601421356201172,4.28450870513916,-0.7155486345291138
1.967867374420166,4.223617076873779,-0.6938949227333069
1.9941784143447876,4.204919815063477,-0.6791804432868958
1.5832287073135376,3.280595541000366,-0.5207489132881165
1.596261978149414,3.2501325607299805,-0.5067044496536255
1.6268019676208496,3.2539749145507812,-0.49782270193099976
1.656498670578003,3.2580041885375977,-0.48895522952079773
1.5938162803649902,3.082846164703369,-0.45366162061691284
1.6193475723266602,3.079826593399048,-0.44399622082710266
1.6448086500167847,3.0766308307647705,-0.43424302339553833
1.6013153791427612,2.947396993637085,-0.4069986939430237
1.7271870374679565,3.127588987350464,-0.42206984758377075
1.69062077999115,3.011775255203247,-0.3968619108200073
1.8078463077545166,3.1699018478393555,-0.4075285494327545
1.3430596590042114,2.3187167644500732,-0.29060685634613037
0.9633655548095703,1.6372885704040527,-0.19977469742298126
0.9492934346199036,1.5876648426055908,-0.1882484257221222
0.8774489164352417,1.4455856084823608,-0.16646310687065125
0.8996115922927856,1.4600160121917725,-0.16308535635471344
0.9863852858543396,1.5762004852294922,-0.17036674916744232
1.0035290718078613,1.579869270324707,-0.1650177240371704
1.010209083557129,1.567021369934082,-0.1578403264284134
1.0148686170578003,1.5507233142852783,-0.15024662017822266
1.0256398916244507,1.5442532300949097,-0.14359691739082336
1.040348768234253,1.5443910360336304,-0.13754893839359283
1.0511032342910767,1.537695050239563,-0.13063332438468933
2.5438151359558105,3.666905641555786,-0.29574212431907654
2.5680975914001465,3.651261329650879,-0.2789597511291504
2.607056140899658,3.6536431312561035,-0.2626934051513672
2.636587142944336,3.643285036087036,-0.2450619637966156
2.660395860671997,3.627108573913574,-0.22704187035560608
2.6486382484436035,3.5593390464782715,-0.20472565293312073
2.5318045616149902,3.5678062438964844,0.6431992053985596
2.5135176181793213,3.601290225982666,0.6625915765762329
2.5623161792755127,3.728972911834717,0.6989455819129944
1.0618685483932495,1.5689284801483154,0.2991698682308197
1.040647029876709,1.5633907318115234,0.30294403433799744
1.0324959754943848,1.5768215656280518,0.31029510498046875
1.0249460935592651,1.5897786617279053,0.31732213497161865
1.0209466218948364,1.6094955205917358,0.3255406320095062
1.0203441381454468,1.6360187530517578,0.33512982726097107
1.0078734159469604,1.6426210403442383,0.3405272960662842
0.9919907450675964,1.6422182321548462,0.34427836537361145
0.9674229621887207,1.628981113433838,0.34517621994018555
0.9585487246513367,1.6420780420303345,0.3514953553676605
1.3378790616989136,2.3308913707733154,0.5038164258003235
1.8418481349945068,3.2613818645477295,0.7114357352256775
1.785852074623108,3.2160720825195312,0.7076932191848755
1.775181531906128,3.255053758621216,0.72227543592453
1.7698791027069092,3.303941249847412,0.7391115427017212
2.420884132385254,4.595985412597656,1.0359160900115967
2.37727689743042,4.590332508087158,1.0423744916915894
2.352930784225464,4.626235485076904,1.0576136112213135
2.3203670978546143,4.648749351501465,1.0699208974838257
2.2852859497070312,4.663692474365234,1.0803476572036743
2.2452192306518555,4.663852214813232,1.087040901184082
2.2216367721557617,4.698203086853027,1.1017606258392334
2.1893997192382812,4.71953821182251,1.112748384475708
2.1537561416625977,4.733710289001465,1.1220735311508179
2.120622158050537,4.754762172698975,1.1331876516342163
2.0928261280059814,4.781620979309082,1.1453559398651123
2.049698829650879,4.773253440856934,1.1491352319717407
1.767443060874939,4.199373245239258,1.0155503749847412
1.7244242429733276,4.182526111602783,1.0158709287643433
1.704020619392395,4.2220048904418945,1.0300079584121704
1.670782208442688,4.225391864776611,1.0351829528808594
1.6463003158569336,4.249661445617676,1.0454668998718262
1.6158618927001953,4.2596869468688965,1.0521353483200073
1.5817499160766602,4.262831687927246,1.0565345287322998
1.5522807836532593,4.280189037322998,1.064582347869873
1.5181421041488647,4.282815456390381,1.0689568519592285
1.492821216583252,4.306329727172852,1.0784517526626587
1.4648470878601074,4.3224711418151855,1.0861668586730957
1.442145586013794,4.356699466705322,1.0981745719909668
1.4096896648406982,4.3659467697143555,1.1035773754119873
1.375463843345642,4.367547988891602,1.1070480346679688
1.3458396196365356,4.383370399475098,1.1141730546951294
1.3214614391326904,4.413253307342529,1.1248465776443481
1.2924275398254395,4.4284348487854,1.1318542957305908
1.2608195543289185,4.436293601989746,1.1367195844650269
1.230013370513916,4.451637268066406,1.1431411504745483
1.1957147121429443,4.451974868774414,1.1457250118255615
1.1710420846939087,4.4887213706970215,1.1577516794204712
1.1413251161575317,4.503065586090088,1.164000153541565
1.1106085777282715,4.513516426086426,1.1693017482757568
1.08002507686615,4.527608394622803,1.1755034923553467
1.0491336584091187,4.541696071624756,1.1810537576675415
1.0180944204330444,4.555567741394043,1.186614990234375
0.9853634834289551,4.561812400817871,1.1902508735656738
0.9607956409454346,4.604780197143555,1.2035161256790161
0.7786749601364136,3.8687102794647217,1.0129190683364868
0.7574167251586914,3.9029769897460938,1.0237016677856445
0.8630068898200989,4.621435165405273,1.2137272357940674
0.8360346555709839,4.660233497619629,1.225351333618164
0.8040638566017151,4.672783374786377,1.2301489114761353
0.7726370096206665,4.692648887634277,1.2369683980941772
0.7410542964935303,4.704657554626465,1.2417271137237549
0.7093413472175598,4.716450214385986,1.2464942932128906
0.6795180439949036,4.743032932281494,1.2551259994506836
0.6459186673164368,4.747188091278076,1.2571566104888916
0.6136041879653931,4.766161918640137,1.263196587562561
0.5789384245872498,4.7623467445373535,1.263243556022644
0.5419499278068542,4.735748767852783,1.257296085357666
0.5137652158737183,4.783944129943848,1.2712597846984863
0.48455744981765747,4.828205585479736,1.284261703491211
0.45286688208580017,4.853585720062256,1.2919561862945557
0.3491370379924774,4.055126667022705,1.0798341035842896
0.31881213188171387,4.034630298614502,1.0748364925384521
0.29502400755882263,4.100515365600586,1.0929100513458252
0.2683223783969879,4.132339954376221,1.101967692375183
0.23779618740081787,4.1036882400512695,1.09494948387146
0.21141131222248077,4.157766342163086,1.110074758529663
0.1813807338476181,4.136357307434082,1.104631781578064
0.1521603763103485,4.1298956871032715,1.1029417514801025
0.12416499853134155,4.160951614379883,1.1113262176513672
0.09510312974452972,4.161630630493164,1.11165189743042
0.06563758105039597,4.162110805511475,1.1119822263717651
0.0369533896446228,4.188795566558838,1.1193652153015137
0.007922804914414883,4.226601600646973,1.1297786235809326
-0.02140149101614952,4.219057559967041,1.1275736093521118
-0.05084216594696045,4.234002113342285,1.131234049797058
-0.08105290681123734,4.24873161315918,1.1348844766616821
-0.11056915670633316,4.248166561126709,1.134508728981018
-0.14082790911197662,4.270028591156006,1.1401759386062622
-0.17189928889274597,4.302987575531006,1.1488595008850098
-0.20214611291885376,4.30933141708374,1.15049147605896
-0.2297283113002777,4.266629695892334,1.1384520530700684
-0.2593265175819397,4.257665157318115,1.1353358030319214
-0.28722846508026123,4.233460426330566,1.128229022026062
-0.3148585259914398,4.2090678215026855,1.1211316585540771
-0.34595802426338196,4.22964334487915,1.1260640621185303
-0.3734017312526703,4.2048540115356445,1.118972659111023
-0.4010171890258789,4.179842472076416,1.1118743419647217
-0.43365049362182617,4.215013027191162,1.1201157569885254
-0.462704062461853,4.212396144866943,1.1183334589004517
-0.48248937726020813,4.130794048309326,1.095656156539917
-0.5002931952476501,4.041601181030273,1.0710551738739014
-0.5250466465950012,4.0084452629089355,1.0613569021224976
-0.548319399356842,3.9714555740356445,1.050726056098938
-0.5748434662818909,3.960541009902954,1.0469539165496826
-0.5974291563034058,3.9272336959838867,1.0367199182510376
-0.6178483963012695,3.882587432861328,1.0235645771026611
-0.6307334303855896,3.7930078506469727,0.9986315369606018
-0.6452354788780212,3.7221009731292725,0.9787344932556152
-0.6684948205947876,3.703213930130005,0.9725757837295532
-0.683846116065979,3.6432840824127197,0.9557071924209595
-0.7061131596565247,3.624255657196045,0.9493840336799622
-0.7338822484016418,3.6349036693573,0.9504904747009277
-0.7444303631782532,3.5600647926330566,0.9292857050895691
-0.7623732686042786,3.5260019302368164,0.918840765953064
-0.7851583361625671,3.5139548778533936,0.9141725301742554
-0.7934994101524353,3.438995838165283,0.8932048082351685
-0.8078881502151489,3.393533706665039,0.8799861669540405
-0.8333331942558289,3.3959908485412598,0.8787538409233093
-0.8509117364883423,3.369014024734497,0.8698517084121704
-0.8738783597946167,3.3639535903930664,0.8666611909866333
-0.8929400444030762,3.34407377243042,0.8596982955932617
-0.8932948708534241,3.254462480545044,0.8348566889762878
-0.9123918414115906,3.2342307567596436,0.8278781771659851
-0.9369561672210693,3.235952138900757,0.8264102339744568
-0.944925844669342,3.183140993118286,0.8107025027275085
-0.9621610045433044,3.1630260944366455,0.8034025430679321
-0.9836822748184204,3.1573121547698975,0.799807608127594
-0.9991291165351868,3.1294941902160645,0.7905789017677307
-1.0093052387237549,3.087214231491089,0.7777959108352661
-1.0285106897354126,3.0737781524658203,0.7723246812820435
-1.0431944131851196,3.049769163131714,0.763746440410614
-1.0563433170318604,3.022097587585449,0.7543189525604248
-1.0691317319869995,2.9943792819976807,0.7449537515640259
-1.0811277627944946,2.9627692699432373,0.734592854976654
-1.0940581560134888,2.9346837997436523,0.7251815795898438
-1.1228669881820679,2.9492459297180176,0.726348876953125
-1.1400883197784424,2.9355762004852295,0.7200828790664673
-1.1515209674835205,2.9076476097106934,0.7103768587112427
-1.1501307487487793,2.847757339477539,0.6929181814193726
-1.1351561546325684,2.7561700344085693,0.6678802967071533
-1.1207019090652466,2.668280601501465,0.643898069858551
-1.1349385976791382,2.6508727073669434,0.6369738578796387
-1.1528574228286743,2.6442489624023438,0.6323077082633972
-1.167941689491272,2.630404233932495,0.625900149345398
-1.1888493299484253,2.630509853363037,0.6228975653648376
-1.231458067893982,2.6752066612243652,0.6302627325057983
-1.2374799251556396,2.639878511428833,0.618772566318512
-1.2523529529571533,2.6255924701690674,0.6120149493217468
-1.2653273344039917,2.607860803604126,0.6042836904525757
-1.2794981002807617,2.593618154525757,0.5974744558334351
-1.2906856536865234,2.572192668914795,0.5889484882354736
-1.2985928058624268,2.543700933456421,0.5787931084632874
-1.3128331899642944,2.529015064239502,0.5716995000839233
-1.310155987739563,2.484138011932373,0.5576105117797852
-1.3271387815475464,2.4763925075531006,0.5518708825111389
-1.336989402770996,2.4549314975738525,0.5430628061294556
-1.3434481620788574,2.4264464378356934,0.5326499938964844
-1.356605052947998,2.411632537841797,0.5251626968383789
-1.3651516437530518,2.3904709815979004,0.5161251425743103
-1.3814409971237183,2.3824360370635986,0.5098960399627686
-1.3846168518066406,2.350801467895508,0.4985218942165375
-1.401522159576416,2.3421401977539062,0.49200689792633057
-1.409425139427185,2.3208088874816895,0.4825934171676636
-1.416824460029602,2.2996246814727783,0.47320953011512756
-1.4327857494354248,2.2911345958709717,0.4662829041481018
-1.43696129322052,2.2626514434814453,0.4551403820514679
-1.4693498611450195,2.279968500137329,0.4530487656593323
-1.4528614282608032,2.223206043243408,0.4361375570297241
-1.4508063793182373,2.18906307220459,0.4237859547138214
-1.494917869567871,2.221447229385376,0.4237627387046814
-1.5232270956039429,2.231762409210205,0.41931214928627014
-1.5203136205673218,2.1978020668029785,0.4064446985721588
-1.4977184534072876,2.13504695892334,0.3882010877132416
-1.544659972190857,2.1697185039520264,0.387318879365921
-1.518406629562378,2.1045079231262207,0.3682667016983032
-1.5231095552444458,2.083498477935791,0.35726460814476013
-1.5337599515914917,2.0677061080932617,0.34639638662338257
-1.4980385303497314,2.1023194789886475,-0.1523354947566986
-1.4818962812423706,2.1128921508789062,-0.16353072226047516
-1.4711827039718628,2.129016876220703,-0.17449328303337097
-1.4702377319335938,2.1618449687957764,-0.1869763284921646
-1.4800463914871216,2.2106945514678955,-0.20087260007858276
-1.4834258556365967,2.2495884895324707,-0.21373815834522247
-1.4596670866012573,2.250157594680786,-0.22322845458984375
-1.42201566696167,2.227100133895874,-0.22983215749263763
-1.393567442893982,2.2164933681488037,-0.23722366988658905
-1.3584431409835815,2.1961185932159424,-0.24338117241859436
-1.3178170919418335,2.165273666381836,-0.24803274869918823
-1.3099247217178345,2.187162399291992,-0.2585045099258423
-1.2975102663040161,2.2025158405303955,-0.2681371867656708
-1.2945716381072998,2.2346243858337402,-0.27992168068885803
-1.2901138067245483,2.2629733085632324,-0.291018009185791
-1.2812269926071167,2.2847139835357666,-0.30137163400650024
-1.27146315574646,2.3067238330841064,-0.3119829297065735
-1.2620548009872437,2.328378915786743,-0.32237672805786133
-1.252672553062439,2.3498473167419434,-0.3327227234840393
-1.318041205406189,2.5156805515289307,-0.3640032410621643
-1.4518922567367554,2.8201611042022705,-0.4167729616165161
-1.4504599571228027,2.8672149181365967,-0.4324633777141571
-1.4331063032150269,2.883070468902588,-0.44340959191322327
-1.3762147426605225,2.819016456604004,-0.4418215751647949
-1.2335467338562012,2.572988748550415,-0.4107311964035034
-1.2067992687225342,2.5629310607910156,-0.41641244292259216
-1.1784248352050781,2.54921817779541,-0.42132315039634705
-1.1689618825912476,2.5776278972625732,-0.43329283595085144
-1.1471366882324219,2.5775740146636963,-0.44033145904541016
-1.1364045143127441,2.6019887924194336,-0.4515134394168854
-1.0978227853775024,2.5626542568206787,-0.4514424502849579
-1.0538110733032227,2.5087528228759766,-0.448520690202713
-0.9929114580154419,2.4116897583007812,-0.4375208616256714
-0.9454184770584106,2.342404365539551,-0.43096593022346497
-0.904451310634613,2.2870442867279053,-0.4264741837978363
-0.8587456941604614,2.216930866241455,-0.4188935458660126
-0.8292025923728943,2.185861349105835,-0.41839930415153503
-0.7879040241241455,2.1221401691436768,-0.41148778796195984
-0.7595049142837524,2.0905020236968994,-0.41027405858039856
-0.727730393409729,2.0477445125579834,-0.40668871998786926
-0.7004863619804382,2.0155255794525146,-0.40498900413513184
-0.67009037733078,1.972139596939087,-0.4008530378341675
-0.6412327289581299,1.9322309494018555,-0.39709872007369995
-0.6203165054321289,1.9138619899749756,-0.3975464403629303
-0.5962526798248291,1.8843439817428589,-0.3955692946910858
-0.5715352892875671,1.8509414196014404,-0.3926355242729187
-0.5483813881874084,1.8210351467132568,-0.39008626341819763
-0.5310755968093872,1.8092732429504395,-0.39130860567092896
-0.4980076551437378,1.7422698736190796,-0.38048335909843445
-0.4876931309700012,1.7522051334381104,-0.3862748444080353
-0.4522954821586609,1.6699552536010742,-0.37137487530708313
-0.45113179087638855,1.7128992080688477,-0.38420385122299194
-0.4210209846496582,1.6449594497680664,-0.37211719155311584
-0.4073421061038971,1.639701247215271,-0.37413179874420166
-0.40111881494522095,1.6639922857284546,-0.3826494812965393
-0.38415685296058655,1.6437400579452515,-0.3808729946613312
-0.3675110936164856,1.623345136642456,-0.37900134921073914
-0.3544297516345978,1.6176882982254028,-0.38053715229034424
-0.34913769364356995,1.649234652519226,-0.3907041549682617
-0.31087419390678406,1.5204980373382568,-0.3626040518283844
-0.2891409397125244,1.4660285711288452,-0.35194098949432373
-0.28024953603744507,1.4748501777648926,-0.35641250014305115
-0.2685266137123108,1.468703031539917,-0.35708484053611755
-0.25674009323120117,1.4625160694122314,-0.3576451539993286
-0.26099205017089844,1.5498058795928955,-0.3811565637588501
-0.23197992146015167,1.438598394393921,-0.3558369278907776
-0.22248594462871552,1.4434112310409546,-0.35888466238975525
-0.18142955005168915,1.4433900117874146,-0.3656620979309082
0.13331514596939087,1.4582159519195557,-0.37566834688186646
