X,Y,Z
2.3763039112091064,3.612701892852783,-0.2608756422996521
2.396176815032959,3.5909311771392822,-0.24983720481395721
2.4386720657348633,3.6007096767425537,-0.2405739575624466
2.445374011993408,3.5590903759002686,-0.22779594361782074
2.4685256481170654,3.543762683868408,-0.2167873978614807
2.5202980041503906,3.565337896347046,-0.20718185603618622
2.512411117553711,3.504577159881592,-0.19259588420391083
2.5583877563476562,3.5201663970947266,-0.18217866122722626
2.1751346588134766,2.9499971866607666,-0.1424843668937683
2.7684597969055176,3.916600227355957,0.3950093388557434
2.7484805583953857,3.9483494758605957,0.4088769555091858
2.73028302192688,3.9879696369171143,0.4234526753425598
2.7071995735168457,4.01649808883667,0.43625935912132263
2.677772045135498,4.034945487976074,0.44750145077705383
2.6398303508758545,4.0447001457214355,0.45755264163017273
2.5973432064056396,4.043220043182373,0.4657990038394928
2.568582773208618,4.060384750366211,0.47586607933044434
2.5551135540008545,4.108929634094238,0.4894862771034241
2.5317277908325195,4.140424728393555,0.5009604692459106
2.502382278442383,4.157113075256348,0.5101160407066345
2.4681901931762695,4.167361259460449,0.518357515335083
2.4441237449645996,4.198388576507568,0.5289750099182129
2.404477834701538,4.202211380004883,0.5361568331718445
2.390000343322754,4.245077133178711,0.5478981733322144
2.3403337001800537,4.227291584014893,0.5516778230667114
2.252694606781006,4.141551971435547,0.5461841225624084
2.229033946990967,4.1709184646606445,0.5557092428207397
2.208038091659546,4.202996730804443,0.5654537081718445
2.1815857887268066,4.2245330810546875,0.5736905932426453
2.153355836868286,4.246728897094727,0.58169025182724
2.128330707550049,4.275683403015137,0.590678334236145
2.0977818965911865,4.289820194244385,0.5974178314208984
2.067028760910034,4.303779125213623,0.6041796207427979
2.042311191558838,4.331797122955322,0.6126087307929993
2.0035924911499023,4.3318772315979,0.6169393658638
1.9650954008102417,4.331571102142334,0.6212058067321777
2.0039212703704834,4.5000834465026855,0.6496342420578003
1.9846508502960205,4.541548252105713,0.6599280834197998
1.963104486465454,4.583738327026367,0.6701039671897888
1.9202766418457031,4.575811862945557,0.6728090047836304
1.889653205871582,4.596060752868652,0.6796571016311646
1.8703144788742065,4.640708923339844,0.6900250911712646
1.8220562934875488,4.613307952880859,0.6897030472755432
1.7964184284210205,4.647441864013672,0.6983142495155334
1.8033372163772583,4.768247604370117,0.719860315322876
1.7375130653381348,4.697104454040527,0.7124796509742737
1.32405686378479,3.6576883792877197,0.5573450922966003
1.3035639524459839,3.6808645725250244,0.5634267926216125
1.2668083906173706,3.6603844165802,0.5627315640449524
1.626338243484497,4.811388969421387,0.7425134181976318
1.5852802991867065,4.804025173187256,0.7442300915718079
1.561620831489563,4.847625732421875,0.7538385391235352
1.534571886062622,4.879876136779785,0.7617000937461853
1.4952340126037598,4.875208854675293,0.763889729976654
1.4668071269989014,4.907403945922852,0.7713806629180908
1.4399173259735107,4.946928977966309,0.7800013422966003
1.3915306329727173,4.911984920501709,0.7769098281860352
1.3610448837280273,4.935937404632568,0.7830965518951416
1.3095356225967407,4.881323337554932,0.77681565284729
1.2649940252304077,4.852570056915283,0.7746284008026123
1.235837459564209,4.883459091186523,0.7814299464225769
1.2237845659255981,4.985391139984131,0.7996847033500671
1.1844277381896973,4.978494644165039,0.8005543351173401
1.1547906398773193,5.008702278137207,0.8073840737342834
1.1208975315093994,5.023778438568115,0.8118563890457153
1.0913666486740112,5.057404518127441,0.819246232509613
1.0552527904510498,5.064630031585693,0.8219190239906311
1.0221308469772339,5.086724281311035,0.8270512819290161
0.9872811436653137,5.101025104522705,0.8309652805328369
1.8109848499298096,9.725810050964355,1.5874385833740234
1.7485694885253906,9.767754554748535,1.5974003076553345
1.6841270923614502,9.801746368408203,1.6060434579849243
1.6145753860473633,9.8128023147583,1.6099495887756348
1.5377625226974487,9.777655601501465,1.6063461303710938
1.4575010538101196,9.723021507263184,1.5996352434158325
1.3894829750061035,9.73234748840332,1.6034430265426636
1.3186149597167969,9.71823501586914,1.603450894355774
1.2519445419311523,9.734198570251465,1.6084949970245361
1.1736245155334473,9.66195297241211,1.5979928970336914
1.1081186532974243,9.692523002624512,1.604453206062317
1.038487195968628,9.699782371520996,1.6071661710739136
0.9652653336524963,9.652678489685059,1.6009033918380737
0.4039463400840759,4.343929290771484,0.7211671471595764
0.3680954575538635,4.281167030334473,0.7114951610565186
0.33941105008125305,4.298856735229492,0.7149072885513306
0.3112499415874481,4.335648059844971,0.7213336825370789
0.2853098511695862,4.406830787658691,0.7335207462310791
0.32555028796195984,5.639630317687988,0.9392059445381165
0.28746965527534485,5.664705753326416,0.9439117908477783
0.24770767986774445,5.658726692199707,0.9434899687767029
0.20942816138267517,5.710277557373047,0.9525531530380249
0.1701498180627823,5.734676837921143,0.9566155076026917
0.13139094412326813,5.793471813201904,0.9664624333381653
0.09139563888311386,5.825032711029053,0.9718143939971924
0.05109512433409691,5.8486104011535645,0.9758819341659546
0.009684029966592789,5.833377361297607,0.9735245704650879
-0.046925246715545654,8.884754180908203,1.4831124544143677
-0.07448693364858627,6.091104507446289,1.016451120376587
-0.11620135605335236,6.0597028732299805,1.0108225345611572
-0.16060267388820648,6.147420883178711,1.0251102447509766
-0.2040625959634781,6.169345855712891,1.0284699201583862
-0.24449039995670319,6.086978435516357,1.0144908428192139
-0.16749528050422668,3.552591562271118,0.5919819474220276
-0.19423790276050568,3.5898964405059814,0.5979331731796265
-0.2186165452003479,3.5808897018432617,0.5959528684616089
-0.5308145880699158,7.804715633392334,1.2979203462600708
-0.5886784195899963,7.839468479156494,1.3027560710906982
-0.5491713285446167,6.690855503082275,1.1111400127410889
-0.5891373157501221,6.614161491394043,1.0977234840393066
-0.62584388256073,6.514217853546143,1.0805020332336426
-0.6556262373924255,6.364404201507568,1.0543392896652222
-0.7038847804069519,6.394482135772705,1.0580310821533203
-0.7487506866455078,6.397475719451904,1.057303786277771
-0.7878736257553101,6.350381851196289,1.0483455657958984
-0.8250842690467834,6.291556358337402,1.0375134944915771
-0.8630284667015076,6.243983268737793,1.0286056995391846
-0.9057537913322449,6.230545997619629,1.0248674154281616
-0.9520333409309387,6.247483730316162,1.0259562730789185
-1.002769112586975,6.290746688842773,1.0314000844955444
-1.0511831045150757,6.314558506011963,1.033674955368042
-1.103684902191162,6.356934547424316,1.0390026569366455
-1.1595016717910767,6.414083003997803,1.046769142150879
-1.2116787433624268,6.444192886352539,1.049817442893982
-1.2652673721313477,6.485558986663818,1.0542961359024048
-1.3171138763427734,6.515167713165283,1.056886076927185
-1.3735134601593018,6.563228607177734,1.062479853630066
-1.4273953437805176,6.591800212860107,1.0648967027664185
-1.4640358686447144,6.536922454833984,1.0538476705551147
-1.504988193511963,6.508428573608398,1.0469993352890015
-1.5349628925323486,6.43865442276001,1.0330290794372559
-0.685857355594635,2.792651891708374,0.4468825161457062
-0.7086506485939026,2.8031835556030273,0.4474067986011505
-0.7187652587890625,2.7610421180725098,0.43950948119163513
-0.7379927635192871,2.7562663555145264,0.4376164972782135
-0.7550398111343384,2.7439446449279785,0.43449217081069946
-0.7798834443092346,2.761416435241699,0.435844361782074
-1.7734205722808838,6.121242046356201,0.9630310535430908
-1.8034392595291138,6.068926811218262,0.9517030119895935
-1.8368096351623535,6.027388095855713,0.942101240158081
-1.8673824071884155,5.9782938957214355,0.9313985109329224
-1.9004945755004883,5.940248489379883,0.9223061203956604
-1.9309709072113037,5.898733615875244,0.912307858467102
-1.959264874458313,5.849502086639404,0.9011318683624268
-1.9903299808502197,5.811245918273926,0.8917620778083801
-2.0155365467071533,5.754266262054443,0.8795185685157776
-2.050471782684326,5.726325511932373,0.8717920780181885
-2.0802953243255615,5.687625408172607,0.8621310591697693
-2.102257490158081,5.6309332847595215,0.8495879769325256
-1.533251166343689,4.023213863372803,0.604158341884613
-1.566604733467102,4.027608871459961,0.6019471287727356
-1.5734199285507202,3.9632325172424316,0.5894683003425598
-1.5778790712356567,3.895388603210449,0.5765401721000671
-1.5848169326782227,3.8388776779174805,0.565031886100769
-1.5990519523620605,3.800081491470337,0.5561596751213074
-1.6156753301620483,3.768455982208252,0.5484291911125183
-1.6312366724014282,3.732872486114502,0.5400843620300293
-1.6542198657989502,3.7149479389190674,0.5343522429466248
-1.6792162656784058,3.7044265270233154,0.529407799243927
-1.6978498697280884,3.67958664894104,0.5223336219787598
-1.719231128692627,3.6617941856384277,0.5163440704345703
-1.744889736175537,3.650371551513672,0.5111281871795654
-1.7772842645645142,3.6526899337768555,0.5078433156013489
-1.7949260473251343,3.6275150775909424,0.5004794597625732
-1.7897918224334717,3.5571770668029785,0.4868505895137787
-1.796034574508667,3.5112686157226562,0.4767093062400818
-1.8206861019134521,3.4993138313293457,0.47106537222862244
-1.8451988697052002,3.4872095584869385,0.4654127061367035
-1.8718702793121338,3.482557773590088,0.46045950055122375
-1.1640511751174927,2.132263422012329,0.279267281293869
-1.1902107000350952,2.144944667816162,0.2780960202217102
-2.504096508026123,4.439668655395508,0.5696698427200317
-2.5438621044158936,4.440442085266113,0.563603937625885
-6.006938934326172,10.329824447631836,1.2963542938232422
-6.103559970855713,10.338704109191895,1.2823866605758667
-1.2391172647476196,2.0654499530792236,0.2529491186141968
-2.9087560176849365,4.775205612182617,0.5772711634635925
-2.9234771728515625,4.730892181396484,0.5641762018203735
-2.9754297733306885,4.745529651641846,0.557990550994873
-2.9817748069763184,4.682997703552246,0.5422472953796387
-3.0246291160583496,4.679863929748535,0.5331485867500305
-3.0442216396331787,4.645142078399658,0.5204312205314636
-3.066944122314453,4.612757682800293,0.5076691508293152
-3.0777645111083984,4.559969425201416,0.4923442602157593
-3.094130277633667,4.521883010864258,0.47846949100494385
-3.1282191276550293,4.509114742279053,0.46704164147377014
-3.1443774700164795,4.465911388397217,0.4517386257648468
-2.8571038246154785,4.002663612365723,0.39495784044265747
-2.88236665725708,3.985654354095459,0.38323938846588135
-2.9312233924865723,3.9946775436401367,0.37276706099510193
-2.947842597961426,3.964240074157715,0.3584305942058563
-2.450711727142334,3.457400321960449,-0.1911819577217102
-2.7551965713500977,3.9485366344451904,-0.2309996485710144
-1.3230340480804443,1.9262336492538452,-0.11863186210393906
-2.268479585647583,3.3537538051605225,-0.21639704704284668
-2.2148149013519287,3.3279988765716553,-0.22424393892288208
-2.231215715408325,3.405264377593994,-0.23865284025669098
-2.1940877437591553,3.400789260864258,-0.24718596041202545
-2.153848886489868,3.393407106399536,-0.25538456439971924
-1.261650562286377,2.0199005603790283,-0.15705153346061707
-1.2737131118774414,2.0715949535369873,-0.16599877178668976
-2.092992067337036,3.4609806537628174,-0.2854613959789276
-2.0957610607147217,3.5221662521362305,-0.2984820306301117
-2.100405216217041,3.5865092277526855,-0.31178879737854004
-1.1717090606689453,2.035295248031616,-0.18139693140983582
-1.2047319412231445,2.1280837059020996,-0.19417068362236023
-2.5802242755889893,4.632653713226318,-0.43207427859306335
-2.554133415222168,4.663820743560791,-0.44430363178253174
-2.5271215438842773,4.695148468017578,-0.45657551288604736
-1.788761854171753,3.3811631202697754,-0.3353612720966339
-1.768438696861267,3.3998568058013916,-0.3435942828655243
-1.7399829626083374,3.4050133228302,-0.35034698247909546
-1.7150981426239014,3.4168457984924316,-0.3577755391597748
-1.7098990678787231,3.466452121734619,-0.3690342903137207
-1.7135601043701172,3.537442207336426,-0.3828118145465851
-1.749526858329773,3.678919553756714,-0.404345840215683
-1.726238489151001,3.697660446166992,-0.4125828742980957
-2.299276828765869,5.015847682952881,-0.5678212642669678
-2.2698287963867188,5.045177936553955,-0.579189658164978
-2.253600597381592,5.106576442718506,-0.5942134857177734
-2.109902858734131,4.875791549682617,-0.575002908706665
-2.0057733058929443,4.725030899047852,-0.5643578767776489
-1.9377875328063965,4.655723571777344,-0.5629520416259766
-1.8704824447631836,4.58589506149292,-0.5611199140548706
-1.8463088274002075,4.619772434234619,-0.5718645453453064
-1.8287795782089233,4.67159366607666,-0.5849537253379822
-1.3332042694091797,3.477257490158081,-0.44016578793525696
-1.7647508382797241,4.702471733093262,-0.6014841198921204
-1.7284507751464844,4.7066874504089355,-0.6082287430763245
-1.0450125932693481,2.907989263534546,-0.3795599937438965
-1.0241142511367798,2.914802312850952,-0.38423770666122437
-0.9806036949157715,2.855480432510376,-0.3798772692680359
-0.9367594718933105,2.7920360565185547,-0.3748233914375305
-0.9171717166900635,2.7979753017425537,-0.3789537847042084
-0.8798303604125977,2.748434066772461,-0.37552252411842346
-0.792995035648346,2.539771318435669,-0.3498503267765045
-0.7816917300224304,2.567086696624756,-0.35642972588539124
-0.7657903432846069,2.5794665813446045,-0.36096131801605225
-0.7520031332969666,2.5991532802581787,-0.3665420711040497
-0.747262716293335,2.6523585319519043,-0.3767552971839905
-0.740720808506012,2.7019026279449463,-0.38645121455192566
-0.715302586555481,2.6842398643493652,-0.3866136372089386
-0.7091246247291565,2.7373850345611572,-0.396946519613266
-0.6795361042022705,2.700556516647339,-0.39418309926986694
-0.6659460663795471,2.727393388748169,-0.40047770738601685
-0.6529005169868469,2.7579238414764404,-0.40737736225128174
-0.6350048780441284,2.7695791721343994,-0.41155529022216797
-0.6189998388290405,2.7885913848876953,-0.41682329773902893
-0.6026365756988525,2.80757474899292,-0.4218440055847168
-0.586004912853241,2.826475143432617,-0.42682307958602905
-0.5729710459709167,2.864208221435547,-0.43469956517219543
-0.5554831027984619,2.882967472076416,-0.4397878646850586
-0.5394911170005798,2.909176826477051,-0.4458986520767212
-0.5190268754959106,2.9125335216522217,-0.448270320892334
-0.5043759346008301,2.9500057697296143,-0.4559391438961029
-0.4875161051750183,2.9759488105773926,-0.46187010407447815
-0.4735676348209381,3.0247230529785156,-0.471443235874176
-0.45355287194252014,3.035268545150757,-0.47473278641700745
-0.4349991977214813,3.0571625232696533,-0.47974783182144165
-0.41776102781295776,3.090407609939575,-0.48659005761146545
-0.40015384554862976,3.1235435009002686,-0.49346545338630676
-0.38020816445350647,3.141273260116577,-0.4978480339050293
-0.36003372073173523,3.162808418273926,-0.5025262832641602
-0.33956998586654663,3.18033504486084,-0.5065835118293762
-0.3219928741455078,3.2284321784973145,-0.5155567526817322
-0.30093878507614136,3.245697259902954,-0.5196549296379089
-0.27928924560546875,3.2590346336364746,-0.5228263735771179
-0.2585632801055908,3.2915077209472656,-0.5289475321769714
-0.23919300734996796,3.3430533409118652,-0.5381657481193542
-0.2994343340396881,4.637579917907715,-0.7478876113891602
-0.26588356494903564,4.616191864013672,-0.7457429766654968
-0.2320098876953125,4.583120346069336,-0.7410468459129333
-0.1978568285703659,4.545975208282471,-0.7357300519943237
-0.16594822704792023,4.5393900871276855,-0.7353754043579102
-0.13387635350227356,4.524874210357666,-0.7337687611579895
-0.10195386409759521,4.506330490112305,-0.7312011122703552
-0.06958451867103577,4.445215702056885,-0.7213783264160156
-0.03800828754901886,4.433999538421631,-0.7196890115737915
-0.0071089062839746475,4.41099214553833,-0.7161175608634949
0.023556647822260857,4.410904884338379,-0.7163007855415344
0.05421650409698486,4.410704612731934,-0.7158715724945068
0.07990340888500214,4.152010440826416,-0.6734539270401001
0.10896479338407516,4.159143447875977,-0.6742119789123535
0.13952909409999847,4.193034648895264,-0.6793304085731506
0.1659974604845047,4.126572132110596,-0.6680604815483093
0.1953796148300171,4.140910625457764,-0.6694201827049255
0.23455975949764252,4.332178592681885,-0.6993678212165833
0.254999041557312,4.17280912399292,-0.6727347373962402
0.2839879095554352,4.163393020629883,-0.6703295111656189
0.31087538599967957,4.134647846221924,-0.6644433736801147
0.34111663699150085,4.151897430419922,-0.6657604575157166
0.3733580708503723,4.188137054443359,-0.6701329350471497
0.4102485179901123,4.266367435455322,-0.6812129020690918
0.5149281024932861,4.9851460456848145,-0.7942695617675781
0.5520594120025635,5.004920482635498,-0.795045793056488
0.5849934816360474,4.9860968589782715,-0.7897250652313232
0.611540675163269,4.917263031005859,-0.7765560150146484
0.6417244076728821,4.882724761962891,-0.7688822150230408
0.6794344186782837,4.90150785446167,-0.7692680358886719
0.710063099861145,4.87431526184082,-0.7621369361877441
0.7485473155975342,4.900352954864502,-0.7633576393127441
0.6272629499435425,3.9233181476593018,-0.6088918447494507
0.6495245695114136,3.8888206481933594,-0.6013156175613403
0.6765110492706299,3.8847265243530273,-0.5980141758918762
0.6984319090843201,3.8499698638916016,-0.5899326801300049
0.7309255003929138,3.875898599624634,-0.5912224054336548
0.754966676235199,3.85605525970459,-0.5855420827865601
0.7702764868736267,3.794436454772949,-0.5734217762947083
0.796540379524231,3.7895824909210205,-0.5696251392364502
0.823250412940979,3.784449815750122,-0.5657587647438049
0.8479627966880798,3.771636486053467,-0.5608091354370117
0.8707869052886963,3.751124620437622,-0.5547602772712708
0.8931828141212463,3.730567216873169,-0.5483773946762085
0.9190025329589844,3.7249109745025635,-0.5441465377807617
0.9415263533592224,3.703948974609375,-0.5376474857330322
0.9654397368431091,3.690406560897827,-0.5323144793510437
0.9880810976028442,3.6730196475982666,-0.5263285636901855
1.0134738683700562,3.6667561531066895,-0.5216982960700989
1.034598469734192,3.6454174518585205,-0.5149631500244141
1.0627039670944214,3.6460578441619873,-0.5112583637237549
1.0860084295272827,3.6317570209503174,-0.5055454969406128
1.1133959293365479,3.6322474479675293,-0.5015901923179626
1.126913070678711,3.588189125061035,-0.49150606989860535
1.1566425561904907,3.595681667327881,-0.4885053336620331
1.182257056236267,3.5880374908447266,-0.4833632707595825
1.199766993522644,3.5583925247192383,-0.4751945734024048
1.2217975854873657,3.5433990955352783,-0.46889105439186096
1.2321295738220215,3.4953384399414062,-0.4582827091217041
1.2736839056015015,3.534736394882202,-0.45910343527793884
1.311729073524475,3.5628585815429688,-0.45831817388534546
1.601530909538269,4.258659839630127,-0.5421515703201294
1.6349660158157349,4.259274959564209,-0.5366570949554443
1.661969542503357,4.241357326507568,-0.5287409424781799
1.6874198913574219,4.219631195068359,-0.5203883647918701
1.7163705825805664,4.208827495574951,-0.513148844242096
1.7427669763565063,4.190453052520752,-0.5049087405204773
1.7720173597335815,4.179051399230957,-0.49754372239112854
1.7952057123184204,4.153102397918701,-0.48845458030700684
1.8237322568893433,4.141538143157959,-0.4809069037437439
1.8457247018814087,4.115634918212891,-0.47169068455696106
1.8715940713882446,4.096283435821533,-0.4630764424800873
1.897046446800232,4.076857089996338,-0.4545496702194214
1.9133368730545044,4.040019512176514,-0.4439966678619385
1.9425255060195923,4.031239032745361,-0.43653783202171326
1.9739669561386108,4.025463104248047,-0.42927086353302
1.9975545406341553,4.001649379730225,-0.41991204023361206
2.0213730335235596,3.9818007946014404,-0.4110116958618164
2.044832468032837,3.961888551712036,-0.40213292837142944
2.0760960578918457,3.955233573913574,-0.3944261372089386
2.1002066135406494,3.934501886367798,-0.3852784037590027
2.1267969608306885,3.9210214614868164,-0.3767451345920563
2.1387534141540527,3.879814624786377,-0.36548134684562683
2.133591413497925,3.8077752590179443,-0.3513590395450592
2.1521623134613037,3.780189037322998,-0.34145697951316833
2.185288667678833,3.779918909072876,-0.33398574590682983
2.191410779953003,3.7320427894592285,-0.322209894657135
2.234044075012207,3.743809938430786,-0.3152695894241333
2.2591655254364014,3.729461908340454,-0.30618104338645935
2.2676970958709717,3.688467502593994,-0.29495319724082947
2.2895195484161377,3.6665284633636475,-0.28489434719085693
2.335433006286621,3.684426784515381,-0.2778693437576294
2.3349523544311523,3.629945993423462,-0.2652489244937897
2.3601300716400146,3.6143417358398438,-0.25532177090644836
2.402144432067871,3.624743700027466,-0.24706943333148956
2.4128360748291016,3.5901455879211426,-0.23573815822601318
2.437549591064453,3.5740904808044434,-0.22522155940532684
2.475646734237671,3.5769882202148438,-0.21549248695373535
2.489854574203491,3.548693895339966,-0.2040560394525528
2.509941816329956,3.5255799293518066,-0.19228284060955048
2.55149507522583,3.534815549850464,-0.18214133381843567
2.5514934062957764,3.487152338027954,-0.16886629164218903
2.175440788269043,2.9308066368103027,-0.13207226991653442
2.7846319675445557,3.908219337463379,0.3630470931529999
2.763856887817383,3.9408042430877686,0.3767624795436859
2.7355093955993652,3.959402084350586,0.3884759843349457
2.704224109649658,3.979680061340332,0.4001355767250061
2.6615703105926514,3.979154586791992,0.40913867950439453
2.6502621173858643,4.022943496704102,0.4222918748855591
2.6141111850738525,4.036144733428955,0.43214356899261475
2.5919947624206543,4.067763328552246,0.44359779357910156
2.559037685394287,4.078362941741943,0.45230188965797424
2.540635824203491,4.116253852844238,0.463841050863266
2.5008723735809326,4.121301651000977,0.4716154634952545
2.4886207580566406,4.168491363525391,0.48391491174697876
2.449209213256836,4.168248176574707,0.49051499366760254
2.450438976287842,4.242988109588623,0.5056880712509155
2.402754545211792,4.233461856842041,0.510886549949646
2.380335807800293,4.262964248657227,0.5203558206558228
2.2710578441619873,4.136053562164307,0.5106505155563354
2.2471954822540283,4.165815353393555,0.5196750164031982
2.2157373428344727,4.181713581085205,0.5270171165466309
2.1948370933532715,4.213737487792969,0.5361512899398804
2.165109157562256,4.22821044921875,0.5430383682250977
2.1368281841278076,4.250386714935303,0.5507271885871887
2.108415365219116,4.272346019744873,0.5582572817802429
2.0772271156311035,4.286750793457031,0.5647185444831848
2.0537123680114746,4.314430236816406,0.5728101134300232
2.01977276802063,4.321041107177734,0.5780521035194397
1.99420964717865,4.349173069000244,0.5858638286590576
1.9820287227630615,4.409233093261719,0.5981427431106567
2.0021347999572754,4.539512634277344,0.6199044585227966
1.9548215866088867,4.517091274261475,0.6208531260490417
1.9285691976547241,4.5444254875183105,0.6284835934638977
1.9263229370117188,4.6328654289245605,0.6443678736686707
1.878448486328125,4.614078521728516,0.6454709768295288
1.851346492767334,4.640961170196533,0.6527952551841736
1.8286553621292114,4.678329944610596,0.66160649061203
1.8037195205688477,4.712153911590576,0.669857382774353
1.3659942150115967,3.6476175785064697,0.520952045917511
1.336183786392212,3.649848699569702,0.5237565040588379
1.3126450777053833,3.6660728454589844,0.5285037159919739
1.28182852268219,3.6600394248962402,0.5300121903419495
1.6598552465438843,4.847267150878906,0.7051047086715698
1.6271028518676758,4.8658881187438965,0.71051424741745
1.5935297012329102,4.884483814239502,0.7159865498542786
1.5440232753753662,4.85103178024292,0.7137952446937561
1.514683723449707,4.875868797302246,0.7201034426689148
0.6112819910049438,2.0172154903411865,0.29902639985084534
1.448108196258545,4.902924060821533,0.7292874455451965
1.419108510017395,4.934994220733643,0.7362862825393677
1.4047317504882812,5.022905349731445,0.7517397999763489
1.3354872465133667,4.909114360809326,0.7369534373283386
1.2962039709091187,4.899110794067383,0.7376806735992432
1.2562127113342285,4.885045051574707,0.7378101348876953
1.2158119678497314,4.870880603790283,0.7375751733779907
1.208463191986084,4.995584011077881,0.7583062052726746
1.17261803150177,5.0036516189575195,0.7613856792449951
1.1424263715744019,5.033944606781006,0.767863929271698
1.1072633266448975,5.0413360595703125,0.7708753943443298
1.0760645866394043,5.0673747062683105,0.7767829895019531
1.0425692796707153,5.089741230010986,0.7817375659942627
1.0092501640319824,5.111820220947266,0.7865549921989441
0.9980234503746033,5.2513017654418945,0.8095192313194275
1.8422863483428955,10.078717231750488,1.5566084384918213
1.772019624710083,10.090567588806152,1.5613991022109985
1.69343900680542,10.060229301452637,1.559775948524475
1.6059415340423584,9.96837329864502,1.5477440357208252
1.5399978160858154,10.009456634521484,1.5561604499816895
1.4679514169692993,10.0118989944458,1.558652400970459
1.3934006690979004,9.990796089172363,1.5575283765792847
1.325546145439148,10.02281665802002,1.5647857189178467
1.2480692863464355,9.969954490661621,1.5588171482086182
1.183441400527954,10.024014472961426,1.5689598321914673
1.1085164546966553,9.993349075317383,1.5654677152633667
1.0351682901382446,9.973657608032227,1.5637660026550293
0.9684252738952637,10.01486587524414,1.5716845989227295
0.3880361318588257,4.332083225250244,0.680523693561554
0.35597842931747437,4.311433792114258,0.6779660582542419
0.3241496980190277,4.290582656860352,0.6752315759658813
0.29802003502845764,4.350407600402832,0.6849000453948975
0.2685115933418274,4.367701053619385,0.687910258769989
0.3064274489879608,5.640932559967041,0.8888663649559021
0.2667635679244995,5.63510274887085,0.8884036540985107
0.2300599366426468,5.698391437530518,0.8988848924636841
0.19152094423770905,5.734444618225098,0.9051108360290527
0.15273120999336243,5.7819061279296875,0.9125512838363647
0.11102218180894852,5.751962184906006,0.9078192710876465
0.07169810682535172,5.818164348602295,0.9183071255683899
0.031192854046821594,5.810783863067627,0.9172256588935852
-0.00947560928761959,5.972893714904785,0.9429458975791931
-0.05094686895608902,5.972661972045898,0.9430859684944153
-0.09438291192054749,6.049361228942871,0.9549596309661865
-0.13746508955955505,6.098793029785156,0.9623398780822754
-0.18073692917823792,6.128631114959717,0.9666685461997986
-0.22084932029247284,6.061761856079102,0.9557924270629883
-0.26302042603492737,6.060163497924805,0.9552565217018127
-0.18108786642551422,3.5956552028656006,0.5666381120681763
-0.20561274886131287,3.5789451599121094,0.5637688636779785
-0.2313617467880249,3.592952251434326,0.5654860734939575
-0.5595790147781372,7.844836235046387,1.2336715459823608
-0.6096290349960327,7.787156581878662,1.2236559391021729
-0.5637325644493103,6.610143661499023,1.037946343421936
-0.6090590953826904,6.5908284187316895,1.034196376800537
-0.6338686347007751,6.375406742095947,0.9997597932815552
-0.6753237247467041,6.3481621742248535,0.9942270517349243
-0.7246730327606201,6.393527030944824,1.0000741481781006
-0.7673009037971497,6.377194881439209,0.9963104724884033
-0.8063879609107971,6.325989246368408,0.987129271030426
-0.8436591625213623,6.270799160003662,0.9774082899093628
-0.8829087615013123,6.2345051765441895,0.9706940054893494
-0.9224808216094971,6.205726146697998,0.9647459983825684
-0.9732844829559326,6.253078937530518,0.9704262614250183
-0.5701503157615662,3.5024943351745605,0.5426245331764221
-1.0831619501113892,6.376865386962891,0.9862990975379944
-1.128929853439331,6.3771891593933105,0.9847373962402344
-1.1823818683624268,6.418976783752441,0.9896143674850464
-1.2383564710617065,6.471813201904297,0.9959105849266052
-1.289368987083435,6.4978203773498535,0.9976913928985596
-1.340775489807129,6.519504547119141,0.9987965226173401
-1.4006984233856201,6.582493782043457,1.0062768459320068
-1.4464032649993896,6.573149681091309,1.0026936531066895
-1.4826927185058594,6.5220255851745605,0.9927958250045776
-1.5188333988189697,6.474590301513672,0.9833258986473083
-0.6750263571739197,2.790926218032837,0.42269301414489746
-0.6920910477638245,2.7790510654449463,0.41975873708724976
-0.7090539336204529,2.7670631408691406,0.41683125495910645
-0.7283692359924316,2.762319326400757,0.4149874448776245
-0.7415542006492615,2.7350587844848633,0.40979185700416565
-0.7794629335403442,2.7971060276031494,0.41785940527915955
-1.7499810457229614,6.119500637054443,0.911130964756012
-1.7838267087936401,6.08221435546875,0.9025726914405823
-1.818602442741394,6.048377513885498,0.8945741057395935
-1.8448503017425537,5.984488487243652,0.8821403384208679
-1.8792275190353394,5.946103572845459,0.8734931349754333
-1.9152683019638062,5.919064998626709,0.866324245929718
-1.9454965591430664,5.8773698806762695,0.8567768335342407
-1.97152578830719,5.824529647827148,0.8456846475601196
-2.0012869834899902,5.782381534576416,0.8361760973930359
-2.0300521850585938,5.736177921295166,0.8260908126831055
-2.065463066101074,5.707835674285889,0.8185952305793762
-2.090597629547119,5.658236980438232,0.8077043890953064
-2.1204612255096436,5.623109340667725,0.7988694310188293
-1.556099772453308,4.044500350952148,0.5718669891357422
-1.5814229249954224,4.02694845199585,0.566580593585968
-1.5769437551498413,3.933485984802246,0.5506417751312256
-1.5819977521896362,3.869349479675293,0.5388191342353821
-1.589990258216858,3.816368341445923,0.5284187197685242
-1.6004050970077515,3.7705585956573486,0.5190931558609009
-1.624791145324707,3.75650954246521,0.514115571975708
-1.651594638824463,3.745438814163208,0.5094590187072754
-1.6617603302001953,3.699106454849243,0.5000485777854919
-1.6864804029464722,3.6885488033294678,0.49525463581085205
-1.7013158798217773,3.656724214553833,0.4876466691493988
-1.7196446657180786,3.6316299438476562,0.4809187054634094
-1.7555404901504517,3.6409389972686768,0.47862768173217773
-1.7704532146453857,3.6084604263305664,0.47085466980934143
-1.7856262922286987,3.579983949661255,0.463412344455719
-1.7882132530212402,3.5272226333618164,0.45290815830230713
-1.8053051233291626,3.501725912094116,0.4458402395248413
-1.826323390007019,3.482733726501465,0.4395509660243988
-1.857807993888855,3.484355926513672,0.43567296862602234
-2.827723741531372,5.220974922180176,0.6465455293655396
-1.1868387460708618,2.1574926376342773,0.2645763158798218
-1.1754515171051025,2.1020760536193848,0.2550845146179199
-2.516697645187378,4.428224563598633,0.5316590070724487
-2.5423364639282227,4.40554666519165,0.522808849811554
-6.018477916717529,10.275032043457031,1.2052472829818726
-1.260021686553955,2.1179018020629883,0.2453533411026001
-1.246779203414917,2.0628538131713867,0.23591181635856628
-2.937434673309326,4.789602756500244,0.5402957201004028
-2.9527130126953125,4.744683742523193,0.5276261568069458
-2.9709479808807373,4.702226161956787,0.5150047540664673
-3.0187735557556152,4.705173492431641,0.5072227120399475
-3.049182891845703,4.686643600463867,0.4967721402645111
-3.051664113998413,4.625637531280518,0.48190104961395264
-3.0847833156585693,4.604804515838623,0.47041815519332886
-3.0895419120788574,4.546384334564209,0.4552353024482727
-3.1030659675598145,4.505224227905273,0.4417768716812134
-3.1493449211120605,4.5074567794799805,0.4319519102573395
-2.921431303024292,4.121315956115723,0.3853149116039276
-2.8660850524902344,3.989600419998169,0.36326906085014343
-2.918236017227173,4.005842208862305,0.3544065058231354
-2.933905839920044,3.9712767601013184,0.34047773480415344
-2.467365026473999,3.455828905105591,-0.17847901582717896
-2.4560747146606445,3.491917610168457,-0.19098852574825287
-2.800039052963257,4.045809745788574,-0.23350872099399567
-2.243729829788208,3.2912638187408447,-0.19910937547683716
-2.2455813884735107,3.3459107875823975,-0.2114969789981842
-2.2160720825195312,3.355541229248047,-0.22105413675308228
-2.2195188999176025,3.4132564067840576,-0.233494833111763
-2.1814382076263428,3.409316301345825,-0.2416180521249771
-2.147711753845215,3.411579132080078,-0.24997900426387787
-1.2774676084518433,2.060880184173584,-0.1556638479232788
-1.2419967651367188,2.036529302597046,-0.1583663523197174
-2.0503311157226562,3.419077157974243,-0.2735322117805481
-2.0935356616973877,3.546861410140991,-0.2911188304424286
-2.1030333042144775,3.621856927871704,-0.30469822883605957
-1.1935341358184814,2.0906291007995605,-0.18012095987796783
-1.1747983694076538,2.091871738433838,-0.1842830777168274
-2.001251459121704,3.6236071586608887,-0.32622501254081726
-2.548550605773926,4.694854259490967,-0.4314325153827667
-2.5290346145629883,4.739773273468018,-0.44426625967025757
-1.7867074012756348,3.4053900241851807,-0.32522547245025635
-1.7532188892364502,3.4001893997192383,-0.3306599259376526
-1.7313729524612427,3.41938853263855,-0.3385065495967865
-1.7121018171310425,3.4414329528808594,-0.3464406430721283
-1.6981180906295776,3.473662853240967,-0.35537776350975037
-1.7604516744613647,3.6674907207489014,-0.38106027245521545
-1.7403831481933594,3.6935195922851562,-0.3896086513996124
-2.3182365894317627,5.010593891143799,-0.5362409353256226
-2.2823550701141357,5.026024341583252,-0.5456723570823669
-2.255401849746704,5.062727928161621,-0.5570706725120544
-2.10513973236084,4.817957878112793,-0.5371683239936829
-2.048203229904175,4.778153896331787,-0.5395044684410095
-1.9302955865859985,4.590935230255127,-0.5248432755470276
-1.9188302755355835,4.657914161682129,-0.538885235786438
-1.854766607284546,4.595064163208008,-0.5377897024154663
-1.833715558052063,4.636044979095459,-0.5486970543861389
-1.3381917476654053,3.4533658027648926,-0.4132515788078308
-1.3189172744750977,3.476738214492798,-0.4203769862651825
-1.7511820793151855,4.719051837921143,-0.5765287280082703
-2.0078279972076416,5.529175281524658,-0.6822370886802673
-1.0494325160980225,2.953836679458618,-0.3680422306060791
-1.0207802057266235,2.9387013912200928,-0.3695339262485504
-0.9910382032394409,2.9196853637695312,-0.3704279661178589
-0.9601998329162598,2.8967795372009277,-0.37081673741340637
-0.9398421049118042,2.9029338359832764,-0.3748238682746887
-0.8971366286277771,2.8387606143951416,-0.369572252035141
-0.7981019020080566,2.5890345573425293,-0.3396967053413391
-0.7752319574356079,2.5793557167053223,-0.3410506546497345
-0.7571744322776794,2.5842838287353516,-0.344297856092453
-0.740893542766571,2.596618175506592,-0.348580539226532
-0.7463175654411316,2.6872403621673584,-0.3631868064403534
-0.7353625297546387,2.7219464778900146,-0.37035638093948364
-0.7172378301620483,2.730358600616455,-0.37397533655166626
-0.6952639222145081,2.7236247062683105,-0.3755229711532593
-0.6757630705833435,2.728121519088745,-0.37846946716308594
-0.6564813256263733,2.7324378490448,-0.3812580704689026
-0.6468695402145386,2.778069496154785,-0.38985881209373474
-0.6223080158233643,2.759483814239502,-0.3894668221473694
-0.6128605604171753,2.8087522983551025,-0.39863789081573486
-0.59588623046875,2.827857732772827,-0.403338760137558
-0.5813215970993042,2.858166217803955,-0.409653902053833
-0.568752646446228,2.8997576236724854,-0.4176354706287384
-0.5499792098999023,2.9108827114105225,-0.42127200961112976
-0.5323428511619568,2.9295461177825928,-0.4258009195327759
-0.5127326250076294,2.9405670166015625,-0.42914336919784546
-0.4991070628166199,2.98571515083313,-0.4374854862689972
-0.48321032524108887,3.0193278789520264,-0.4441872239112854
-0.4609954357147217,3.0146536827087402,-0.44526785612106323
-0.44322699308395386,3.040483236312866,-0.45049670338630676
-0.42421847581863403,3.0624241828918457,-0.4552162289619446
-0.4078597128391266,3.103349447250366,-0.46277934312820435
-0.3852284848690033,3.098173141479492,-0.46350473165512085
-0.36987340450286865,3.154261827468872,-0.47323086857795715
-0.34987205266952515,3.1757564544677734,-0.47758597135543823
-0.32921716570854187,3.1932766437530518,-0.48137784004211426
-0.31105220317840576,3.241440773010254,-0.48984792828559875
-0.2909097969532013,3.2702298164367676,-0.49542057514190674
-0.27001094818115234,3.2951066493988037,-0.5000298619270325
-0.2493470311164856,3.327561140060425,-0.5057563185691833
-0.22902892529964447,3.37144136428833,-0.5132619738578796
-0.2070479840040207,3.40364933013916,-0.5190473198890686
-0.1854747235774994,3.4434187412261963,-0.5259019732475281
-0.1620318740606308,3.4561095237731934,-0.5282543897628784
-0.13980698585510254,3.5033645629882812,-0.5359227657318115
-0.11619774252176285,3.5273168087005615,-0.540060818195343
-0.09192950278520584,3.5549771785736084,-0.5448087453842163
-0.06823638081550598,3.609529733657837,-0.5534012913703918
-0.043361954391002655,3.629208564758301,-0.5564445853233337
-0.018283691257238388,3.668020486831665,-0.5624491572380066
0.007272731978446245,3.7066569328308105,-0.5684553384780884
0.033747199922800064,3.7335257530212402,-0.5726882815361023
0.06078142300248146,3.802757501602173,-0.5829229950904846
0.08765802532434464,3.8216168880462646,-0.5854042172431946
0.11422287672758102,3.820988655090332,-0.5849264860153198
0.1460770219564438,3.9629483222961426,-0.6062910556793213
0.17618373036384583,4.019799709320068,-0.6145035028457642
0.20739348232746124,4.072612762451172,-0.6216413378715515
0.23904772102832794,4.129069805145264,-0.6293578743934631
0.2667134702205658,4.112064361572266,-0.6258991360664368
0.2924942970275879,4.071760177612305,-0.6189353466033936
0.3198181986808777,4.05830192565918,-0.6157378554344177
0.35540440678596497,4.137019157409668,-0.6262576580047607
0.3812106251716614,4.103946208953857,-0.6198936104774475
0.4047543704509735,4.051482677459717,-0.6106523275375366
0.43498021364212036,4.068029880523682,-0.6118522882461548
0.46186205744743347,4.053734302520752,-0.607901930809021
0.4867275357246399,4.020031929016113,-0.6010248064994812
0.5146509408950806,4.0168867111206055,-0.5987867116928101
0.5364055633544922,3.9675817489624023,-0.5897126197814941
0.5661700963973999,3.9794132709503174,-0.5895987153053284
0.5948970913887024,3.9834442138671875,-0.5879755616188049
0.6206321120262146,3.9642791748046875,-0.5829208493232727
0.6457136869430542,3.9450066089630127,-0.5779285430908203
0.6673015356063843,3.9065167903900146,-0.5701760053634644
0.6957197189331055,3.9098587036132812,-0.5682135820388794
0.7199748754501343,3.890202045440674,-0.5627884864807129
0.7454818487167358,3.8779823780059814,-0.5584784746170044
0.7646881937980652,3.8313331604003906,-0.5492091178894043
0.7913786172866821,3.826374053955078,-0.5459595918655396
0.8146437406539917,3.806182384490967,-0.5401613116264343
0.8393082618713379,3.793408155441284,-0.5354622602462769
0.8553615808486938,3.7427093982696533,-0.5254595279693604
0.8855012655258179,3.7521183490753174,-0.5238863229751587
0.9097005724906921,3.7388956546783447,-0.5189764499664307
0.9317688941955566,3.7180516719818115,-0.5128709673881531
0.9507190585136414,3.6858181953430176,-0.505250871181488
0.9764786958694458,3.679629325866699,-0.5012156963348389
0.9964606761932373,3.6507437229156494,-0.4940575361251831
1.0279284715652466,3.6667428016662598,-0.4927081763744354
1.0510915517807007,3.6526949405670166,-0.4873304069042206
1.0743342638015747,3.6384334564208984,-0.48193061351776123
1.106499195098877,3.6536691188812256,-0.48043543100357056
1.3633102178573608,4.39047384262085,-0.5727798938751221
1.4065128564834595,4.422346115112305,-0.5722827911376953
1.4311107397079468,4.3948140144348145,-0.5640868544578552
1.468024730682373,4.403818130493164,-0.5605513453483582
1.4874942302703857,4.361171245574951,-0.5504077076911926
1.5149688720703125,4.34426736831665,-0.5432896018028259
1.2730703353881836,3.5705134868621826,-0.4423592686653137
1.2953768968582153,3.5548617839813232,-0.43628424406051636
1.325675368309021,3.560877561569214,-0.4328770041465759
1.6246013641357422,4.274397850036621,-0.514363706111908
1.6511127948760986,4.256683349609375,-0.5069648027420044
1.676932454109192,4.234849452972412,-0.4989584982395172
1.7036967277526855,4.216557025909424,-0.49146801233291626
1.732761025428772,4.205484390258789,-0.4846820533275604
1.7555147409439087,4.179976940155029,-0.4761717617511749
1.7874701023101807,4.175652027130127,-0.47004804015159607
1.8048028945922852,4.135091781616211,-0.4597224295139313
1.833387851715088,4.123281002044678,-0.45264163613319397
1.8615013360977173,4.111449241638184,-0.44546622037887573
1.8865371942520142,4.092241287231445,-0.43746840953826904
1.911906361579895,4.072643756866455,-0.42936208844184875
1.9405138492584229,4.05988073348999,-0.4218246340751648
1.957852840423584,4.026384353637695,-0.4121912121772766
1.9854966402053833,4.013591289520264,-0.40465474128723145
2.008455276489258,3.989860773086548,-0.3959038555622101
2.035966157913208,3.976656198501587,-0.3881587088108063
2.0664708614349365,3.9704227447509766,-0.3810389041900635
2.076084613800049,3.922180414199829,-0.36971980333328247
2.114640951156616,3.928828001022339,-0.36361661553382874
2.1301169395446777,3.8945913314819336,-0.3536686599254608
2.112769842147827,3.802597761154175,-0.33863765001296997
2.154506206512451,3.815655469894409,-0.33283519744873047
2.1661078929901123,3.7739200592041016,-0.3220669627189636
2.187434196472168,3.7532827854156494,-0.3132200539112091
2.2207040786743164,3.7525079250335693,-0.30596861243247986
2.2389988899230957,3.7241458892822266,-0.29619649052619934
2.247999906539917,3.682915687561035,-0.28547534346580505
2.2892813682556152,3.6948082447052,-0.27873361110687256
2.3066558837890625,3.6662495136260986,-0.26869526505470276
2.323514938354492,3.63775372505188,-0.2586386203765869
2.37294864654541,3.6622302532196045,-0.2522819936275482
2.376568555831909,3.6139349937438965,-0.2406051605939865
2.4063117504119873,3.604227066040039,-0.2312043160200119
2.4297990798950195,3.589041233062744,-0.22159351408481598
2.4454333782196045,3.560098171234131,-0.21077026426792145
2.478761672973633,3.5566139221191406,-0.2011997550725937
2.515249013900757,3.5601823329925537,-0.1919594258069992
2.5174055099487305,3.5113301277160645,-0.1791529655456543
2.55890154838562,3.5204336643218994,-0.16935110092163086
2.1742103099823,2.951117515563965,-0.13307833671569824
2.7674179077148438,3.9126102924346924,0.3433659076690674
2.7460267543792725,3.945603132247925,0.35632389783859253
2.7004146575927734,3.938249349594116,0.3647915720939636
2.669238567352295,3.9584250450134277,0.3757055401802063
2.6650054454803467,4.016473293304443,0.3898455798625946
2.6237223148345947,4.014733791351318,0.3976839780807495
2.5803637504577637,4.014042854309082,0.40534326434135437
2.561882734298706,4.052546501159668,0.41687002778053284
2.5409862995147705,4.083102226257324,0.42714300751686096
2.533482551574707,4.13710880279541,0.43971580266952515
2.4837543964385986,4.125420093536377,0.4451574981212616
2.475250005722046,4.179426193237305,0.45745211839675903
2.432051420211792,4.172356128692627,0.46285387873649597
2.4044058322906494,4.196423053741455,0.47158488631248474
2.3744943141937256,4.217002868652344,0.4797605276107788
2.330714702606201,4.2094340324401855,0.48448243737220764
2.254514217376709,4.1396098136901855,0.48177507519721985
2.234938383102417,4.175863265991211,0.4911022186279297
2.1992852687835693,4.185151100158691,0.4972716271877289
2.177640199661255,4.217531681060791,0.5059794783592224
2.154979705810547,4.245809555053711,0.5140833258628845
2.127887010574341,4.267361640930176,0.5212803483009338
2.089280843734741,4.2683539390563965,0.5257508754730225
2.0770936012268066,4.325255870819092,0.5372450351715088
2.023406744003296,4.289891719818115,0.5369923710823059
1.9996777772903442,4.317385673522949,0.5446010828018188
1.9679447412490845,4.331233501434326,0.55020672082901
2.011624336242676,4.51508903503418,0.5775032639503479
1.9724172353744507,4.514699459075928,0.581344723701477
1.961570382118225,4.577847003936768,0.5933391451835632
1.9354619979858398,4.60506534576416,0.6006937623023987
1.9017046689987183,4.618433952331543,0.6058576703071594
1.8808501958847046,4.663937091827393,0.6152775287628174
1.8228752613067627,4.6154375076293945,0.6122604012489319
1.801119089126587,4.656574726104736,0.6210945844650269
1.3757601976394653,3.631802558898926,0.48701074719429016
2.7701714038848877,7.475001811981201,1.007089376449585
1.3228380680084229,3.6504600048065186,0.4940914213657379
1.29887056350708,3.6668026447296143,0.4985959231853485
1.2676551342010498,3.660845994949341,0.5000443458557129
1.6419378519058228,4.850635528564453,0.6655200123786926
1.5793758630752563,4.777048110961914,0.6580855250358582
1.562569499015808,4.843103408813477,0.6696927547454834
1.5321002006530762,4.868514537811279,0.675751268863678
1.4947701692581177,4.871451377868652,0.6787118911743164
1.4761966466903687,4.933175563812256,0.6898496747016907
1.4416234493255615,4.942843437194824,0.6937524676322937
1.4282197952270508,5.030803680419922,0.708210825920105
1.3723591566085815,4.969581604003906,0.7017104625701904
1.3094775676727295,4.87791633605957,0.6908709406852722
1.2767531871795654,4.89410924911499,0.6952759623527527
1.2349557876586914,4.872426986694336,0.6942886710166931
1.2164026498794556,4.9444122314453125,0.7065280675888062
1.1863609552383423,4.975168228149414,0.7125939726829529
1.1559404134750366,5.005741119384766,0.7186853885650635
1.1196640729904175,5.013565540313721,0.7215756773948669
1.0879617929458618,5.0359697341918945,0.7265394330024719
1.0560013055801392,5.058170795440674,0.7315196990966797
1.0188829898834229,5.057515621185303,0.7329950332641602
0.9895296692848206,5.0984673500061035,0.7402423024177551
1.9335840940475464,10.3623628616333,1.5072883367538452
1.860198736190796,10.375110626220703,1.511939525604248
1.7865214347839355,10.379535675048828,1.5154075622558594
1.7190544605255127,10.421603202819824,1.5244557857513428
1.6283994913101196,10.322061538696289,1.5123640298843384
1.5539065599441528,10.333019256591797,1.515911340713501
1.4806798696517944,10.343255996704102,1.5193947553634644
1.4107342958450317,10.375923156738281,1.5262477397918701
1.3281834125518799,10.304473876953125,1.5178167819976807
1.2584924697875977,10.328290939331055,1.5234754085540771
1.178044080734253,10.263408660888672,1.5157874822616577
1.0996551513671875,10.225114822387695,1.511315107345581
1.021166443824768,10.166885375976562,1.5039385557174683
0.4033529758453369,4.3210344314575195,0.639743447303772
0.3699221611022949,4.285096168518066,0.6349968314170837
0.340067058801651,4.287428379058838,0.6359469890594482
0.30966269969940186,4.289593696594238,0.6368738412857056
0.28307563066482544,4.3455681800842285,0.6453976631164551
0.3263770043849945,5.616475582122803,0.8344671726226807
0.28854164481163025,5.649399757385254,0.8397182822227478
0.24914886057376862,5.651175498962402,0.8403803110122681
0.2111862450838089,5.706752300262451,0.8490945100784302
0.1714596003293991,5.707984447479248,0.8497617244720459
0.1321547031402588,5.72832727432251,0.8528093695640564
0.09274247288703918,5.760006427764893,0.8574669361114502
0.05321282520890236,5.826183795928955,0.8673012256622314
0.011916820891201496,5.826406002044678,0.86735999584198
-0.029367826879024506,5.980884075164795,0.8904260993003845
-0.071583591401577,6.026886463165283,0.8973882794380188
-0.1148519217967987,6.099677562713623,0.9080650806427002
-0.1572110503911972,6.098817825317383,0.9074937105178833
-0.19887232780456543,6.07449197769165,0.9034751653671265
-0.24132980406284332,6.06143856048584,0.9011739492416382
