X,Y,Z
-1.193922996520996,6.45676326751709,1.2259608507156372
-1.2497161626815796,6.5054826736450195,1.2334239482879639
-1.3038418292999268,6.546532154083252,1.2386640310287476
-1.3570555448532104,6.575726509094238,1.2415772676467896
-1.4139556884765625,6.62344217300415,1.2480543851852417
-1.455519437789917,6.595557689666748,1.240302562713623
-1.4895076751708984,6.533600807189941,1.226206660270691
-1.5279837846755981,6.493922710418701,1.2163820266723633
-0.6815203428268433,2.808732032775879,0.524844229221344
-0.692231297492981,2.7708687782287598,0.5164325833320618
-0.7110717296600342,2.7664904594421387,0.5143020153045654
-0.7339612245559692,2.7768163681030273,0.5149117708206177
-0.7493422627449036,2.757176399230957,0.5099634528160095
-0.775153636932373,2.774411201477051,0.5118355751037598
-1.7645182609558105,6.152671813964844,1.1318608522415161
-1.79542076587677,6.104666233062744,1.1194744110107422
-1.8279106616973877,6.063896179199219,1.1085100173950195
-1.8568941354751587,6.011814594268799,1.0955381393432617
-1.8880116939544678,5.9628071784973145,1.08309006690979
-1.9214762449264526,5.924813270568848,1.0727837085723877
-1.9549297094345093,5.890602111816406,1.0628703832626343
-1.9823631048202515,5.841900825500488,1.05007004737854
-2.0130116939544678,5.803997039794922,1.0393006801605225
-2.0398359298706055,5.75488805770874,1.0265690088272095
-2.070300340652466,5.712377548217773,1.0149497985839844
-2.098186492919922,5.666346549987793,1.0028716325759888
-1.5085245370864868,3.9910659790039062,0.7032876014709473
-1.5089826583862305,3.913342237472534,0.686458170413971
-1.5028544664382935,3.8213953971862793,0.6672812104225159
-1.4996092319488525,3.736394166946411,0.6493341326713562
-1.5141687393188477,3.698023796081543,0.6396176218986511
-1.5325138568878174,3.6703908443450928,0.6317669749259949
-1.551106572151184,3.6466758251190186,0.6242666840553284
-1.5602092742919922,3.6016299724578857,0.613193929195404
-1.571083903312683,3.5598316192626953,0.6026607751846313
-1.5866543054580688,3.528412103652954,0.5939021110534668
-1.611506700515747,3.518000364303589,0.5887296795845032
-1.6221909523010254,3.4799294471740723,0.578637421131134
-1.6421480178833008,3.4629106521606445,0.5720364451408386
-1.6691433191299438,3.4594786167144775,0.5676273703575134
-1.6935099363327026,3.448556423187256,0.561886727809906
-1.7212575674057007,3.444371223449707,0.5572637319564819
-2.706027030944824,5.326272964477539,0.8551885485649109
-2.760892868041992,5.347464084625244,0.8518816232681274
-2.780557632446289,5.2994842529296875,0.8375183939933777
-2.8039770126342773,5.25365686416626,0.8231431245803833
-1.1445224285125732,2.109076499938965,0.32763272523880005
-1.18650484085083,2.152937650680542,0.3313475549221039
-5.5933027267456055,9.99517822265625,1.5238651037216187
-2.526486873626709,4.444502830505371,0.6709480285644531
-2.5410618782043457,4.397399425506592,0.6568737030029297
-6.009042739868164,10.239771842956543,1.513096570968628
-1.2374871969223022,2.0779500007629395,0.3035724461078644
-1.2513140439987183,2.070327043533325,0.2989388704299927
-2.9358181953430176,4.781757831573486,0.6817270517349243
-2.977818489074707,4.7756805419921875,0.6718198657035828
-3.017399549484253,4.770787715911865,0.6619094610214233
-3.0197181701660156,4.706537246704102,0.6437364816665649
-3.0487759113311768,4.680215835571289,0.6302693486213684
-3.052772283554077,4.618912220001221,0.6120560765266418
-3.074413299560547,4.587535381317139,0.5975396037101746
-3.096687078475952,4.555459022521973,0.5826950669288635
-3.124746084213257,4.528582572937012,0.5680020451545715
-3.134089469909668,4.481232643127441,0.5505269765853882
-2.8686530590057373,4.046987056732178,0.4865344762802124
-2.8684632778167725,3.986694097518921,0.46748054027557373
-2.9198198318481445,4.003931999206543,0.4575539231300354
-2.940791606903076,3.9804835319519043,0.4426851272583008
-2.4842793941497803,3.480595111846924,-0.20716078579425812
-2.440403938293457,3.4725594520568848,-0.21968118846416473
-2.8747830390930176,4.153076171875,-0.2774026691913605
-2.33359694480896,3.426117181777954,-0.24084092676639557
-2.217769145965576,3.305870532989502,-0.2431185096502304
-2.2514736652374268,3.408996343612671,-0.2615329325199127
-2.2039268016815186,3.392592668533325,-0.271133154630661
-2.7889251708984375,4.359091281890869,-0.3610769808292389
-1.2787991762161255,2.030862331390381,-0.17409728467464447
-1.2840235233306885,2.072946786880493,-0.1836547702550888
-1.2226505279541016,2.0049586296081543,-0.1830286681652069
-2.117216110229492,3.529195785522461,-0.33172303438186646
-2.5655906200408936,4.348522186279297,-0.4202025532722473
-2.590970516204834,4.463202953338623,-0.442548006772995
-1.2081106901168823,2.1151392459869385,-0.2149600237607956
-2.5924086570739746,4.616573810577393,-0.48045870661735535
-2.5637378692626953,4.6445112228393555,-0.49465325474739075
-2.538257122039795,4.6748456954956055,-0.5086583495140076
-2.5115935802459717,4.7054877281188965,-0.5226678848266602
-1.7458008527755737,3.3283979892730713,-0.3771882951259613
-1.7326786518096924,3.3605217933654785,-0.38814228773117065
-1.6978282928466797,3.351144790649414,-0.3943793773651123
-1.683626651763916,3.3833541870117188,-0.40528127551078796
-1.675948143005371,3.4294185638427734,-0.4179546535015106
-1.7054201364517212,3.5521633625030518,-0.44007405638694763
-2.3470828533172607,4.977926254272461,-0.6266317367553711
-2.314067840576172,5.000431537628174,-0.6392174363136292
-2.2901463508605957,5.044016361236572,-0.6546850800514221
-2.2576804161071777,5.065635681152344,-0.6670190691947937
-1.0113242864608765,2.3126938343048096,-0.3088056743144989
-1.0389039516448975,2.4225709438323975,-0.32786139845848083
-0.9974703788757324,2.372084140777588,-0.3252846300601959
-0.9700666666030884,2.353405475616455,-0.32694771885871887
-0.9634434580802917,2.384704113006592,-0.3354129195213318
-0.9334139823913574,2.3584837913513184,-0.335699200630188
-0.9193201661109924,2.371633291244507,-0.3415360450744629
-0.8998306393623352,2.3701322078704834,-0.34522393345832825
-0.8948252201080322,2.4085195064544678,-0.35476920008659363
-0.8801771402359009,2.4214649200439453,-0.36044931411743164
-0.8654583692550659,2.43428897857666,-0.3661368787288666
-0.8508341908454895,2.44694185256958,-0.3717885911464691
-0.8385280966758728,2.466836929321289,-0.3785344362258911
-0.8279128074645996,2.49418306350708,-0.386361688375473
-0.8160533905029297,2.5177226066589355,-0.39361751079559326
-0.7959687113761902,2.5153589248657227,-0.39681363105773926
-0.7873306274414062,2.549739122390747,-0.40586110949516296
-0.766933023929596,2.547227621078491,-0.40879303216934204
-0.7618045806884766,2.5964128971099854,-0.42009437084198
-0.7484701871871948,2.619678020477295,-0.42732807993888855
-0.7486829161643982,2.6910927295684814,-0.4424755573272705
-0.7296667695045471,2.695650339126587,-0.44648244976997375
-0.7125625014305115,2.7075486183166504,-0.4516389071941376
-0.6934561729431152,2.711850166320801,-0.4555526673793793
-0.6787375807762146,2.7347662448883057,-0.46267685294151306
-0.6802474856376648,2.825005054473877,-0.48111987113952637
-0.6489329934120178,2.780327320098877,-0.47642025351524353
-0.6471352577209473,2.8631234169006348,-0.4936227798461914
-0.6443809270858765,2.9459550380706787,-0.5109953284263611
-0.9211678504943848,4.35877799987793,-0.760703444480896
-0.8805176615715027,4.315243244171143,-0.7570263743400574
-0.8316059112548828,4.22605037689209,-0.7452459335327148
-0.7826524972915649,4.128842830657959,-0.731895923614502
-0.7420028448104858,4.0690484046936035,-0.725060760974884
-0.7050085663795471,4.028014659881592,-0.7211245894432068
-0.6582705974578857,3.922165632247925,-0.7052123546600342
-0.6216225028038025,3.869051218032837,-0.6986835598945618
-0.5946218967437744,3.872626543045044,-0.7023682594299316
-0.45671597123146057,3.119093894958496,-0.56804358959198
-0.4202016592025757,3.0190207958221436,-0.5517414808273315
-0.40361469984054565,3.055744171142578,-0.5603895783424377
-0.384175181388855,3.0733025074005127,-0.5655797719955444
-0.3672340512275696,3.1136231422424316,-0.5750187039375305
-0.3480291962623596,3.138657331466675,-0.5812277793884277
-0.32808980345726013,3.159766435623169,-0.5866531729698181
-0.3071323335170746,3.176950693130493,-0.5914213061332703
-0.28774070739746094,3.2092604637145996,-0.5990275740623474
-0.2666384279727936,3.226179838180542,-0.6035814881324768
-0.24471813440322876,3.235368251800537,-0.6063517332077026
-0.22347134351730347,3.255897045135498,-0.6112856268882751
-0.20188044011592865,3.2801296710968018,-0.6169740557670593
-0.17741437256336212,3.25053334236145,-0.6125460863113403
-0.15556387603282928,3.266878604888916,-0.6162153482437134
-0.13440318405628204,3.3060953617095947,-0.62419593334198
-0.11089511215686798,3.291463851928711,-0.622044026851654
-0.08864449709653854,3.3303911685943604,-0.6300598382949829
-0.06598742306232452,3.3577024936676025,-0.6356014013290405
-0.04292917996644974,3.3810830116271973,-0.6400882601737976
-0.01924038492143154,3.3505711555480957,-0.6344031095504761
0.004122674465179443,3.3813042640686035,-0.6403452157974243
0.028183357790112495,3.396519184112549,-0.6433714628219604
0.051474977284669876,3.373314142227173,-0.6384894251823425
0.0758092924952507,3.4113452434539795,-0.6452271342277527
0.0995291918516159,3.410835027694702,-0.6447016000747681
0.12474376708269119,3.4523561000823975,-0.6521472930908203
0.14772528409957886,3.4285624027252197,-0.6469237804412842
0.1717635691165924,3.4238224029541016,-0.6450145840644836
0.195754736661911,3.4265992641448975,-0.6445708274841309
0.22153863310813904,3.456026792526245,-0.6491609811782837
0.24665090441703796,3.469954490661621,-0.6508015394210815
0.2725527584552765,3.4914684295654297,-0.6532766819000244
0.3001801371574402,3.524240493774414,-0.6578372120857239
0.3275173008441925,3.553009033203125,-0.6616798639297485
0.35299423336982727,3.558636426925659,-0.6612287163734436
0.3829759657382965,3.606182098388672,-0.6681585907936096
0.4106234610080719,3.626809597015381,-0.6698481440544128
0.43997591733932495,3.654811382293701,-0.6728609800338745
0.47077372670173645,3.6940672397613525,-0.6779720783233643
0.49959710240364075,3.7140517234802246,-0.6794184446334839
0.5356878042221069,3.783397674560547,-0.6893288493156433
0.5688098669052124,3.8258163928985596,-0.6942805051803589
0.6071745157241821,3.894500255584717,-0.7038975358009338
0.6367666721343994,3.9059793949127197,-0.7031960487365723
0.6749057173728943,3.966625452041626,-0.7108232378959656
0.7178964018821716,4.049713611602783,-0.7222152352333069
0.7579492926597595,4.10970401763916,-0.72938472032547
0.8062443733215332,4.207127571105957,-0.7430751919746399
0.8488823175430298,4.266310214996338,-0.7496294379234314
0.9159110188484192,4.442201614379883,-0.7761011719703674
0.9411879181861877,4.4102888107299805,-0.7661552429199219
0.9952857494354248,4.509838581085205,-0.7789818048477173
1.0353708267211914,4.541274547576904,-0.7799448370933533
1.0825504064559937,4.598649978637695,-0.7846166491508484
1.1181862354278564,4.607044219970703,-0.7809126973152161
1.146578073501587,4.585227966308594,-0.7721143960952759
1.17866849899292,4.578139305114746,-0.7658337950706482
1.2046629190444946,4.5485334396362305,-0.7555205821990967
1.2368230819702148,4.5410475730896,-0.7485567331314087
1.2632182836532593,4.514871120452881,-0.738663911819458
1.2906112670898438,4.492178440093994,-0.7293758988380432
1.3057125806808472,4.428598880767822,-0.7134721875190735
1.0872740745544434,3.596342086791992,-0.574539840221405
1.1126832962036133,3.5895185470581055,-0.5685338973999023
1.1355462074279785,3.5751876831054688,-0.5614085793495178
1.1630678176879883,3.5753910541534424,-0.5565881729125977
1.1830224990844727,3.5535213947296143,-0.548042893409729
1.2052096128463745,3.5388593673706055,-0.5406187176704407
1.2299747467041016,3.5312938690185547,-0.5342767834663391
1.252618670463562,3.5160906314849854,-0.5267066955566406
1.2770946025848389,3.5082507133483887,-0.5201645493507385
1.2986819744110107,3.4930429458618164,-0.5124498605728149
1.3216427564620972,3.4812560081481934,-0.5052441954612732
1.343353509902954,3.465607166290283,-0.49746227264404297
1.365139365196228,3.449749231338501,-0.48948201537132263
1.3889846801757812,3.4412007331848145,-0.48252174258232117
1.404022216796875,3.410940647125244,-0.47255241870880127
1.4280188083648682,3.401935338973999,-0.46550965309143066
1.4518167972564697,3.3928158283233643,-0.458400160074234
1.7871408462524414,4.097914218902588,-0.5462591052055359
1.818574070930481,4.093717098236084,-0.5383988618850708
1.8506625890731812,4.08900785446167,-0.5303076505661011
1.8857825994491577,4.091196537017822,-0.5230465531349182
1.9072809219360352,4.065248012542725,-0.5120545625686646
1.9324606657028198,4.045912265777588,-0.5017913579940796
1.9575926065444946,4.026340484619141,-0.49151259660720825
1.9822430610656738,4.006743431091309,-0.4812258780002594
2.0079104900360107,3.990730047225952,-0.4712955355644226
2.0283446311950684,3.9640557765960693,-0.4601011574268341
2.059891939163208,3.957646608352661,-0.451108455657959
2.0695979595184326,3.9097788333892822,-0.43726015090942383
2.1035518646240234,3.9103713035583496,-0.42898622155189514
2.1306381225585938,3.8967669010162354,-0.41898807883262634
2.1184396743774414,3.8112993240356445,-0.40128520131111145
2.148258924484253,3.8045568466186523,-0.3919602632522583
2.170564651489258,3.7839481830596924,-0.3810585141181946
2.1853463649749756,3.7494606971740723,-0.36866819858551025
2.227296829223633,3.761946201324463,-0.36084800958633423
2.232495069503784,3.714496612548828,-0.3472725749015808
2.257924795150757,3.700070858001709,-0.3367006182670593
2.292710065841675,3.6979618072509766,-0.326772540807724
2.300983190536499,3.656996250152588,-0.3136063516139984
2.3213346004486084,3.635789155960083,-0.30217674374580383
2.372391939163208,3.65948486328125,-0.29391664266586304
2.371419668197632,3.605158567428589,-0.27940571308135986
2.399942398071289,3.596492052078247,-0.2683592140674591
2.4471428394317627,3.6126325130462646,-0.2585369646549225
2.444976329803467,3.558310031890869,-0.2437000274658203
2.4727609157562256,3.54938006401062,-0.23205353319644928
2.515779495239258,3.558145046234131,-0.22063352167606354
2.521450996398926,3.5165860652923584,-0.2059141844511032
2.5815446376800537,3.5509636402130127,-0.19542136788368225
2.1705715656280518,2.9432270526885986,-0.15092350542545319
2.783405065536499,3.9384500980377197,0.45075610280036926
2.76208758354187,3.970792293548584,0.4660535454750061
2.712986946105957,3.965259552001953,0.47666695713996887
2.697202682495117,4.00264835357666,0.49148884415626526
2.673328399658203,4.031114101409912,0.5049189329147339
2.6267411708831787,4.027671813964844,0.5141817927360535
2.6207151412963867,4.081020355224609,0.5299565196037292
2.582745313644409,4.085358142852783,0.5392405390739441
2.540187120437622,4.0876641273498535,0.5480576753616333
2.5194385051727295,4.121825218200684,0.5607925057411194
2.502049207687378,4.158231735229492,0.5734797716140747
2.475043296813965,4.182011604309082,0.5842719674110413
2.4545412063598633,4.219643592834473,0.5968669652938843
2.415048122406006,4.22315788269043,0.6045268774032593
2.3698806762695312,4.211839199066162,0.6096134185791016
2.3501434326171875,4.248195648193359,0.6213670372962952
2.2605254650115967,4.159104347229004,0.6144771575927734
2.2295632362365723,4.174551963806152,0.6227894425392151
2.210253953933716,4.209858417510986,0.6339395046234131
2.1835591793060303,4.231290817260742,0.6428594589233398
2.1621851921081543,4.267138481140137,0.6536647081375122
2.1266028881073,4.275163650512695,0.660262405872345
2.1028354167938232,4.303009033203125,0.6696929335594177
2.0752437114715576,4.323821544647217,0.6781185269355774
2.043661117553711,4.337741374969482,0.6851034760475159
2.014552354812622,4.358773708343506,0.6930572986602783
1.966166377067566,4.3373212814331055,0.6942532062530518
2.014085531234741,4.526590824127197,0.7291232943534851
1.996075987815857,4.571451663970947,0.7409732937812805
1.9651294946670532,4.592182159423828,0.7486801147460938
1.9281630516052246,4.598421573638916,0.7538172006607056
1.8926326036453247,4.607950687408447,0.7595303058624268
1.8544209003448486,4.605829238891602,0.7631419897079468
1.8488727807998657,4.686002731323242,0.7804789543151855
1.8200896978378296,4.712826728820801,0.7887853384017944
1.7881600856781006,4.732346534729004,0.7956005930900574
1.3735722303390503,3.716618776321411,0.6276389956474304
1.3248225450515747,3.6638989448547363,0.6214324235916138
1.3003594875335693,3.6760425567626953,0.6261823177337646
3.268702507019043,9.453774452209473,1.6172888278961182
1.6196671724319458,4.796274185180664,0.8234767913818359
1.5979739427566528,4.847378730773926,0.8352791666984558
1.5699657201766968,4.87998104095459,0.8439552783966064
1.531113624572754,4.875335693359375,0.8461424112319946
1.5030962228775024,4.907394886016846,0.854799211025238
1.4725395441055298,4.9319562911987305,0.8618509769439697
1.4389969110488892,4.949134826660156,0.867354691028595
1.4252071380615234,5.036495685577393,0.8852468132972717
1.3871968984603882,5.038366317749023,0.8881606459617615
1.313053846359253,4.902163982391357,0.8666521310806274
1.2781599760055542,4.910655975341797,0.8707345128059387
1.2507085800170898,4.948843479156494,0.8796793222427368
1.2224489450454712,4.986994743347168,0.8884655237197876
1.1883673667907715,5.0025177001953125,0.8932812809944153
1.1512107849121094,5.002688407897949,0.8953703045845032
1.1232035160064697,5.043919563293457,0.9048705101013184
1.0912160873413086,5.066068649291992,0.910977303981781
1.0600464344024658,5.0957159996032715,0.9180712699890137
1.0237315893173218,5.102631568908691,0.9208710193634033
0.9902346134185791,5.124401092529297,0.9264054298400879
1.7022262811660767,9.161478996276855,1.6592159271240234
1.6409680843353271,9.187385559082031,1.6668753623962402
1.5730339288711548,9.174962043762207,1.6676543951034546
0.35266897082328796,2.1473374366760254,0.3909098505973816
1.4367300271987915,9.152993202209473,1.6682605743408203
1.3706293106079102,9.162423133850098,1.6721111536026
1.3024401664733887,9.148380279541016,1.6717180013656616
1.2335747480392456,9.118457794189453,1.6684529781341553
0.28540748357772827,2.226264476776123,0.4079090356826782
1.0992889404296875,9.07623291015625,1.6651813983917236
1.0343505144119263,9.075665473937988,1.6662945747375488
0.9717158675193787,9.105303764343262,1.6730600595474243
0.9089754819869995,9.126764297485352,1.678391695022583
0.4001069664955139,4.323271751403809,0.7957295775413513
0.36905425786972046,4.314248085021973,0.7947911620140076
0.34050437808036804,4.335647106170654,0.7994985580444336
0.3123757541179657,4.376135349273682,0.80735844373703
0.28585195541381836,4.44327449798584,0.8200273513793945
0.3243839144706726,5.660820484161377,1.045141339302063
0.28478240966796875,5.6627984046936035,1.0459669828414917
0.24625730514526367,5.683677673339844,1.0503332614898682
0.20716187357902527,5.715832233428955,1.0568492412567139
0.16954520344734192,5.789968967437744,1.0709689855575562
0.1300496757030487,5.8293938636779785,1.0781694650650024
0.08954159915447235,5.8378214836120605,1.0796887874603271
0.04901880770921707,5.857490539550781,1.0833394527435303
0.007595045957714319,5.853830814361572,1.0827295780181885
-0.05067514255642891,8.953432083129883,1.656215786933899
-0.11165205389261246,8.856817245483398,1.6386022567749023
-0.17081105709075928,8.733059883117676,1.615191102027893
-0.2288537174463272,8.63584041595459,1.5965139865875244
-0.2868086099624634,8.572786331176758,1.5842410326004028
-0.24624291062355042,6.075882434844971,1.1224279403686523
-0.17001666128635406,3.5800232887268066,0.6611624360084534
-0.19531148672103882,3.5864975452423096,0.6621966361999512
-0.220666766166687,3.592815399169922,0.6631195545196533
-0.5367964506149292,7.85346794128418,1.4482431411743164
-0.5888216495513916,7.807703971862793,1.438600778579712
-0.5500150918960571,6.678021430969238,1.2294994592666626
-0.5936945080757141,6.643710613250732,1.2222864627838135
-0.6244645714759827,6.479066848754883,1.191177487373352
-0.6581093072891235,6.363998889923096,1.169274091720581
-0.7096683979034424,6.420714378356934,1.1783429384231567
-0.7512010335922241,6.393197059631348,1.1718195676803589
-0.790489137172699,6.350155353546143,1.1625194549560547
-0.827857255935669,6.2954206466674805,1.1511493921279907
-0.864715576171875,6.240441799163818,1.1398041248321533
-0.9099973440170288,6.242195129394531,1.1388611793518066
-0.9583569169044495,6.270420074462891,1.1425589323043823
-1.0097286701202393,6.317424774169922,1.1491708755493164
-1.0612249374389648,6.360221862792969,1.1550370454788208
-1.111307978630066,6.391261577606201,1.1587990522384644
-1.16599702835083,6.440718173980713,1.165898323059082
-1.2194359302520752,6.474461078643799,1.1701468229293823
-1.2748377323150635,6.519243240356445,1.1764532327651978
-1.3277568817138672,6.552573204040527,1.1799204349517822
-1.3834580183029175,6.596810817718506,1.1853464841842651
-1.434187412261963,6.614264011383057,1.1859807968139648
-1.4714264869689941,6.5634636878967285,1.1743654012680054
-1.5067317485809326,6.508799076080322,1.1621713638305664
-1.544028401374817,6.465181350708008,1.152035117149353
-0.6888030767440796,2.7996625900268555,0.4976308047771454
-0.7078296542167664,2.795285224914551,0.49553340673446655
-0.7116181254386902,2.7310850620269775,0.48286008834838867
-0.7383833527565002,2.7562432289123535,0.486028790473938
-0.765821099281311,2.781092643737793,0.48911938071250916
-1.7381888628005981,6.145125865936279,1.0779560804367065
-1.7760465145111084,6.11915922164917,1.0701688528060913
-1.809442162513733,6.078181266784668,1.0594863891601562
-1.8405524492263794,6.033527374267578,1.048305630683899
-1.8728394508361816,5.992236614227295,1.0377476215362549
-1.9052525758743286,5.950593948364258,1.0271620750427246
-1.936033844947815,5.905097007751465,1.015991449356079
-1.9647554159164429,5.855980396270752,1.0037198066711426
-1.9930267333984375,5.810774803161621,0.9920651912689209
-2.022050619125366,5.769079208374023,0.981096625328064
-2.054050922393799,5.734223365783691,0.9712871313095093
-2.0861716270446777,5.6990156173706055,0.9614446759223938
-1.4962188005447388,4.001029014587402,0.6722815036773682
-1.5167324542999268,3.9734528064727783,0.6644776463508606
-1.5112345218658447,3.8812055587768555,0.6460040211677551
-1.5116503238677979,3.807133436203003,0.6307047009468079
-1.5078866481781006,3.7220542430877686,0.6135932803153992
-1.5251274108886719,3.6907238960266113,0.6054511070251465
-1.5434188842773438,3.662954330444336,0.597709059715271
-1.57102632522583,3.6604108810424805,0.5939413905143738
-1.5831576585769653,3.6222641468048096,0.5844473838806152
-1.578237771987915,3.5449817180633545,0.5686606764793396
-1.5967167615890503,3.52052903175354,0.5613915324211121
-1.611901879310608,3.488882541656494,0.5529059767723083
-1.6253077983856201,3.4578683376312256,0.5443310141563416
-1.6483490467071533,3.4477665424346924,0.5390991568565369
-1.6718878746032715,3.4372506141662598,0.5337378978729248
-1.699528694152832,3.4331631660461426,0.5292757153511047
-2.7129173278808594,5.385138034820557,0.8240141272544861
-4.860498428344727,9.492825508117676,1.4409749507904053
-2.757513999938965,5.299824237823486,0.7980294227600098
-2.7867319583892822,5.268406391143799,0.7866305708885193
-2.8312573432922363,5.263638973236084,0.7790758609771729
-1.1782201528549194,2.155280828475952,0.31610745191574097
-1.173922061920166,2.114011764526367,0.30702918767929077
-2.5166776180267334,4.463381290435791,0.6419538259506226
-2.5308125019073486,4.4165120124816895,0.628559947013855
-6.019623279571533,10.337631225585938,1.4556236267089844
-6.0876593589782715,10.300766944885254,1.4338529109954834
-1.2492420673370361,2.0825204849243164,0.2864542007446289
-2.9168691635131836,4.788476467132568,0.6504616141319275
-2.9425816535949707,4.7559614181518555,0.6376734375953674
-2.998843193054199,4.777273654937744,0.6317340135574341
-3.004958152770996,4.719766616821289,0.6153192520141602
-3.0296759605407715,4.687014102935791,0.6015721559524536
-3.0500481128692627,4.64747428894043,0.5869797468185425
-3.069298028945923,4.612997531890869,0.5727522969245911
-3.0860750675201416,4.575193881988525,0.5581784248352051
-3.105362892150879,4.535500526428223,0.5425140857696533
-3.1321401596069336,4.509193420410156,0.5281992554664612
-3.1609890460968018,4.490570068359375,0.5148322582244873
-2.8641304969787598,4.0112199783325195,0.4490434229373932
-2.8985719680786133,4.002306938171387,0.4367179274559021
-2.9238364696502686,3.9853358268737793,0.42329496145248413
-2.955909252166748,3.9728527069091797,0.4092908501625061
-2.453493118286133,3.4641613960266113,-0.20605218410491943
-2.4422245025634766,3.4999067783355713,-0.220133438706398
-2.877511978149414,4.189198017120361,-0.27758970856666565
-2.2559778690338135,3.337533473968506,-0.23220446705818176
-2.206273078918457,3.313729763031006,-0.24070999026298523
-2.2301619052886963,3.4045703411102295,-0.25764644145965576
-2.1819560527801514,3.3839111328125,-0.26589587330818176
-2.1453471183776855,3.3787310123443604,-0.2748620808124542
-1.2630341053009033,2.0225889682769775,-0.17019441723823547
-1.264572024345398,2.057774066925049,-0.1786119043827057
-2.1088380813598633,3.4857819080352783,-0.31147047877311707
-2.1086766719818115,3.5439934730529785,-0.3256283104419708
-2.121882677078247,3.6256701946258545,-0.3421052396297455
-1.2158808708190918,2.1117372512817383,-0.2043360471725464
-1.2004486322402954,2.1199865341186523,-0.21007925271987915
-2.5852322578430176,4.644031047821045,-0.47093507647514343
-2.5521399974823,4.661067485809326,-0.48297205567359924
-2.526230573654175,4.691588401794434,-0.49636557698249817
-2.501974105834961,4.729683876037598,-0.5107229351997375
-1.748465657234192,3.3632068634033203,-0.3702599108219147
-1.7140997648239136,3.35378098487854,-0.37606188654899597
-1.6829485893249512,3.3512301445007324,-0.38250115513801575
-1.6653517484664917,3.376432418823242,-0.3920651078224182
-1.672913670539856,3.453950881958008,-0.4078705906867981
-1.6902283430099487,3.5523977279663086,-0.42625677585601807
-2.32674241065979,4.981226921081543,-0.6069359183311462
-2.300220012664795,5.01780366897583,-0.6206327080726624
-2.2676503658294678,5.0397629737854,-0.6324189305305481
-2.2194488048553467,5.025896072387695,-0.6396409869194031
-2.056021213531494,4.748815536499023,-0.6126978397369385
-2.035184383392334,4.794437885284424,-0.626812219619751
-1.9534891843795776,4.692903995513916,-0.621396541595459
-0.96970534324646,2.375976324081421,-0.31856080889701843
-0.9612199664115906,2.4038589000701904,-0.32612332701683044
-0.9577111601829529,2.4462690353393555,-0.3358234167098999
-0.932072639465332,2.4306349754333496,-0.3374592065811157
-0.9013248682022095,2.4002387523651123,-0.33695682883262634
-0.8974994421005249,2.4423513412475586,-0.34646835923194885
-0.8668837547302246,2.4116625785827637,-0.3456428647041321
-0.8623461723327637,2.4537241458892822,-0.3552769422531128
-0.8475928902626038,2.466417074203491,-0.36065876483917236
-0.835006058216095,2.486424446105957,-0.3669878840446472
-0.8220800757408142,2.5064032077789307,-0.37330251932144165
-0.8078442811965942,2.5225954055786133,-0.3790850341320038
-0.7920739054679871,2.535062074661255,-0.3843876123428345
-0.7786469459533691,2.5547773838043213,-0.39064332842826843
-0.7626625299453735,2.5670647621154785,-0.39565449953079224
-0.753025472164154,2.601501226425171,-0.40413805842399597
-0.7463018298149109,2.647007465362549,-0.41440945863723755
-0.739970326423645,2.6962602138519287,-0.42534345388412476
-0.710568368434906,2.663623809814453,-0.42316675186157227
-0.7081752419471741,2.73153018951416,-0.436958909034729
-0.6767505407333374,2.6871843338012695,-0.4328063130378723
-0.6670984625816345,2.728753089904785,-0.4424940049648285
-0.6540898680686951,2.759112596511841,-0.4501592218875885
-0.6377210021018982,2.778218984603882,-0.45602160692214966
-0.6198704838752747,2.7896087169647217,-0.4606030583381653
-0.6067947745323181,2.8234875202178955,-0.46895119547843933
-0.5854102373123169,2.819589853286743,-0.4709031581878662
-0.5625247359275818,2.8080251216888428,-0.4713384807109833
-0.5621128082275391,2.913641929626465,-0.4915845990180969
-0.8801830410957336,4.739147663116455,-0.8036036491394043
-0.840952455997467,4.71021032333374,-0.8027297258377075
-0.7903552651405334,4.612765789031982,-0.7893899083137512
-0.7492735385894775,4.564283847808838,-0.7843461036682129
-0.705432116985321,4.496513366699219,-0.7759872078895569
-0.6620405316352844,4.420682430267334,-0.7661034464836121
-0.6240407228469849,4.375050067901611,-0.7610065340995789
-0.5830831527709961,4.302474498748779,-0.7508441209793091
-0.5466030240058899,4.256281852722168,-0.7452503442764282
-0.511360228061676,4.213612079620361,-0.7402458190917969
-0.47406136989593506,4.151610851287842,-0.7318096160888672
-0.43975377082824707,4.104685306549072,-0.7253004908561707
-0.41187116503715515,4.114911079406738,-0.7289073467254639
-0.3817608058452606,4.101962089538574,-0.7284389734268188
-0.28100430965423584,3.2649013996124268,-0.5812672972679138
-0.2545422613620758,3.2243716716766357,-0.5752279758453369
-0.23454751074314117,3.2603745460510254,-0.5825967788696289
-0.2133413404226303,3.284735679626465,-0.587929368019104
-0.19269737601280212,3.3243095874786377,-0.5960320234298706
-0.16994455456733704,3.333035707473755,-0.5986064672470093
-0.1468273103237152,3.3455607891082764,-0.6013385653495789
-0.1325872838497162,3.592273712158203,-0.6462242007255554
-0.11555169522762299,3.858133554458618,-0.6946635246276855
-0.0885208323597908,3.8510220050811768,-0.6940289735794067
-0.061006732285022736,3.805354356765747,-0.6860734820365906
-0.034444428980350494,3.844120740890503,-0.6930657029151917
-0.007641480304300785,3.821190357208252,-0.6889681816101074
0.019039200618863106,3.844205617904663,-0.6931881308555603
0.045428741723299026,3.8132245540618896,-0.687663197517395
0.07088012993335724,3.755272626876831,-0.6766524314880371
0.09870464354753494,3.8201332092285156,-0.6878030300140381
0.12571319937705994,3.819453716278076,-0.6871698498725891
0.1513175517320633,3.7955503463745117,-0.6824037432670593
0.18126030266284943,3.87139892578125,-0.6952123045921326
0.20995236933231354,3.9048402309417725,-0.700099527835846
0.23894554376602173,3.9342305660247803,-0.7042732834815979
0.26963648200035095,3.974889039993286,-0.7104589939117432
0.2964223325252533,3.961658000946045,-0.7070266604423523
0.32551711797714233,3.9790313243865967,-0.7084077000617981
0.35792964696884155,4.030675411224365,-0.7158934473991394
0.38740697503089905,4.043774604797363,-0.716538667678833
0.42035111784935,4.08340311050415,-0.7218659520149231
0.4445277452468872,4.042572498321533,-0.7126489877700806
0.47212502360343933,4.036054611206055,-0.7092155814170837
0.5091572403907776,4.105727672576904,-0.7191638350486755
0.5512802600860596,4.205612659454346,-0.7343335747718811
0.5889948010444641,4.259315013885498,-0.7413136959075928
0.617493748664856,4.24812126159668,-0.7363908886909485
0.6267153024673462,4.1111159324646,-0.7097923159599304
0.740280032157898,4.639674663543701,-0.7978628277778625
0.776412844657898,4.657873153686523,-0.797822892665863
0.8041853904724121,4.626534938812256,-0.7889402508735657
0.848551332950592,4.68598747253418,-0.7951558828353882
0.887538731098175,4.714853286743164,-0.7962031960487366
0.9234189987182617,4.724470138549805,-0.7939810752868652
0.9563601613044739,4.718724250793457,-0.7891424298286438
0.9875288605690002,4.705329895019531,-0.7824384570121765
1.018320083618164,4.687843322753906,-0.775030791759491
1.0510481595993042,4.681515216827393,-0.76957106590271
1.0767666101455688,4.644887924194336,-0.7591965794563293
1.1055010557174683,4.623215198516846,-0.7509339451789856
1.1338719129562378,4.601415634155273,-0.7425103783607483
1.1503140926361084,4.530644416809082,-0.7262028455734253
0.9614592790603638,3.6792478561401367,-0.5858258605003357
0.9871832132339478,3.673217296600342,-0.5808651447296143
1.0065264701843262,3.644761562347412,-0.5720723867416382
1.0254924297332764,3.6162054538726807,-0.5633488297462463
1.0598925352096558,3.639312267303467,-0.5625800490379333
1.0854002237319946,3.632605791091919,-0.5572652220726013
1.1015594005584717,3.5962717533111572,-0.5471161007881165
1.1288092136383057,3.596774101257324,-0.5425798296928406
1.1491788625717163,3.5749292373657227,-0.5346781015396118
1.1698604822158813,3.5527942180633545,-0.5266932845115662
1.1945725679397583,3.545427083969116,-0.5208339095115662
1.2241528034210205,3.552579164505005,-0.5169568061828613
1.238532304763794,3.5156548023223877,-0.5066950917243958
1.2684813737869263,3.522296667098999,-0.5026997327804565
1.2904683351516724,3.5069286823272705,-0.49548763036727905
1.3110289573669434,3.4877939224243164,-0.48749563097953796
1.3323861360549927,3.4722771644592285,-0.48014330863952637
1.3595956563949585,3.4709246158599854,-0.47469592094421387
1.3752975463867188,3.440581798553467,-0.46530717611312866
1.4077558517456055,3.4534547328948975,-0.46154987812042236
1.7311055660247803,4.1640825271606445,-0.5497762560844421
1.7603628635406494,4.1528825759887695,-0.541530966758728
1.7834464311599731,4.127195358276367,-0.5314329266548157
1.8149676322937012,4.122992515563965,-0.5238969326019287
1.8401349782943726,4.104386329650879,-0.5145471692085266
1.875836968421936,4.106362342834473,-0.5075328946113586
1.8982043266296387,4.080015182495117,-0.4971291422843933
1.919508934020996,4.053920269012451,-0.48664233088493347
1.947236180305481,4.041723728179932,-0.4778602719306946
1.9755669832229614,4.029008865356445,-0.4688572883605957
1.9957400560379028,3.9984142780303955,-0.457658588886261
2.022987127304077,3.985733985900879,-0.4485485851764679
2.0465798377990723,3.9659423828125,-0.4386724829673767
2.0708487033843994,3.9455740451812744,-0.4285358190536499
2.1020865440368652,3.9388532638549805,-0.41986238956451416
2.113957405090332,3.8981311321258545,-0.40752923488616943
2.1373190879821777,3.8774893283843994,-0.3971751928329468
2.1284923553466797,3.798797607421875,-0.38094276189804077
2.1546192169189453,3.7849948406219482,-0.3713364601135254
2.18788480758667,3.784794807434082,-0.3630273938179016
2.1983351707458496,3.7435972690582275,-0.35058656334877014
2.217158079147339,3.7152955532073975,-0.33916372060775757
2.254162311553955,3.72121524810791,-0.33095651865005493
2.275224208831787,3.7001218795776367,-0.3202548921108246
2.288856267929077,3.665069103240967,-0.3080630302429199
2.3345024585723877,3.6832547187805176,-0.3003223240375519
2.3424689769744873,3.642030954360962,-0.28756141662597656
2.3723061084747314,3.632843494415283,-0.27699846029281616
2.4057133197784424,3.6303646564483643,-0.2668688893318176
2.4122369289398193,3.589306354522705,-0.25394460558891296
2.4328296184539795,3.5667502880096436,-0.24186499416828156
2.479581117630005,3.5827443599700928,-0.2320425659418106
2.480473041534424,3.535316228866577,-0.2183106541633606
2.5233564376831055,3.5439858436584473,-0.20722459256649017
2.5558223724365234,3.540633201599121,-0.1953141838312149
2.256507635116577,3.083404064178467,-0.15950888395309448
2.1800949573516846,2.936668872833252,-0.14108708500862122
2.7985830307006836,3.9313502311706543,0.41752922534942627
2.769665241241455,3.9503445625305176,0.4308619499206543
2.744540214538574,3.9758763313293457,0.4444812536239624
2.708528518676758,3.989647150039673,0.4566207826137543
2.683993339538574,4.01420259475708,0.46905654668807983
2.6608874797821045,4.042172908782959,0.48168495297431946
2.6265995502471924,4.0585150718688965,0.49290502071380615
2.588224172592163,4.063364505767822,0.5020713210105896
2.5736982822418213,4.103422164916992,0.5153237581253052
2.5460753440856934,4.128451347351074,0.5264183878898621
2.50006365776062,4.12341833114624,0.5336297750473022
2.484253168106079,4.1634016036987305,0.5461667776107788
2.454192876815796,4.179964542388916,0.5554818511009216
2.4338653087615967,4.2175140380859375,0.567317545413971
2.398167848587036,4.227774620056152,0.5754567980766296
2.3833370208740234,4.270559310913086,0.5876629948616028
2.275696039199829,4.147237777709961,0.576897382736206
2.2479708194732666,4.1700263023376465,0.5858420729637146
2.2236855030059814,4.199451446533203,0.59577476978302
2.1938068866729736,4.214065074920654,0.6033142805099487
2.1745522022247314,4.249083995819092,0.6138077974319458
2.145807981491089,4.271271228790283,0.6222220659255981
2.117119550704956,4.293145656585693,0.6304761171340942
2.0857198238372803,4.307450294494629,0.6375243067741394
2.0620040893554688,4.334999084472656,0.6464031338691711
2.02778959274292,4.34155797958374,0.6520988345146179
1.9922994375228882,4.348476886749268,0.6574829816818237
1.972084879875183,4.390642166137695,0.6683333516120911
2.0091588497161865,4.55948543548584,0.6984604001045227
1.9616907835006714,4.537027835845947,0.6993464231491089
1.95489501953125,4.610492706298828,0.7149212956428528
1.9208061695098877,4.623871326446533,0.7208908796310425
1.8947553634643555,4.658707618713379,0.7303334474563599
1.8556450605392456,4.6568732261657715,0.7338832020759583
1.8369851112365723,4.704877853393555,0.7452661395072937
1.8161782026290894,4.749298095703125,0.7561026215553284
1.758402705192566,4.700090408325195,0.7515761256217957
1.3372975587844849,3.6565775871276855,0.5873510837554932
1.314763069152832,3.676401138305664,0.5931279063224792
1.280016303062439,3.6593878269195557,0.5929082036018372
1.6515544652938843,4.829326152801514,0.7858262062072754
1.6167479753494263,4.840313911437988,0.7905876636505127
1.5784900188446045,4.844038009643555,0.7940905690193176
1.5502524375915527,4.876693248748779,0.8023359775543213
1.518088698387146,4.894140720367432,0.8080532550811768
1.4838168621063232,4.90390157699585,0.8125210404396057
1.4515173435211182,4.920869827270508,0.8181756138801575
1.4404778480529785,5.015821933746338,0.8363210558891296
1.4015694856643677,5.018146991729736,0.8391438126564026
1.3381150960922241,4.926967144012451,0.8262775540351868
1.2937898635864258,4.898288249969482,0.8237991333007812
1.2614842653274536,4.914036273956299,0.8288151621818542
1.2361936569213867,4.959582328796387,0.8387656807899475
1.2036244869232178,4.982892036437988,0.8445997834205627
1.1731232404708862,5.013360500335693,0.8516752123832703
1.1398537158966064,5.0323309898376465,0.8568452596664429
1.1113048791885376,5.069730758666992,0.8651678562164307
1.0727039575576782,5.061739921569824,0.8657922744750977
1.04119074344635,5.091381072998047,0.8727645874023438
1.0033910274505615,5.090662956237793,0.8740929365158081
1.8158215284347534,9.570066452026367,1.6460297107696533
1.7420576810836792,9.551604270935059,1.645729899406433
1.688044548034668,9.634761810302734,1.6629709005355835
1.6088367700576782,9.581083297729492,1.6567282676696777
0.3458985388278961,2.151670217514038,0.3727116584777832
1.4516782760620117,9.456720352172852,1.6399749517440796
1.3801811933517456,9.435669898986816,1.6382830142974854
1.3090555667877197,9.414085388183594,1.6365677118301392
0.2917904853820801,2.213473320007324,0.38529345393180847
1.1673321723937988,9.357776641845703,1.6310251951217651
1.1107033491134644,9.437694549560547,1.6471878290176392
1.0413633584976196,9.418044090270996,1.6450830698013306
0.974901556968689,9.424737930297852,1.6474791765213013
0.9096096754074097,9.44244384765625,1.6518818140029907
0.3851236402988434,4.3197503089904785,0.7563488483428955
0.35314247012138367,4.299127578735352,0.7533992528915405
0.32382190227508545,4.308964729309082,0.7558205127716064
0.2986774146556854,4.383914470672607,0.7694467902183533
0.34635287523269653,5.66851282119751,0.9952046871185303
0.30340632796287537,5.624608516693115,0.9878397583961487
0.2658253610134125,5.6649017333984375,0.9953044652938843
0.22878429293632507,5.724150657653809,1.006151795387268
0.1889643669128418,5.7254767417907715,1.0068715810775757
0.15013380348682404,5.76499080657959,1.014325737953186
0.11037137359380722,5.823601722717285,1.0245068073272705
0.06985051184892654,5.831918239593506,1.0258907079696655
0.029142018407583237,5.824564456939697,1.0245678424835205
-0.017536938190460205,8.952372550964355,1.5747954845428467
-0.078768789768219,8.840461730957031,1.5552159547805786
-0.1400451809167862,8.766590118408203,1.5424038171768188
-0.1977323591709137,8.627046585083008,1.5174586772918701
-0.2581339180469513,8.641023635864258,1.5191588401794434
-0.22549815475940704,6.124721050262451,1.0762884616851807
-0.26562920212745667,6.069321155548096,1.0661237239837646
-0.18265226483345032,3.60050892829895,0.6322327256202698
-0.20855890214443207,3.606884002685547,0.6331543326377869
-0.23388724029064178,3.6092700958251953,0.6333503723144531
-0.563571035861969,7.856386184692383,1.3773530721664429
-0.5025752782821655,6.387214660644531,1.1187965869903564
-0.5706257820129395,6.663751602172852,1.1662623882293701
-0.6101983785629272,6.579370975494385,1.1505675315856934
-0.6391668915748596,6.406743049621582,1.1195433139801025
-0.6812216639518738,6.379453659057617,1.1139965057373047
-0.7287629842758179,6.405545711517334,1.1172857284545898
-0.7700172066688538,6.377854824066162,1.1110050678253174
-0.8093279600143433,6.330704689025879,1.1013752222061157
-0.8457767367362976,6.2719550132751465,1.0898233652114868
-0.8845025897026062,6.2320122718811035,1.0815993547439575
-0.9312258958816528,6.248950481414795,1.0833024978637695
-0.9786151647567749,6.269415855407715,1.085424542427063
-1.0321204662322998,6.323793888092041,1.092867374420166
-1.0837945938110352,6.366457939147949,1.0983346700668335
-1.1340839862823486,6.397338390350342,1.101794719696045
-1.1863161325454712,6.431487560272217,1.105814814567566
-1.2434289455413818,6.48792028427124,1.11368989944458
-1.29769766330719,6.524972438812256,1.1182575225830078
-1.3516126871109009,6.557981967926025,1.1213293075561523
-1.40761399269104,6.602035045623779,1.126353144645691
-1.4510829448699951,6.585410118103027,1.1210566759109497
-1.4863293170928955,6.530815601348877,1.1093422174453735
-1.5221173763275146,6.479714870452881,1.0982879400253296
-0.6764135956764221,2.7908201217651367,0.4720144271850586
-0.6935845017433167,2.7789933681488037,0.468759685754776
-0.7067114114761353,2.752150774002075,0.4629533886909485
-0.7313165664672852,2.7699897289276123,0.46468472480773926
-0.748378336429596,2.757784605026245,0.4613734781742096
-0.7741700410842896,2.775042772293091,0.4629690945148468
-1.7591303586959839,6.140550136566162,1.0216796398162842
-1.7900795936584473,6.092258930206299,1.010384440422058
-1.823528528213501,6.055001258850098,1.0008530616760254
-1.853140950202942,6.006497859954834,0.9895435571670532
-1.8836877346038818,5.957413196563721,0.9781039357185364
-1.9194015264511108,5.9265971183776855,0.9697570204734802
-1.9487003087997437,5.8772430419921875,0.9584549069404602
-1.9785773754119873,5.835598945617676,0.947864294052124
-2.009068489074707,5.797522068023682,0.9378812909126282
-2.0353238582611084,5.748346328735352,0.9261807203292847
-2.0641591548919678,5.702075481414795,0.9148602485656738
-2.096017360687256,5.666692733764648,0.9054111242294312
-1.5045397281646729,3.9831082820892334,0.6336740851402283
-1.5146427154541016,3.930345296859741,0.6222637891769409
-1.5085500478744507,3.838040590286255,0.6047179102897644
-1.5192872285842896,3.788743019104004,0.5939846634864807
-1.5223394632339478,3.721477508544922,0.5805113911628723
-1.5394463539123535,3.69000506401062,0.5727077722549438
-1.5628658533096313,3.67667293548584,0.5674612522125244
-1.5889499187469482,3.670424699783325,0.5632468461990356
-1.602992057800293,3.635479211807251,0.5546124577522278
-1.5951427221298218,3.5507853031158447,0.5384111404418945
-1.6039918661117554,3.5050177574157715,0.5282274484634399
-1.614877700805664,3.466632127761841,0.5190437436103821
-1.637980580329895,3.4565324783325195,0.5139824748039246
-1.6564137935638428,3.435610771179199,0.5072782039642334
-1.6803652048110962,3.4247376918792725,0.5019980669021606
-1.7338926792144775,3.47249698638916,0.5052372217178345
-1.783831238746643,3.5132222175598145,0.5071611404418945
-4.9186110496521,9.531789779663086,1.3646986484527588
-2.780729293823242,5.303175449371338,0.7529856562614441
-2.8113772869110107,5.27075719833374,0.741640567779541
-1.134946584701538,2.092663288116455,0.29181990027427673
-1.186281442642212,2.1535189151763916,0.29741281270980835
-1.1853275299072266,2.1190989017486572,0.28977978229522705
-2.5182387828826904,4.432199478149414,0.5998713970184326
-2.5325515270233154,4.384946823120117,0.5869584679603577
-6.041864395141602,10.300792694091797,1.3633280992507935
-1.2349622249603271,2.074756383895874,0.27135926485061646
-1.248731017112732,2.0670573711395264,0.2670689523220062
-2.9389660358428955,4.789420127868652,0.6106749773025513
-2.960132360458374,4.750306606292725,0.5973192453384399
-3.0221896171569824,4.781504154205322,0.592657208442688
-3.0224335193634033,4.71361780166626,0.5755788087844849
-3.043024778366089,4.673965930938721,0.5615299940109253
-3.0295472145080566,4.586578369140625,0.5417600870132446
-3.076927900314331,4.593804836273193,0.5329395532608032
-3.099562168121338,4.561192512512207,0.5190859436988831
-3.109656810760498,4.508585453033447,0.5026869773864746
-3.16521954536438,4.528258800506592,0.4940439462661743
-2.9317615032196045,4.137233257293701,0.44111859798431396
-2.875159978866577,3.99731183052063,0.41527119278907776
-2.9212570190429688,4.008505821228027,0.40535736083984375
-2.938176155090332,3.978106737136841,0.3907531797885895
-2.480701208114624,3.4743313789367676,-0.1934155374765396
-2.4457955360412598,3.479189157485962,-0.20565907657146454
-2.8559155464172363,4.124624729156494,-0.257180780172348
-2.3146915435791016,3.397618293762207,-0.22276689112186432
-2.2555956840515137,3.361504554748535,-0.2303643822669983
-2.2352397441864014,3.3836658000946045,-0.24169017374515533
-2.213444948196411,3.4064602851867676,-0.25324541330337524
-2.172478437423706,3.394998550415039,-0.26143813133239746
-2.1412599086761475,3.400171995162964,-0.2708023488521576
-1.2804583311080933,2.0671043395996094,-0.1700393259525299
-1.2962578535079956,2.125509262084961,-0.18002773821353912
-2.104121446609497,3.507425308227539,-0.30570465326309204
-2.0996968746185303,3.559048891067505,-0.31872162222862244
-2.111395835876465,3.6370742321014404,-0.3339909017086029
-1.2010630369186401,2.102785587310791,-0.1977914720773697
-2.590195894241333,4.612473964691162,-0.4440006613731384
-2.5692319869995117,4.654173851013184,-0.4581950008869171
-2.5437166690826416,4.684754371643066,-0.4709579646587372
-2.520505905151367,4.722603797912598,-0.48444679379463196
-2.5091605186462402,4.784628868103027,-0.5005372166633606
-1.733860731124878,3.363215208053589,-0.3583979308605194
-1.6990461349487305,3.3539655208587646,-0.3639814853668213
-1.6780190467834473,3.3723936080932617,-0.3723181486129761
-1.6637243032455444,3.404601573944092,-0.382224440574646
-1.6951955556869507,3.531002998352051,-0.4027831554412842
-2.3525586128234863,4.989899635314941,-0.5780915021896362
-2.3097381591796875,4.991522312164307,-0.5869763493537903
-2.2923810482025146,5.049483776092529,-0.602642834186554
-2.2567882537841797,5.0642595291137695,-0.6129143834114075
-2.13665509223938,4.886919975280762,-0.5995134711265564
-2.0508487224578857,4.783320903778076,-0.5945151448249817
-1.941349983215332,4.617873668670654,-0.5813245177268982
-1.925898790359497,4.673589706420898,-0.5958039164543152
