X,Y,Z
-0.39222002029418945,5.392532825469971,0.6129079461097717
-0.42698442935943604,5.358844757080078,0.6084904670715332
-0.4623073637485504,5.33653450012207,0.6053993701934814
-0.43243104219436646,4.6183247566223145,0.5234615206718445
-0.464510977268219,4.615296840667725,0.522682249546051
-0.49590611457824707,4.600406646728516,0.5205785036087036
-0.5266715884208679,4.589296340942383,0.5185989737510681
-0.5534764528274536,4.547165870666504,0.5131124258041382
-0.5847302675247192,4.543380260467529,0.5119820833206177
-0.6152456402778625,4.531641483306885,0.5099738836288452
-0.6423465013504028,4.4927167892456055,0.5049254894256592
-0.6741307973861694,4.4921112060546875,0.5042246580123901
-0.7031279802322388,4.476036548614502,0.5014820694923401
-0.7325100898742676,4.463620185852051,0.4991312026977539
-0.7618008255958557,4.451003074645996,0.49678313732147217
-0.7899098992347717,4.430493354797363,0.49357274174690247
-0.815527617931366,4.394428253173828,0.48864564299583435
-0.8394463062286377,4.354500770568848,0.4833405315876007
-0.7344313263893127,3.674833297729492,0.4069114625453949
-0.7579182982444763,3.662299871444702,0.40453195571899414
-0.9283729791641235,4.337014198303223,0.477906197309494
-0.9623608589172363,4.345721244812012,0.4776868522167206
-0.9925252199172974,4.339135646820068,0.4758260250091553
-1.0155034065246582,4.302099704742432,0.470632404088974
-1.0355063676834106,4.257598400115967,0.4643493592739105
-1.064388394355774,4.250704288482666,0.4622018337249756
-1.089974284172058,4.228408336639404,0.45837607979774475
-1.1313612461090088,4.266012191772461,0.4610500931739807
-1.15692937374115,4.243282318115234,0.45721787214279175
-1.1840649843215942,4.227969646453857,0.4541061520576477
-1.2126591205596924,4.220125675201416,0.4516047537326813
-1.2395298480987549,4.204481601715088,0.44826221466064453
-1.2683700323104858,4.196140766143799,0.44572946429252625
-1.2895044088363647,4.161494255065918,0.4404109716415405
-1.3160982131958008,4.145276069641113,0.43707719445228577
-1.3442572355270386,4.1365203857421875,0.4343199133872986
-1.3677244186401367,4.112739086151123,0.4298991858959198
-1.3979418277740479,4.111073970794678,0.4278475046157837
-1.4239709377288818,4.094202041625977,0.4241739809513092
-1.4498319625854492,4.077164649963379,0.4205107092857361
-1.4805375337600708,4.074698448181152,0.41827037930488586
-1.507880449295044,4.064984321594238,0.41510143876075745
-1.5273327827453613,4.0331034660339355,0.4096650779247284
-1.5578888654708862,4.030067443847656,0.40716561675071716
-1.5859814882278442,4.019425868988037,0.4038849472999573
-1.6051746606826782,3.9869837760925293,0.39841780066490173
-1.612659215927124,3.9297046661376953,0.39026492834091187
-1.645403265953064,3.9333300590515137,0.38815775513648987
-1.6860005855560303,3.9545421600341797,0.38776567578315735
-1.7104194164276123,3.93591570854187,0.3834230303764343
-1.7314552068710327,3.9100468158721924,0.37838611006736755
-1.7574130296707153,3.8988189697265625,0.3745547831058502
-1.772414207458496,3.862443208694458,0.3682912588119507
-1.7988160848617554,3.850590944290161,0.36437076330184937
-1.8089238405227661,3.8031728267669678,0.357074499130249
-1.848605990409851,3.8190460205078125,0.35568374395370483
-1.8669723272323608,3.793140172958374,0.3502243459224701
-1.8959418535232544,3.787842035293579,0.34663861989974976
-1.9187109470367432,3.768021821975708,0.34163618087768555
-1.9485746622085571,3.7618346214294434,0.33787211775779724
-1.9738123416900635,3.7490570545196533,0.3333699405193329
-1.9984959363937378,3.736360788345337,0.328820139169693
-2.0163121223449707,3.709463119506836,0.32295647263526917
-1.7072899341583252,3.08860182762146,0.26582711935043335
-1.7283717393875122,3.077202558517456,0.26175931096076965
-0.8375874757766724,1.4687756299972534,0.1234082356095314
-0.8512762784957886,1.4700652360916138,0.12195011228322983
-0.8655140995979309,1.4709532260894775,0.12037036567926407
-0.8717477321624756,1.458372950553894,0.11764094233512878
-0.8771944642066956,1.446168303489685,0.11494118720293045
-0.8827469348907471,1.4338141679763794,0.11220845580101013
-0.8968924880027771,1.4343911409378052,0.11040858179330826
-0.8855873346328735,1.3956184387207031,0.10558544099330902
-0.8989389538764954,1.396513819694519,0.10373827815055847
-0.8956969976425171,1.3709142208099365,0.09985893219709396
-0.9095656275749207,1.3712996244430542,0.09784506261348724
-2.4089531898498535,3.58235502243042,0.25009068846702576
-1.507686972618103,2.1773529052734375,0.14471085369586945
-1.2908129692077637,1.839060664176941,0.11898840963840485
-1.6342955827713013,2.3390138149261475,-0.10860539972782135
-1.3898876905441284,2.019010543823242,-0.09814044833183289
-1.238897442817688,1.8288652896881104,-0.0928984135389328
-1.3162968158721924,1.9741069078445435,-0.10435330122709274
-1.2959747314453125,1.9732840061187744,-0.10815668106079102
-1.1836509704589844,1.8320062160491943,-0.10394850373268127
-1.1891872882843018,1.8699432611465454,-0.10953471064567566
-1.1157608032226562,1.7822740077972412,-0.10759250074625015
-1.8698762655258179,3.13523268699646,-0.20504149794578552
-0.8542909622192383,1.5056955814361572,-0.10547167807817459
-1.6621029376983643,2.979017734527588,-0.2130240797996521
-1.604496955871582,2.9258670806884766,-0.2134387195110321
-1.5578702688217163,2.888749837875366,-0.21470467746257782
-1.4933632612228394,2.8168094158172607,-0.21324440836906433
-1.4403016567230225,2.7651028633117676,-0.21298089623451233
-1.3935993909835815,2.723093032836914,-0.21328966319561005
-1.350006341934204,2.6837143898010254,-0.2135639190673828
-1.3015999794006348,2.633516788482666,-0.21282033622264862
-1.2531839609146118,2.583160877227783,-0.2119213044643402
-1.2061938047409058,2.531965732574463,-0.21071778237819672
-1.175248384475708,2.51181697845459,-0.21193918585777283
-1.1410770416259766,2.4844324588775635,-0.2124394029378891
-1.1022765636444092,2.4461729526519775,-0.21187567710876465
-1.0675121545791626,2.4144973754882812,-0.21175695955753326
-1.03168785572052,2.3788938522338867,-0.21121810376644135
-1.0086462497711182,2.371565580368042,-0.21303099393844604
-0.9750339984893799,2.3389861583709717,-0.21247072517871857
-0.937781035900116,2.2951440811157227,-0.21077215671539307
-0.9115930795669556,2.276089906692505,-0.21124792098999023
-0.8867096900939941,2.2605769634246826,-0.21200236678123474
-0.850948691368103,2.215773105621338,-0.20983614027500153
-0.8351576328277588,2.2215287685394287,-0.21240709722042084
-0.8048485517501831,2.1869027614593506,-0.21105307340621948
-0.7816069722175598,2.170287847518921,-0.21137405931949615
-0.7541815042495728,2.1426620483398438,-0.2105037122964859
-0.7312713861465454,2.1257002353668213,-0.21061277389526367
-0.7064875960350037,2.101047992706299,-0.20988953113555908
-0.6845108866691589,2.0835468769073486,-0.20984865725040436
-0.6566566824913025,2.047415256500244,-0.20776955783367157
-0.6371643543243408,2.0370712280273438,-0.20827080309391022
-0.618269681930542,2.0264339447021484,-0.20868663489818573
-0.6040844917297363,2.0305094718933105,-0.21060684323310852
-0.5778970718383789,1.9934468269348145,-0.20818449556827545
-0.5594995021820068,1.982358455657959,-0.2083491086959839
-0.5372034311294556,1.9561139345169067,-0.2068983018398285
-0.5193021893501282,1.9446792602539062,-0.20699569582939148
-0.5038049817085266,1.940548062324524,-0.20784065127372742
-0.485364705324173,1.925052523612976,-0.20732522010803223
-0.4717528522014618,1.9282746315002441,-0.2087979018688202
-0.45281749963760376,1.9087040424346924,-0.2077932059764862
-0.43576717376708984,1.8965709209442139,-0.2075992077589035
-0.41910320520401,1.884258508682251,-0.20731745660305023
-0.40087077021598816,1.8642555475234985,-0.20605409145355225
-0.3876948952674866,1.8669030666351318,-0.20729203522205353
-0.3708392083644867,1.8503905534744263,-0.20639218389987946
-0.3562459945678711,1.8452097177505493,-0.20676718652248383
-0.34330034255981445,1.8475383520126343,-0.20786944031715393
-0.3275600075721741,1.8345046043395996,-0.2071765959262848
-0.310739129781723,1.813685417175293,-0.2055967152118683
-0.2993767559528351,1.8233500719070435,-0.20746870338916779
-0.2810478210449219,1.790794849395752,-0.20454896986484528
-0.2690611183643341,1.7964649200439453,-0.20581741631031036
-0.2537252604961395,1.7790017127990723,-0.2044205665588379
-0.2412823736667633,1.7806400060653687,-0.20522071421146393
-0.22789955139160156,1.7744852304458618,-0.2051270604133606
-0.2155255228281021,1.7759414911270142,-0.20589689910411835
-0.2011144906282425,1.7619373798370361,-0.20472514629364014
-0.19043798744678497,1.7786638736724854,-0.20712625980377197
-0.17647793889045715,1.764435052871704,-0.20593154430389404
-0.1627550721168518,1.7500970363616943,-0.20472480356693268
-0.15120206773281097,1.7588592767715454,-0.2061624675989151
-0.1386842578649521,1.7598410844802856,-0.20658424496650696
-0.12471538782119751,1.7375004291534424,-0.20426888763904572
-0.11314468085765839,1.7460198402404785,-0.20558695495128632
-0.10056566447019577,1.7389694452285767,-0.20508161187171936
-0.08886097371578217,1.7473399639129639,-0.20630012452602386
-0.07648417353630066,1.747899055480957,-0.20652452111244202
-0.06402483582496643,1.7406097650527954,-0.20582835376262665
-0.05191659927368164,1.740986943244934,-0.20604777336120605
-0.03980620950460434,1.7412800788879395,-0.20626719295978546
-0.027685344219207764,1.7415053844451904,-0.20634818077087402
-0.015217574313282967,1.7261383533477783,-0.20453928411006927
-0.0031994350720196962,1.7261990308761597,-0.20456817746162415
0.008784478530287743,1.722297191619873,-0.20413728058338165
0.020915620028972626,1.7338271141052246,-0.20554561913013458
0.03274529054760933,1.722021460533142,-0.20402655005455017
0.04482867196202278,1.7256484031677246,-0.20432738959789276
0.05755260959267616,1.7408154010772705,-0.20600120723247528
0.0696510374546051,1.7403923273086548,-0.2058412730693817
0.08012006431818008,1.7050108909606934,-0.20154514908790588
0.09425406157970428,1.7470648288726807,-0.20623630285263062
0.10543755441904068,1.7309201955795288,-0.20406277477741241
0.11872361600399017,1.7456555366516113,-0.20553506910800934
0.13028979301452637,1.7370902299880981,-0.20427681505680084
0.14236536622047424,1.7361887693405151,-0.20388197898864746
0.15508905053138733,1.7429522275924683,-0.20425058901309967
0.16641612350940704,1.7341746091842651,-0.20280829071998596
0.17787472903728485,1.7252994775772095,-0.2013597935438156
0.19071394205093384,1.731797695159912,-0.20172220468521118
0.2027072310447693,1.7305065393447876,-0.20110689103603363
0.2146720290184021,1.7291460037231445,-0.20039324462413788
0.2306509166955948,1.7584872245788574,-0.20323817431926727
0.24203860759735107,1.7492060661315918,-0.20160803198814392
0.25420624017715454,1.747563123703003,-0.20088037848472595
0.25752824544906616,1.6883010864257812,-0.19344323873519897
0.2771448493003845,1.7364115715026855,-0.19825926423072815
0.2853393852710724,1.711578130722046,-0.19474370777606964
0.30126747488975525,1.7325950860977173,-0.1964496672153473
0.3107841908931732,1.715238332748413,-0.1937999576330185
0.32550936937332153,1.7284283638000488,-0.19447292387485504
0.343400239944458,1.756744623184204,-0.1968190222978592
0.35714244842529297,1.762049674987793,-0.19657328724861145
0.3710038661956787,1.7672431468963623,-0.19631539285182953
0.3925848603248596,1.8064450025558472,-0.1997729241847992
0.4101465344429016,1.8265739679336548,-0.20097403228282928
0.4227418899536133,1.8238446712493896,-0.19965685904026031
0.4281809329986572,1.7907832860946655,-0.19503851234912872
0.44623902440071106,1.8105272054672241,-0.19618156552314758
0.458974689245224,1.8074947595596313,-0.19475606083869934
0.4753187298774719,1.819491982460022,-0.19489388167858124
0.48382917046546936,1.8013176918029785,-0.19180506467819214
0.5201913118362427,1.88420832157135,-0.1994268298149109
0.5291050672531128,1.8657368421554565,-0.19628441333770752
0.5508584380149841,1.8920170068740845,-0.19769419729709625
0.5705330967903137,1.9107099771499634,-0.19829204678535461
0.58719801902771,1.9180364608764648,-0.19768351316452026
0.6029034852981567,1.9214916229248047,-0.196664497256279
0.6257188320159912,1.9470685720443726,-0.19784018397331238
0.6441562175750732,1.9576293230056763,-0.19734182953834534
0.6687455773353577,1.98652982711792,-0.1986897885799408
0.6876630187034607,1.9967249631881714,-0.19811196625232697
0.7093386054039001,2.0140902996063232,-0.19822585582733154
0.733665406703949,2.0386757850646973,-0.19889722764492035
0.7475779056549072,2.033831834793091,-0.19667038321495056
0.7769663333892822,2.06878924369812,-0.19820770621299744
0.794215977191925,2.0707876682281494,-0.19657070934772491
0.822685956954956,2.101714849472046,-0.19758430123329163
0.8471004962921143,2.121588706970215,-0.1974545270204544
0.8734332323074341,2.14477801322937,-0.1975717693567276
0.9035919904708862,2.1747047901153564,-0.19819065928459167
0.9292874336242676,2.193718194961548,-0.1977698653936386
0.9564950466156006,2.216207504272461,-0.1975344717502594
0.9841131567955017,2.238403558731079,-0.19721393287181854
1.0204260349273682,2.277928113937378,-0.19829319417476654
1.042995572090149,2.285083293914795,-0.196449875831604
1.086310625076294,2.338294744491577,-0.198443204164505
1.1154228448867798,2.35933256149292,-0.19761478900909424
1.1386562585830688,2.365791082382202,-0.1954382359981537
1.1551437377929688,2.358060836791992,-0.19207802414894104
1.1643421649932861,2.336414098739624,-0.18747469782829285
1.2540690898895264,2.474752902984619,-0.19560353457927704
1.292791485786438,2.507772922515869,-0.19508014619350433
1.3409603834152222,2.5576984882354736,-0.19574272632598877
1.3892513513565063,2.6074206829071045,-0.19618453085422516
1.3827552795410156,2.5536935329437256,-0.18880195915699005
1.374564528465271,2.4962918758392334,-0.18111293017864227
1.334527611732483,2.3850369453430176,-0.1697622388601303
1.3503985404968262,2.3763651847839355,-0.16582462191581726
1.4114853143692017,2.445011615753174,-0.16708604991436005
1.4423550367355347,2.4589200019836426,-0.16439461708068848
1.4470648765563965,2.429243564605713,-0.15868394076824188
1.4611719846725464,2.416506052017212,-0.15416288375854492
1.4698830842971802,2.3932101726531982,-0.14880837500095367
1.5088624954223633,2.419828414916992,-0.14651140570640564
1.5456126928329468,2.4430902004241943,-0.1438843011856079
1.5374221801757812,2.3930721282958984,-0.13669142127037048
1.489918828010559,2.2846484184265137,-0.12642177939414978
1.388535737991333,2.099375009536743,-0.11238454282283783
1.4159024953842163,2.109513998031616,-0.10891067236661911
1.4369556903839111,2.109646797180176,-0.10477209091186523
1.4441280364990234,2.090756416320801,-0.09960775822401047
1.4539721012115479,2.07462477684021,-0.09441844373941422
1.458821415901184,2.052309036254883,-0.08891449123620987
1.4674211740493774,2.036761999130249,-0.08370710164308548
1.4539836645126343,1.9888378381729126,-0.07687608897686005
1.4712989330291748,1.9859868288040161,-0.07186821103096008
2.3903648853302,3.349134922027588,0.2299221158027649
2.384105920791626,3.391214370727539,0.24012643098831177
2.3529481887817383,3.4028241634368896,0.24811559915542603
2.3461172580718994,3.4447731971740723,0.25772157311439514
2.3621304035186768,3.5227723121643066,0.27002862095832825
2.339069128036499,3.546872138977051,0.2782440781593323
2.3218624591827393,3.5761911869049072,0.2864936888217926
1.6349259614944458,2.5579283237457275,0.2089930921792984
1.6360238790512085,2.602957010269165,0.21669836342334747
1.5843133926391602,2.5613372325897217,0.21696209907531738
3.021146535873413,4.9610185623168945,0.4271833300590515
2.983168840408325,4.983192443847656,0.43591421842575073
2.983044147491455,5.068572998046875,0.4500895142555237
2.947395086288452,5.088669776916504,0.4581126272678375
2.9073727130889893,5.10195779800415,0.4654802680015564
2.8917458057403564,5.163730621337891,0.4770733416080475
2.8733949661254883,5.222163200378418,0.4884863495826721
2.7662923336029053,5.111395359039307,0.4835856556892395
2.6495161056518555,4.9790120124816895,0.4763078987598419
2.6087019443511963,4.991083145141602,0.48244741559028625
2.571599006652832,5.009644985198975,0.48920848965644836
2.5357580184936523,5.027245044708252,0.4957156181335449
2.5073282718658447,5.058227062225342,0.5034974813461304
1.2477165460586548,2.564232587814331,0.2574765682220459
1.215279459953308,2.5450077056884766,0.25774502754211426
1.2004280090332031,2.560340404510498,0.26142385601997375
1.1792271137237549,2.561314582824707,0.26361313462257385
1.1638050079345703,2.576597213745117,0.2672411799430847
1.1542723178863525,2.6061322689056396,0.27223238348960876
2.5583293437957764,5.891826152801514,0.619799792766571
2.5338211059570312,5.948291301727295,0.6299362778663635
2.5071463584899902,6.001098155975342,0.6397692561149597
2.4807991981506348,6.061836242675781,0.6503190398216248
2.449472665786743,6.111649036407471,0.6595419049263
2.424978256225586,6.179279804229736,0.6707464456558228
2.3885891437530518,6.213653087615967,0.6782877445220947
2.361473798751831,6.273248195648193,0.688648521900177
1.9880563020706177,5.400051593780518,0.5959102511405945
2.292114734649658,6.367988586425781,0.70618736743927
2.2730119228363037,6.460798740386963,0.7199947834014893
2.2404873371124268,6.512673377990723,0.7292112112045288
2.211122751235962,6.5754218101501465,0.7397207021713257
2.17582368850708,6.627511501312256,0.7489202618598938
2.141003370285034,6.683182716369629,0.7582366466522217
2.073063373565674,6.634899139404297,0.7557878494262695
2.015058994293213,6.611640453338623,0.7561057209968567
1.9590328931808472,6.591494560241699,0.7567563056945801
1.892478585243225,6.533631801605225,0.7530538439750671
1.8384485244750977,6.5243821144104,0.754461944103241
1.7772185802459717,6.484536647796631,0.7523029446601868
1.7219712734222412,6.462829113006592,0.75223708152771
1.6651599407196045,6.429157733917236,0.7507349252700806
0.8190968632698059,3.2558562755584717,0.38142746686935425
1.5582424402236938,6.3871588706970215,0.750504195690155
0.7884176969528198,3.334841728210449,0.3928605616092682
1.4320820569992065,6.256734848022461,0.7390026450157166
1.384669303894043,6.251140117645264,0.7402670383453369
1.3345345258712769,6.229933738708496,0.7396882176399231
1.2950093746185303,6.2616801261901855,0.7454650402069092
0.9068693518638611,4.546785354614258,0.5424615740776062
0.8759574890136719,4.560526371002197,0.545185923576355
0.8343258500099182,4.5168328285217285,0.5410616397857666
0.8000174164772034,4.507065296173096,0.5409930348396301
0.7557041645050049,4.439747333526611,0.5340360999107361
0.7235405445098877,4.437035083770752,0.5348363518714905
0.6886268854141235,4.418868541717529,0.5334475636482239
0.653950572013855,4.400445461273193,0.5320024490356445
0.6239135265350342,4.412477970123291,0.5342631936073303
0.5899892449378967,4.3974151611328125,0.5332714915275574
0.5617982745170593,4.42049503326416,0.5369154810905457
0.5277685523033142,4.397187232971191,0.5349496006965637
0.5042111873626709,4.466184616088867,0.5438811779022217
0.5462194085121155,5.163649082183838,0.629429042339325
0.40551161766052246,4.109862327575684,0.5014888048171997
0.3717459738254547,4.062330722808838,0.4962232708930969
0.3519631326198578,4.165174961090088,0.5093473196029663
0.3242199718952179,4.182878017425537,0.5120991468429565
0.2954702079296112,4.192713737487793,0.5135952830314636
0.2655867636203766,4.1868815422058105,0.513146162033081
0.23744115233421326,4.219577312469482,0.5174515247344971
0.3831500709056854,7.772181987762451,0.9536929130554199
0.32810264825820923,7.751303672790527,0.9517565369606018
0.27262452244758606,7.706787109375,0.9469566345214844
0.21812936663627625,7.681323528289795,0.9440107941627502
0.16314084827899933,7.659393787384033,0.9413674473762512
0.10934679210186005,7.629304885864258,0.9377659559249878
0.05612262338399887,7.618224620819092,0.9365458488464355
0.0032131425105035305,7.587388515472412,0.9329408407211304
-0.04934651777148247,7.556186199188232,0.9293344616889954
-0.10251793265342712,7.532413005828857,0.9262687563896179
-0.1542106717824936,7.504444122314453,0.9224679470062256
-0.20528070628643036,7.464491844177246,0.9172410368919373
-0.2566041350364685,7.447443008422852,0.9148749113082886
-0.3083422780036926,7.445537090301514,0.9144138097763062
-0.25865840911865234,5.3481597900390625,0.6566959619522095
-0.3010770380496979,5.431439399719238,0.6665987968444824
-0.3376523554325104,5.413848400115967,0.6638919711112976
-0.3739413619041443,5.396015167236328,0.6611910462379456
-0.4095253646373749,5.370197772979736,0.6575453877449036
-0.44622769951820374,5.359589576721191,0.6557942032814026
-0.4272335171699524,4.726916313171387,0.5780035853385925
-0.4498147964477539,4.619741916656494,0.5644327402114868
-0.48004257678985596,4.601236820220947,0.561454176902771
-0.5112749934196472,4.59410285949707,0.5598936080932617
-0.5420733690261841,4.5828938484191895,0.5578628182411194
-0.5715837478637695,4.555992603302002,0.5539374947547913
-0.5991949439048767,4.521281719207764,0.5491077303886414
-0.6304971575737,4.517165184020996,0.5479352474212646
-0.6592355966567993,4.497560501098633,0.5445992350578308
-0.690043032169342,4.493114471435547,0.5431290864944458
-0.7183980345726013,4.469207763671875,0.5393168926239014
-0.7494778037071228,4.464280128479004,0.537830650806427
-0.7778483629226685,4.443851947784424,0.5345059633255005
-0.8044719099998474,4.415639877319336,0.5302004218101501
-0.8267073035240173,4.368328094482422,0.5233330726623535
-0.7182432413101196,3.658508777618408,0.4373214542865753
-0.7468619346618652,3.6688003540039062,0.43757128715515137
-0.7707061171531677,3.656121253967285,0.4351063668727875
-0.9424248933792114,4.321892261505127,0.5132319331169128
-0.9773465991020203,4.33822774887085,0.5139870047569275
-1.0015195608139038,4.309070587158203,0.5091077089309692
-1.0294755697250366,4.2947587966918945,0.5059912204742432
-1.0588843822479248,4.287862300872803,0.5037872195243835
-1.0886764526367188,4.28065824508667,0.5015507936477661
-1.1164964437484741,4.265724182128906,0.4984334409236908
-1.1437687873840332,4.250731945037842,0.4951777160167694
-1.1709930896759033,4.235562324523926,0.491696834564209
-1.1912084817886353,4.197943210601807,0.48567667603492737
-1.2222696542739868,4.197392463684082,0.48395052552223206
-1.249261498451233,4.18163537979126,0.48047563433647156
-1.2806830406188965,4.180543422698975,0.47870680689811707
-1.3014708757400513,4.145968437194824,0.47284314036369324
-1.3294579982757568,4.137409210205078,0.4699419438838959
-1.3501487970352173,4.106509685516357,0.4645322561264038
-1.3885574340820312,4.126816272735596,0.46488285064697266
-1.4147089719772339,4.110045909881592,0.4610661566257477
-1.4352673292160034,4.078554153442383,0.45554494857788086
-1.4656851291656494,4.07634973526001,0.45304086804389954
-1.4930137395858765,4.0667829513549805,0.44977131485939026
-1.5154167413711548,4.042262077331543,0.44482874870300293
-1.5491825342178345,4.046463489532471,0.443026602268219
-1.571761965751648,4.021432876586914,0.438045471906662
-1.5819623470306396,3.967664957046509,0.42966368794441223
-1.617296814918518,3.9789693355560303,0.4283897876739502
-1.6443095207214355,3.9682772159576416,0.42471760511398315
-1.668884515762329,3.9499671459198,0.420193076133728
-1.6933177709579468,3.9314889907836914,0.41567710041999817
-1.7232880592346191,3.9273622035980225,0.41241374611854553
-1.7462496757507324,3.9091084003448486,0.4076826274394989
-1.7613521814346313,3.8728599548339844,0.4010774493217468
-1.7916899919509888,3.867922782897949,0.397644966840744
-1.8120543956756592,3.8416550159454346,0.39204779267311096
-1.8381191492080688,3.8297016620635986,0.38763436675071716
-1.8635293245315552,3.817841053009033,0.38328149914741516
-1.8826371431350708,3.791533946990967,0.3774206042289734
-1.9197083711624146,3.7995314598083496,0.374899685382843
-1.9423638582229614,3.77970814704895,0.369575172662735
-1.9637391567230225,3.7603321075439453,0.3641391098499298
-1.9853907823562622,3.7406020164489746,0.3586336374282837
-2.00408935546875,3.713411808013916,0.35231757164001465
-1.7079143524169922,3.1127240657806396,0.2922053039073944
-1.7208770513534546,3.088162660598755,0.2866259217262268
-1.72957444190979,3.0568835735321045,0.28043845295906067
-0.8424621224403381,1.4651707410812378,0.13272781670093536
-0.8605843186378479,1.472872018814087,0.13171784579753876
-0.8624310493469238,1.4539064168930054,0.12827149033546448
-0.8719027042388916,1.4484443664550781,0.12601222097873688
-0.8858649730682373,1.4492928981781006,0.12421131879091263
-0.883814811706543,1.423308253288269,0.12006299942731857
-0.8889459371566772,1.4111098051071167,0.11708924919366837
-0.9064239263534546,1.418681025505066,0.11574018001556396
-0.8802583813667297,1.3569402694702148,0.1086423471570015
-0.9045646786689758,1.3738532066345215,0.10787174850702286
-0.9481374621391296,1.4200067520141602,0.10919499397277832
-2.383281946182251,3.518367290496826,0.26462191343307495
-1.2504024505615234,1.818489670753479,0.13354255259037018
-1.5117008686065674,2.1690680980682373,0.15532006323337555
-1.462786316871643,2.0777511596679688,-0.09948159754276276
-1.3881351947784424,2.001091957092285,-0.10058347135782242
-1.280733585357666,1.8757649660110474,-0.09871697425842285
-1.2712397575378418,1.891367793083191,-0.10382135957479477
-1.4020920991897583,2.118072271347046,-0.12081965059041977
-1.2798279523849487,1.9969295263290405,-0.12222086638212204
-1.240281105041504,1.998259425163269,-0.1299801915884018
-1.7700093984603882,2.944397211074829,-0.20216280221939087
-0.7764304280281067,1.3567554950714111,-0.09999300539493561
-0.8582478761672974,1.5252567529678345,-0.11484673619270325
-1.5427839756011963,2.789947986602783,-0.21454444527626038
-1.4803775548934937,2.7215616703033447,-0.21335457265377045
-1.446300745010376,2.7041420936584473,-0.21598653495311737
-1.3920495510101318,2.648735523223877,-0.215401291847229
-1.3247730731964111,2.5648112297058105,-0.21220242977142334
-1.2887901067733765,2.539109945297241,-0.21364116668701172
-1.2548179626464844,2.516606092453003,-0.21514678001403809
-1.205599308013916,2.462381362915039,-0.21379734575748444
-1.1594834327697754,2.410839796066284,-0.21242710947990417
-1.1359204053878784,2.404484987258911,-0.21492750942707062
-1.0874359607696533,2.3451778888702393,-0.2125162035226822
-1.0539867877960205,2.317373514175415,-0.21288366615772247
-1.032920002937317,2.3137452602386475,-0.21528862416744232
-0.9854540228843689,2.249314546585083,-0.2119419127702713
-0.9554123282432556,2.2238709926605225,-0.21205367147922516
-0.9272598028182983,2.2017204761505127,-0.21241289377212524
-0.8921957015991211,2.1612484455108643,-0.21090908348560333
-0.8770518898963928,2.1671509742736816,-0.21383842825889587
-0.8414619565010071,2.1224660873413086,-0.21162667870521545
-0.8219801783561707,2.117300033569336,-0.21328380703926086
-0.7932249307632446,2.0864176750183105,-0.21227289736270905
-0.7620799541473389,2.0480093955993652,-0.21044819056987762
-0.7408759593963623,2.034843683242798,-0.2110406458377838
-0.7132661938667297,2.0032155513763428,-0.2096318155527115
-0.6939648389816284,1.9932807683944702,-0.21043609082698822
-0.672500729560852,1.975762963294983,-0.21039457619190216
-0.647316038608551,1.9470913410186768,-0.2091018110513687
-0.6310253143310547,1.9440356492996216,-0.2104126662015915
-0.6125087738037109,1.9334251880645752,-0.210892453789711
-0.5943835377693176,1.922590970993042,-0.2113085240125656
-0.5730750560760498,1.9004428386688232,-0.21045741438865662
-0.5530059933662415,1.8818955421447754,-0.20982560515403748
-0.5329697132110596,1.8632341623306274,-0.20917822420597076
-0.5198764204978943,1.8667283058166504,-0.2109692543745041
-0.5027709603309631,1.855118989944458,-0.21104459464550018
-0.4847595989704132,1.8396459817886353,-0.21058587729930878
-0.4678770899772644,1.8278043270111084,-0.21044519543647766
-0.4491259455680847,1.8083281517028809,-0.2094287872314453
-0.4346739947795868,1.8036938905715942,-0.21008720993995667
-0.41855674982070923,1.7913845777511597,-0.20984549820423126
-0.3999132215976715,1.7676376104354858,-0.20808778703212738
-0.3882705271244049,1.7740468978881836,-0.2098684310913086
-0.37161165475845337,1.7576266527175903,-0.20896057784557343
-0.35468393564224243,1.7372127771377563,-0.20754265785217285
-0.3425287902355194,1.7395033836364746,-0.20877034962177277
-0.3302825093269348,1.7417356967926025,-0.20988786220550537
-0.31662997603416443,1.736249327659607,-0.21008186042308807
-0.30164834856987,1.7230310440063477,-0.20934532582759857
-0.2870793342590332,1.7096571922302246,-0.20857000350952148
-0.27634119987487793,1.7191649675369263,-0.2104623019695282
-0.2613367438316345,1.7017850875854492,-0.2090139389038086
-0.25111156702041626,1.7149717807769775,-0.21132537722587585
-0.2389402836561203,1.7165974378585815,-0.2122371941804886
-0.22546060383319855,1.7065776586532593,-0.21169964969158173
-0.211569145321846,1.6926411390304565,-0.21049100160598755
-0.1978842169046402,1.6785954236984253,-0.20926958322525024
-0.18702368438243866,1.6875548362731934,-0.21092155575752258
-0.1760898232460022,1.6964387893676758,-0.21257734298706055
-0.1633230298757553,1.6898460388183594,-0.2122575044631958
-0.15081582963466644,1.6831629276275635,-0.21178311109542847
-0.13778609037399292,1.6686618328094482,-0.2103298157453537
-0.12674595415592194,1.6772487163543701,-0.21179431676864624
-0.1145462766289711,1.670295000076294,-0.21130621433258057
-0.10366510599851608,1.686486840248108,-0.21365956962108612
-0.09147810190916061,1.6793919801712036,-0.2129765897989273
-0.07902755588293076,1.6644679307937622,-0.21130801737308502
-0.06807194650173187,1.6804280281066895,-0.21357007324695587
-0.05584493651986122,1.665332317352295,-0.2118956744670868
-0.04403676837682724,1.6656678915023804,-0.21204149723052979
-0.03241731598973274,1.6659224033355713,-0.21213646233081818
-0.020824264734983444,1.6660956144332886,-0.21223118901252747
-0.00914450827986002,1.650688648223877,-0.21035078167915344
0.0023418120108544827,1.650700330734253,-0.2104446291923523
0.013887335546314716,1.6351559162139893,-0.20837059617042542
0.02538307197391987,1.6427816152572632,-0.20925690233707428
0.03715922310948372,1.658074140548706,-0.211128830909729
0.04846674203872681,1.6500418186187744,-0.21004052460193634
0.059927862137556076,1.6496832370758057,-0.20990003645420074
0.07037800550460815,1.6260361671447754,-0.2066483497619629
0.08341805636882782,1.6564995050430298,-0.2102784812450409
0.0940474420785904,1.640441656112671,-0.20801475644111633
0.10543876141309738,1.639786720275879,-0.20771656930446625
0.11737871170043945,1.6467938423156738,-0.20831774175167084
0.12939132750034332,1.6537302732467651,-0.2088063508272171
0.13908962905406952,1.6296675205230713,-0.20538732409477234
0.1532576084136963,1.6595993041992188,-0.20878802239894867
0.16401584446430206,1.650842308998108,-0.20732629299163818
0.17626610398292542,1.6574525833129883,-0.2076815366744995
0.18859738111495972,1.6639825105667114,-0.20796529948711395
0.20311720669269562,1.6857901811599731,-0.2101479172706604
0.2119259536266327,1.6613452434539795,-0.20658119022846222
0.22661226987838745,1.6829664707183838,-0.2087528109550476
0.23719576001167297,1.6737829446792603,-0.20693892240524292
0.24993862211704254,1.6798769235610962,-0.20700527727603912
0.2618175745010376,1.6781773567199707,-0.20610450208187103
0.2759893834590912,1.6917331218719482,-0.20709247887134552
0.28969472646713257,1.7013568878173828,-0.20756512880325317
0.29805296659469604,1.680351734161377,-0.20416679978370667
0.3082461953163147,1.670753002166748,-0.20217740535736084
0.32133719325065613,1.676314353942871,-0.20202547311782837
0.3301961123943329,1.6589043140411377,-0.1991034597158432
0.3417043089866638,1.6567096710205078,-0.1979546844959259
0.35962235927581787,1.6848132610321045,-0.20033177733421326
0.36959660053253174,1.6748557090759277,-0.19817838072776794
0.381269633769989,1.6723860502243042,-0.19691702723503113
0.39492112398147583,1.6773415803909302,-0.19651734828948975
0.4064957797527313,1.674737572669983,-0.1951209008693695
0.4265063405036926,1.7059532403945923,-0.19762815535068512
0.44606783986091614,1.733199954032898,-0.19963616132736206
0.46213629841804504,1.7452267408370972,-0.19986288249492645
0.48163607716560364,1.7683123350143433,-0.20127630233764648
0.5021734237670898,1.795061469078064,-0.2029796838760376
0.5188135504722595,1.8066840171813965,-0.2029487043619156
0.5335989594459534,1.8106681108474731,-0.20203576982021332
0.5518506169319153,1.8256840705871582,-0.20234255492687225
0.5669523477554321,1.829397439956665,-0.20125481486320496
0.5889102220535278,1.8552956581115723,-0.2025681734085083
0.6041309237480164,1.8587828874588013,-0.20140309631824493
0.6269330978393555,1.884225845336914,-0.20257849991321564
0.6400225758552551,1.8800404071807861,-0.20052257180213928
0.6592934131622314,1.8941890001296997,-0.20031018555164337
0.6777020692825317,1.9044269323349,-0.19963495433330536
0.7016438245773315,1.9291001558303833,-0.2004362940788269
0.7232390642166138,1.9462507963180542,-0.20042046904563904
0.7434647679328918,1.959669828414917,-0.1998821198940277
0.7680913209915161,1.9837970733642578,-0.20037856698036194
0.7963743209838867,2.0147533416748047,-0.20144668221473694
0.8162637948989868,2.0238211154937744,-0.20030412077903748
0.8464679718017578,2.0579867362976074,-0.20152893662452698
0.8725042343139648,2.081145763397217,-0.2015586942434311
0.8975322842597961,2.1004014015197754,-0.20113544166088104
0.9280208349227905,2.129910945892334,-0.20155924558639526
0.9522189497947693,2.1450603008270264,-0.2005709558725357
0.9908230900764465,2.1920299530029297,-0.20241600275039673
1.0123296976089478,2.1996262073516846,-0.20053492486476898
1.04587721824646,2.2315609455108643,-0.2007632702589035
1.0749905109405518,2.252553701400757,-0.19985876977443695
1.1106131076812744,2.287571668624878,-0.20009925961494446
1.1417394876480103,2.3116650581359863,-0.1992717683315277
1.1683781147003174,2.324817180633545,-0.19737310707569122
1.2180956602096558,2.3829092979431152,-0.1991519331932068
1.2520798444747925,2.409543752670288,-0.19812148809432983
1.265171766281128,2.394216537475586,-0.19350506365299225
1.3243290185928345,2.4645743370056152,-0.19569897651672363
1.3579457998275757,2.486586332321167,-0.1938658207654953
1.3613337278366089,2.453911781311035,-0.187735915184021
1.3150724172592163,2.332736015319824,-0.17493756115436554
1.3277761936187744,2.3168680667877197,-0.17011359333992004
1.3667685985565186,2.348684787750244,-0.1687614619731903
1.4280787706375122,2.4170033931732178,-0.16982941329479218
1.4549890756607056,2.423997163772583,-0.16627062857151031
1.4613621234893799,2.397674560546875,-0.1604146510362625
1.4815512895584106,2.394747734069824,-0.1560525745153427
1.5084172487258911,2.401298999786377,-0.15216229856014252
1.5502158403396606,2.430558204650879,-0.14954765141010284
1.5788427591323853,2.440300226211548,-0.14560145139694214
1.68106210231781,2.5602807998657227,-0.14778026938438416
1.4156686067581177,2.123286008834839,-0.11818602681159973
1.4097939729690552,2.0851898193359375,-0.1118096113204956
1.4371427297592163,2.095155954360962,-0.10785726457834244
1.4582602977752686,2.0950558185577393,-0.10318394005298615
1.4604438543319702,2.069941520690918,-0.09728429466485977
1.4475698471069336,2.0218749046325684,-0.09004171937704086
1.4518367052078247,1.9997828006744385,-0.08407244831323624
1.4739912748336792,2.0031578540802,-0.07907120138406754
2.3813254833221436,3.3633687496185303,0.2547715902328491
2.365441083908081,3.3929107189178467,0.26454415917396545
2.3541362285614014,3.4285056591033936,0.2745128273963928
2.3442912101745605,3.472228527069092,0.28524646162986755
2.310640335083008,3.47536039352417,0.29200950264930725
2.349546432495117,3.58907413482666,0.30805402994155884
1.6111137866973877,2.502551555633545,0.21918633580207825
1.6366665363311768,2.5828394889831543,0.2304568886756897
1.6057827472686768,2.5741891860961914,0.23381751775741577
1.5902587175369263,2.5924949645996094,0.23940081894397736
2.998709201812744,4.971090793609619,0.4663946032524109
2.9775640964508057,5.014677047729492,0.4773957133293152
2.964906930923462,5.075505256652832,0.49003806710243225
2.9470460414886475,5.134459495544434,0.502544641494751
2.9132239818573,5.161829948425293,0.5117067694664001
2.8806657791137695,5.1881608963012695,0.5205510258674622
2.8542211055755615,5.228555679321289,0.5306925773620605
2.8296329975128174,5.276433944702148,0.5414643883705139
2.7722890377044678,5.262046813964844,0.5458034873008728
2.6977429389953613,5.20806360244751,0.5456354022026062
2.6976327896118164,5.299164772033691,0.5605828166007996
2.7381420135498047,5.478310585021973,0.5848299860954285
2.7301125526428223,5.563936233520508,0.5993149280548096
1.230383038520813,2.5531094074249268,0.27737370133399963
1.2041103839874268,2.543766736984253,0.278676301240921
1.1854177713394165,2.5521926879882812,0.281758576631546
1.166509747505188,2.560551881790161,0.2848169207572937
1.1623352766036987,2.600473165512085,0.29136842489242554
1.137890338897705,2.593971014022827,0.2926879823207855
2.553309917449951,5.9350690841674805,0.6743860244750977
2.5218136310577393,5.981546878814697,0.6839357614517212
2.48976993560791,6.027867794036865,0.6935451626777649
2.468782663345337,6.098684310913086,0.7059310078620911
2.4375438690185547,6.143966197967529,0.7153899669647217
2.4059994220733643,6.193178176879883,0.7253528833389282
2.37186861038208,6.238903999328613,0.7344695329666138
2.312779664993286,6.218967914581299,0.7358953952789307
2.2951323986053467,6.307530403137207,0.7501185536384583
2.2899515628814697,6.432499408721924,0.7687677145004272
2.2568094730377197,6.484630584716797,0.7788702845573425
2.2234227657318115,6.540638446807861,0.7889171242713928
2.193070411682129,6.607518672943115,0.8003593683242798
2.15891432762146,6.663013458251953,0.8104661703109741
2.1041033267974854,6.651424884796143,0.8123839497566223
2.038438320159912,6.6062774658203125,0.8102594017982483
1.983474850654602,6.5940632820129395,0.8117130994796753
1.9228161573410034,6.562962532043457,0.8106753826141357
1.8616446256637573,6.527607440948486,0.809114396572113
1.8076163530349731,6.51004695892334,0.8096853494644165
1.7510817050933838,6.480771541595459,0.8087969422340393
1.6911014318466187,6.440037250518799,0.8064531683921814
0.8306341767311096,3.257694721221924,0.40906763076782227
1.5735782384872437,6.361045837402344,0.8009836077690125
0.8048732876777649,3.355464220046997,0.4237038493156433
1.4742424488067627,6.34013032913208,0.8028125762939453
1.4131299257278442,6.27810525894165,0.7972313761711121
1.3590441942214966,6.24202823638916,0.7946634292602539
1.3130143880844116,6.24358606338501,0.7965578436851501
0.9209394454956055,4.539268970489502,0.5803813934326172
0.890401303768158,4.552992343902588,0.5834133625030518
0.8530742526054382,4.532266616821289,0.5820620656013489
0.8076723217964172,4.461573600769043,0.5742697715759277
0.7663206458091736,4.409647464752197,0.5686551332473755
0.7337260842323303,4.407128810882568,0.5692391991615295
0.701252281665802,4.40436315536499,0.569815456867218
0.6674588918685913,4.393731594085693,0.5694048404693604
0.6351929903030396,4.386569976806641,0.5694417953491211
0.6046446561813354,4.390686511993408,0.570967972278595
0.5728310942649841,4.386967658996582,0.5712649822235107
0.5438162088394165,4.406126499176025,0.5743913054466248
0.5212235450744629,4.482816219329834,0.5850601196289062
0.5585495829582214,5.121660232543945,0.6692444682121277
0.5295870304107666,5.190764427185059,0.6791053414344788
0.39015355706214905,4.106734752655029,0.5379648804664612
0.35941505432128906,4.086099624633789,0.5357731580734253
0.33858582377433777,4.1849493980407715,0.549081563949585
0.3075316250324249,4.171722888946533,0.5477265119552612
0.2773102819919586,4.158227920532227,0.5463523864746094
0.2501963973045349,4.190901279449463,0.5510706901550293
0.40960195660591125,7.769966125488281,1.0225272178649902
0.3554903566837311,7.772504806518555,1.0234800577163696
0.2980211675167084,7.720596790313721,1.0168242454528809
0.24328288435935974,7.69920539855957,1.0142325162887573
0.18884609639644623,7.673553943634033,1.0111271142959595
0.1350417584180832,7.643641471862793,1.007505178451538
0.08174474537372589,7.62109899520874,1.0049008131027222
0.0277608223259449,7.594333171844482,1.001660943031311
-0.024850698187947273,7.555649757385254,0.9962959289550781
-0.07724296301603317,7.5398383140563965,0.9939963817596436
-0.12900227308273315,7.504303932189941,0.9891462326049805
-0.18092598021030426,7.495517730712891,0.9878703355789185
-0.23209258913993835,7.463143825531006,0.9835337996482849
-0.2836214005947113,7.430392265319824,0.9791954755783081
-0.33641135692596436,7.4593281745910645,0.9823319911956787
-0.28113853931427,5.403194427490234,0.7110850811004639
-0.3194766044616699,5.4166741371154785,0.7124200463294983
-0.3560926914215088,5.398956775665283,0.7096846699714661
-0.3931737244129181,5.380943298339844,0.7069402933120728
-0.43000030517578125,5.370446681976318,0.705225944519043
-0.4613725244998932,5.30189323425293,0.6955339908599854
-0.4338218569755554,4.616147994995117,0.6049031615257263
-0.4656868875026703,4.613177299499512,0.6038715839385986
-0.49733975529670715,4.602217674255371,0.601811945438385
-0.527090847492218,4.579544544219971,0.5982619524002075
-0.5569718480110168,4.560531139373779,0.5952240824699402
-0.5874223709106445,4.5490641593933105,0.5929375886917114
-0.616504967212677,4.5297627449035645,0.5895008444786072
-0.6459221839904785,4.510196685791016,0.586047351360321
-0.6736128330230713,4.482824802398682,0.5816248655319214
-0.7047585248947144,4.478220462799072,0.5801835060119629
-0.7327279448509216,4.454282760620117,0.5762688517570496
-0.764722466468811,4.456976890563965,0.5756176114082336
-0.7910440564155579,4.4289984703063965,0.5708402991294861
-0.8190295100212097,4.408382415771484,0.5670258402824402
-0.8413535952568054,4.361001968383789,0.5598211288452148
-0.7324628829956055,3.659804344177246,0.46888992190361023
-0.7563556432723999,3.647221803665161,0.4663812220096588
-0.9319098591804504,4.343280792236328,0.5541418790817261
-0.9662401676177979,4.355914115905762,0.5543035268783569
-0.9881428480148315,4.315494060516357,0.5477701425552368
-1.0214306116104126,4.323954105377197,0.5474587082862854
-1.045971155166626,4.294428825378418,0.5423542261123657
-1.0739251375198364,4.279810905456543,0.5391683578491211
-1.1017765998840332,4.2650322914123535,0.5357196927070618
-1.1326597929000854,4.265285968780518,0.5340601801872253
-1.1574724912643433,4.242867469787598,0.5295892357826233
-1.1804845333099365,4.212689399719238,0.5241578817367554
-1.211922287940979,4.212155818939209,0.5224341750144958
-1.2373592853546143,4.1889119148254395,0.5178919434547424
-1.2680344581604004,4.188198089599609,0.5158717036247253
-1.2905975580215454,4.161362171173096,0.5106139779090881
-1.3187263011932373,4.152897357940674,0.5076427459716797
-1.3403984308242798,4.121851444244385,0.5018905997276306
-1.3720232248306274,4.119990825653076,0.49968889355659485
-1.3979429006576538,4.103448390960693,0.49566975235939026
-1.4203925132751465,4.079699516296387,0.49056124687194824
-1.4530296325683594,4.085074424743652,0.48897385597229004
-1.4756529331207275,4.060846328735352,0.48382866382598877
-1.501240611076355,4.043586254119873,0.47950640320777893
-1.5326917171478271,4.040493965148926,0.47684553265571594
-1.5571621656417847,4.02323579788208,0.4722959101200104
-1.5841195583343506,4.0131354331970215,0.4685652554035187
-1.608289122581482,3.9955763816833496,0.4639725983142853
-1.6332190036773682,3.977504014968872,0.4592640995979309
-1.6584348678588867,3.9590883255004883,0.45450475811958313
-1.679187536239624,3.9339027404785156,0.4488397240638733
-1.7116135358810425,3.9373250007629395,0.44633620977401733
-1.7347556352615356,3.9191548824310303,0.44139596819877625
-1.7621936798095703,3.907381534576416,0.43706214427948
-1.7868046760559082,3.8881285190582275,0.4318639039993286
-1.801644206047058,3.8517520427703857,0.4246794581413269
-1.8239483833312988,3.8331289291381836,0.4193936288356781
-1.8530751466751099,3.828270435333252,0.4156050384044647
-1.8866493701934814,3.8296942710876465,0.41237354278564453
-1.906823992729187,3.8028154373168945,0.40605971217155457
-1.9284905195236206,3.7836685180664062,0.4004197418689728
-1.9605741500854492,3.78519344329834,0.39694082736968994
-1.971826434135437,3.7447431087493896,0.3889731466770172
-2.0017499923706055,3.7382028102874756,0.384453147649765
-2.01994252204895,3.7112364768981934,0.3777678906917572
-1.7096219062805176,3.0920252799987793,0.3112783432006836
-1.7263603210449219,3.0742430686950684,0.30605998635292053
-0.8372714519500732,1.4670482873916626,0.14432691037654877
-0.8513579368591309,1.468150019645691,0.1426875740289688
-0.860913872718811,1.4627944231033325,0.14033658802509308
-0.8706498742103577,1.4572502374649048,0.13793200254440308
-0.8808754086494446,1.4513309001922607,0.13539621233940125
-0.8827595710754395,1.4321538209915161,0.1316343992948532
-0.8961799144744873,1.4332237243652344,0.12967705726623535
-0.893124520778656,1.4077616930007935,0.12530674040317535
-0.8862623572349548,1.375402569770813,0.12023772299289703
-0.893341600894928,1.3663960695266724,0.11726392060518265
-0.9042325019836426,1.364121437072754,0.11483491212129593
-2.3905532360076904,3.553738594055176,0.29288026690483093
-1.3713892698287964,2.0086066722869873,0.16185562312602997
-1.2646054029464722,1.8269381523132324,0.14370356500148773
-1.303709626197815,1.8570388555526733,0.14235857129096985
-1.3350560665130615,1.909523844718933,-0.09855383634567261
-1.2321022748947144,1.7906771898269653,-0.09707528352737427
-1.1421384811401367,1.6864603757858276,-0.09564001858234406
-1.279483675956726,1.9182542562484741,-0.11325787007808685
-1.1982219219207764,1.854356288909912,-0.11777981370687485
-1.7683075666427612,2.9175193309783936,-0.2089991569519043
-1.7006707191467285,2.8530900478363037,-0.20978884398937225
-1.6070150136947632,2.785112142562866,-0.2148626744747162
-0.853752851486206,1.5050135850906372,-0.1187293604016304
-1.4938650131225586,2.6781716346740723,-0.21583770215511322
-1.4451018571853638,2.6334855556488037,-0.21652843058109283
-1.3817414045333862,2.5611014366149902,-0.21469350159168243
-1.32980215549469,2.5089473724365234,-0.2143736332654953
-1.2922046184539795,2.4799110889434814,-0.2156851887702942
-1.2445733547210693,2.429609775543213,-0.214979887008667
-1.1987948417663574,2.3825955390930176,-0.21432387828826904
-1.1521238088607788,2.331528663635254,-0.21312560141086578
-1.118463397026062,2.3042969703674316,-0.21391823887825012
-1.0904247760772705,2.287186861038208,-0.21549972891807556
-1.0507045984268188,2.2453322410583496,-0.21458525955677032
-1.0247946977615356,2.2312560081481934,-0.21621300280094147
-0.9883319139480591,2.191932439804077,-0.21524503827095032
-0.9523279666900635,2.152285099029541,-0.2141018509864807
-0.9271969199180603,2.1374776363372803,-0.21532228589057922
-0.8936119675636292,2.1007814407348633,-0.2141983062028885
-0.8683668971061707,2.0815582275390625,-0.2147349715232849
-0.8448149561882019,2.0657286643981934,-0.2155405580997467
-0.8053385615348816,2.010099172592163,-0.21202589571475983
-0.7850021719932556,2.0011284351348877,-0.21338334679603577
-0.7625792622566223,1.9845211505889893,-0.21381263434886932
-0.737646222114563,1.9604460000991821,-0.213372603058815
