X,Y,Z
-0.5137633085250854,5.3407793045043945,-0.8579427003860474
-0.47139814496040344,5.286171913146973,-0.8513491153717041
-0.43139535188674927,5.250539302825928,-0.8473292589187622
-0.35228726267814636,4.687817096710205,-0.7577799558639526
-0.3198517858982086,4.693742275238037,-0.7600376009941101
-0.2831021249294281,4.6378865242004395,-0.7523328065872192
-0.25124862790107727,4.647182464599609,-0.7551961541175842
-0.21814674139022827,4.6332688331604,-0.7535827159881592
-0.18648681044578552,4.649941921234131,-0.7569789290428162
-0.15438725054264069,4.658688545227051,-0.7591241002082825
-0.12144974619150162,4.659515857696533,-0.7600293755531311
-0.08832703530788422,4.621605396270752,-0.7543291449546814
-0.05638483166694641,4.6375041007995605,-0.7569915652275085
-0.023499328643083572,4.506684303283691,-0.7357384562492371
0.00767552712932229,4.418045997619629,-0.7214018106460571
0.03939665108919144,4.467973709106445,-0.7297283411026001
0.0685105100274086,4.344308853149414,-0.7091663479804993
0.09257910400629044,4.074015140533447,-0.6646012663841248
0.12375921756029129,4.169699668884277,-0.6797906160354614
0.15246251225471497,4.16111946105957,-0.6780053973197937
0.1798703968524933,4.125397682189941,-0.6717140674591064
0.21720552444458008,4.285951614379883,-0.6968192458152771
0.24740733206272125,4.292236328125,-0.6968536376953125
0.2705640494823456,4.186710357666016,-0.6787881255149841
0.17657038569450378,2.4655632972717285,-0.39920929074287415
0.3282216191291809,4.175294876098633,-0.6747849583625793
0.35907524824142456,4.188540458679199,-0.6753993630409241
0.4013464152812958,4.328341484069824,-0.6964260339736938
0.4260885715484619,4.272014617919922,-0.6858963966369629
0.45989516377449036,4.3076066970825195,-0.6901636123657227
0.4806038737297058,4.224222183227539,-0.6747598052024841
0.5219790935516357,4.316892147064209,-0.6874678134918213
0.5622687339782715,4.393942832946777,-0.6976684927940369
0.6542989611625671,4.845431804656982,-0.76710444688797
0.6982770562171936,4.9138689041137695,-0.7753878235816956
0.7289170622825623,4.886573791503906,-0.7681630849838257
0.762215793132782,4.874253273010254,-0.7632947564125061
0.7924205660820007,4.846529006958008,-0.756109356880188
0.8228867650032043,4.822425842285156,-0.7495531439781189
0.8495681881904602,4.7792253494262695,-0.7395079731941223
0.8784749507904053,4.751084327697754,-0.7317762970924377
0.9129352569580078,4.753098011016846,-0.7287275195121765
0.9398326277732849,4.713063716888428,-0.7192184329032898
0.9710512161254883,4.699509143829346,-0.7136745452880859
0.814535915851593,3.8091256618499756,-0.5753246545791626
0.8359050750732422,3.7813332080841064,-0.5680376291275024
0.858884871006012,3.760906219482422,-0.5618873834609985
0.8785401582717896,3.7251827716827393,-0.5534619688987732
0.902557909488678,3.7121033668518066,-0.5481358766555786
0.928302526473999,3.7063815593719482,-0.5438438653945923
0.9521363973617554,3.69297194480896,-0.5384493470191956
0.9769340753555298,3.683114767074585,-0.5335940718650818
1.0009835958480835,3.669286012649536,-0.5279884338378906
1.0263749361038208,3.662940740585327,-0.523278534412384
1.0474168062210083,3.641542673110962,-0.5164629817008972
1.0706815719604492,3.6273691654205322,-0.5106781721115112
1.0937974452972412,3.613039970397949,-0.5049118399620056
1.1214869022369385,3.613365411758423,-0.5008124113082886
1.1417239904403687,3.5914700031280518,-0.49370837211608887
1.164353370666504,3.576749563217163,-0.48759928345680237
1.1894164085388184,3.5691897869110107,-0.48247623443603516
1.2092349529266357,3.5468645095825195,-0.4752133786678314
1.2286237478256226,3.524502754211426,-0.4678592383861542
1.2534644603729248,3.516472578048706,-0.46235862374305725
1.2860554456710815,3.5301713943481445,-0.4597388207912445
1.3011945486068726,3.4963903427124023,-0.45089060068130493
1.3403562307357788,3.527979850769043,-0.45026907324790955
1.645103931427002,4.242818832397461,-0.5358483195304871
1.6696503162384033,4.217440605163574,-0.526809573173523
1.6991846561431885,4.2065110206604,-0.5197158455848694
1.7191795110702515,4.174107074737549,-0.5097261071205139
1.7538031339645386,4.177415370941162,-0.5041382312774658
1.779953956604004,4.158792972564697,-0.4957982003688812
1.8096586465835571,4.146860122680664,-0.48815903067588806
1.8317939043045044,4.121033191680908,-0.47881004214286804
1.8535749912261963,4.095118999481201,-0.46948984265327454
1.882131814956665,4.08296537399292,-0.46166837215423584
1.9042259454727173,4.056426525115967,-0.45221370458602905
1.9324908256530762,4.0439372062683105,-0.4440997242927551
1.9634658098220825,4.038510322570801,-0.4368542432785034
1.9829572439193726,4.008173942565918,-0.4268133044242859
2.01112961769104,3.994983673095703,-0.41858237981796265
2.034752368927002,3.975132942199707,-0.4095355272293091
2.0652990341186523,3.9689748287200928,-0.401904821395874
2.0862298011779785,3.941289186477661,-0.39178740978240967
2.110081911087036,3.920583724975586,-0.38249483704566956
2.136528491973877,3.907073497772217,-0.37383097410202026
2.1478774547576904,3.866079568862915,-0.3625718355178833
2.1386899948120117,3.7872607707977295,-0.3476814031600952
2.176842212677002,3.793245315551758,-0.34051093459129333
2.198367118835449,3.7725884914398193,-0.33102700114250183
2.2084767818450928,3.7312991619110107,-0.31961172819137573
2.238701581954956,3.7231228351593018,-0.31093308329582214
2.271698236465454,3.722121238708496,-0.30275577306747437
2.2848010063171387,3.6873748302459717,-0.2916586995124817
2.3024067878723145,3.6587588787078857,-0.28089338541030884
2.3439347743988037,3.6700925827026367,-0.2731572389602661
2.3554742336273193,3.6355667114257812,-0.26198920607566833
2.389413833618164,3.6327645778656006,-0.2526496350765228
2.418827533721924,3.623347282409668,-0.2425941377878189
2.429394483566284,3.5887184143066406,-0.23105178773403168
2.4455833435058594,3.559478282928467,-0.21932919323444366
2.483016014099121,3.562704086303711,-0.20948956906795502
2.488171339035034,3.5215811729431152,-0.19706089794635773
2.5223422050476074,3.5170695781707764,-0.1857614815235138
2.563535213470459,3.5264408588409424,-0.17528977990150452
2.582261323928833,3.503648519515991,-0.16272969543933868
2.7805001735687256,3.936424493789673,0.39958950877189636
2.7390494346618652,3.9357106685638428,0.4098130464553833
2.7220311164855957,3.9745538234710693,0.42398601770401
2.6991002559661865,4.007622241973877,0.43758624792099
2.653402805328369,3.99953556060791,0.4456256031990051
2.631781816482544,4.031173229217529,0.4578827917575836
2.60451602935791,4.056853294372559,0.4694157838821411
2.5670976638793945,4.061098098754883,0.47779056429862976
2.5536422729492188,4.105057239532471,0.49086079001426697
2.513866901397705,4.110164165496826,0.49893712997436523
2.492997884750366,4.144389629364014,0.510388970375061
2.475482225418091,4.180876731872559,0.5218005776405334
2.452498435974121,4.211273193359375,0.5323548316955566
2.408212900161743,4.20880651473999,0.5386923551559448
2.3733088970184326,4.2185959815979,0.5462636947631836
2.3340325355529785,4.2172393798828125,0.5521255135536194
2.2605745792388916,4.1547112464904785,0.5496751070022583
2.2419402599334717,4.194595813751221,0.5605245232582092
2.206601142883301,4.2035040855407715,0.5672890543937683
2.1769418716430664,4.2179718017578125,0.5744509696960449
2.153886318206787,4.246214389801025,0.5834782123565674
2.1221072673797607,4.261233806610107,0.5903874635696411
2.103800058364868,4.303879737854004,0.601194441318512
2.0624430179595947,4.2971296310424805,0.6049994826316833
2.045358180999756,4.338659286499023,0.6154968738555908
2.0106472969055176,4.345414161682129,0.6208570003509521
1.9751842021942139,4.3522562980651855,0.6260378360748291
2.008963108062744,4.514495849609375,0.6537478566169739
1.9865161180496216,4.5488996505737305,0.6629080772399902
1.9630732536315918,4.583439350128174,0.6722398400306702
1.9208415746688843,4.575261116027832,0.6749386191368103
1.4779162406921387,3.5934290885925293,0.5330421924591064
1.8475213050842285,4.586989402770996,0.6842013597488403
1.8265987634658813,4.6278395652771,0.6939471364021301
1.814433217048645,4.694048881530762,0.7076544165611267
1.7724652290344238,4.684454441070557,0.7096632719039917
1.7489070892333984,4.725534439086914,0.7191372513771057
1.315667986869812,3.635777711868286,0.5558145642280579
1.3027297258377075,3.680887222290039,0.5652023553848267
1.2764337062835693,3.6894967555999756,0.5690522193908691
1.6206152439117432,4.792513370513916,0.7423385381698608
1.5906074047088623,4.818148612976074,0.7490583062171936
1.5567570924758911,4.832559585571289,0.7540828585624695
1.550868272781372,4.9350972175598145,0.7729308605194092
1.5032825469970703,4.904679298400879,0.7709886431694031
1.4645352363586426,4.89958381652832,0.7729858160018921
1.427492380142212,4.901821613311768,0.7758542895317078
1.3963364362716675,4.926239490509033,0.7820315361022949
1.376189947128296,4.991398811340332,0.7947505712509155
1.312706470489502,4.896031856536865,0.7818931937217712
1.277899146080017,4.904634475708008,0.7856297492980957
1.2445393800735474,4.916597366333008,0.7899074554443359
1.2223963737487793,4.977279186248779,0.801621675491333
1.1938257217407227,5.015436172485352,0.8096494674682617
1.1543701887130737,5.008309841156006,0.81041419506073
1.121795415878296,5.031003475189209,0.8160459995269775
1.092355728149414,5.064601421356201,0.8234509229660034
1.0569918155670166,5.071590900421143,0.826579749584198
1.0209676027297974,5.07852840423584,0.8292620778083801
0.9847551584243774,5.0852532386779785,0.8318408131599426
1.8033273220062256,9.68697738647461,1.5875290632247925
1.728994369506836,9.664470672607422,1.5867658853530884
1.6766806840896606,9.762895584106445,1.6059199571609497
1.6035624742507935,9.743119239807129,1.6057308912277222
1.5294109582901,9.719244956970215,1.6041076183319092
1.4501742124557495,9.668395042419434,1.597786545753479
1.3670226335525513,9.574769973754883,1.5844041109085083
1.3048508167266846,9.621745109558105,1.59433913230896
1.2387909889221191,9.637650489807129,1.599193811416626
1.1590948104858398,9.542144775390625,1.5856167078018188
0.25663691759109497,2.2437939643859863,0.3732737898826599
1.0270428657531738,9.587347984313965,1.596245527267456
0.9533310532569885,9.532586097717285,1.588485598564148
0.19999471306800842,2.15252685546875,0.3590150773525238
0.37201055884361267,4.33058500289917,0.7229665517807007
0.3397555947303772,4.305996417999268,0.7195699214935303
0.31336820125579834,4.365772247314453,0.7302314639091492
0.28326693177223206,4.375452041625977,0.7321100831031799
0.3249635398387909,5.631164073944092,0.9425986409187317
0.28705939650535583,5.663957595825195,0.9485164880752563
0.24829323589801788,5.681086540222168,0.9518581032752991
0.20937076210975647,5.717220783233643,0.9584432244300842
0.17099925875663757,5.764618396759033,0.9669620394706726
0.13214628398418427,5.823400497436523,0.9768996238708496
0.09179097414016724,5.839570045471191,0.9795921444892883
0.05108185112476349,5.840049743652344,0.9797001481056213
0.009637794457376003,5.8325419425964355,0.978517472743988
-0.046742070466279984,8.825722694396973,1.480865240097046
-0.10759787261486053,8.7789306640625,1.4732707738876343
-0.11818863451480865,6.15500545501709,1.032881736755371
-0.16064688563346863,6.142584323883057,1.0303370952606201
-0.2041439563035965,6.168376445770264,1.0342516899108887
-0.24574507772922516,6.1168389320373535,1.0252450704574585
-0.16706635057926178,3.544363260269165,0.5938923358917236
-0.1950596421957016,3.604727029800415,0.6038534045219421
-0.21826240420341492,3.5725769996643066,0.5983444452285767
-0.5330192446708679,7.834139347076416,1.3109837770462036
-0.5869008898735046,7.815118312835693,1.3067015409469604
-0.5495530366897583,6.6974687576293945,1.1189547777175903
-0.5908828377723694,6.63616418838501,1.1078962087631226
-0.6255671977996826,6.513226509094238,1.0866211652755737
-0.6565964221954346,6.37095832824707,1.062201976776123
-0.7060233354568481,6.4086222648620605,1.067407488822937
-0.7491959929466248,6.396310329437256,1.0640199184417725
-0.7898591160774231,6.36458158493042,1.057459831237793
-0.8266836404800415,6.305833339691162,1.0464743375778198
-0.8636078238487244,6.250650405883789,1.0361406803131104
-0.9078331589698792,6.244732856750488,1.0340120792388916
-0.9539564847946167,6.257723331451416,1.0349208116531372
-1.0040960311889648,6.29719352722168,1.0396432876586914
-1.0553852319717407,6.340087890625,1.0449556112289429
-1.1079665422439575,6.386377811431885,1.050848126411438
-1.1578843593597412,6.4093499183654785,1.0529016256332397
-1.2139992713928223,6.4583210945129395,1.0592228174209595
-1.267134666442871,6.491825580596924,1.0630624294281006
-1.3237736225128174,6.544086933135986,1.0692931413650513
-1.378769874572754,6.5845723152160645,1.0735737085342407
-1.430298924446106,6.6057634353637695,1.0747307538986206
-1.4666625261306763,6.550980091094971,1.0635170936584473
-1.5026417970657349,6.49988317489624,1.053011417388916
-0.6687561273574829,2.803893566131592,0.45330801606178284
-0.684187114238739,2.7845773696899414,0.4490157961845398
-0.7012123465538025,2.772688150405884,0.4458838403224945
-0.7223110795021057,2.775559186935425,0.4451262056827545
-0.7414290308952332,2.770826816558838,0.44317081570625305
-0.7689366936683655,2.7956831455230713,0.4459419846534729
-1.7385942935943604,6.153352737426758,0.9789106845855713
-1.7719230651855469,6.112457752227783,0.9693053364753723
-1.8063384294509888,6.074984550476074,0.9601062536239624
-1.8362118005752563,6.026442527770996,0.949292778968811
-1.8685957193374634,5.984907150268555,0.9396018385887146
-1.9020894765853882,5.946756362915039,0.9304845333099365
-1.9291270971298218,5.890058994293213,0.9185472130775452
-1.9598418474197388,5.8481950759887695,0.908331573009491
-1.9929914474487305,5.8174214363098145,0.8999308943748474
-2.0168724060058594,5.760918140411377,0.8876293897628784
-2.051725387573242,5.733051300048828,0.8797053694725037
-2.0824692249298096,5.6940178871154785,0.8701207637786865
-2.1137218475341797,5.658613681793213,0.8610078692436218
-1.5364502668380737,4.02953577041626,0.6101393103599548
-1.5466842651367188,3.976515531539917,0.5992265343666077
-1.558031678199768,3.9269962310791016,0.5888929963111877
-1.5710272789001465,3.8807735443115234,0.5790510177612305
-1.5849268436431885,3.8381240367889404,0.5698217153549194
-1.5932869911193848,3.7850208282470703,0.5587424635887146
-1.6109743118286133,3.75716495513916,0.551449179649353
-1.6330398321151733,3.739863157272339,0.545746386051178
-1.6529631614685059,3.714862823486328,0.5388166904449463
-1.6822413206100464,3.7109079360961914,0.5349681973457336
-1.7046986818313599,3.6928513050079346,0.528835117816925
-1.7260509729385376,3.675096035003662,0.5226916074752808
-1.7505486011505127,3.6642186641693115,0.5175610184669495
-1.7829067707061768,3.6665873527526855,0.5141420364379883
-1.7811206579208374,3.599141836166382,0.5009832382202148
-1.7902146577835083,3.5563817024230957,0.49108755588531494
-1.7996450662612915,3.5175728797912598,0.4817592203617096
-1.8230042457580566,3.506277084350586,0.4762420356273651
-1.8549492359161377,3.5078368186950684,0.472236305475235
-1.8520920276641846,3.4441983699798584,0.45952197909355164
-1.168146014213562,2.138554811477661,0.282559871673584
-1.1787410974502563,2.124361038208008,0.2778712511062622
-2.5351386070251465,4.497265815734863,0.5821878910064697
-2.55135440826416,4.453413963317871,0.5702956914901733
-6.032228469848633,10.367605209350586,1.3126885890960693
-1.2362217903137207,2.0934886932373047,0.2619415819644928
-1.2504184246063232,2.085566759109497,0.2577158808708191
-2.9283576011657715,4.808145999908447,0.5863664150238037
-2.9734857082366943,4.809047222137451,0.5785173773765564
-2.9716832637786865,4.73815393447876,0.5618653297424316
-2.990609645843506,4.699846267700195,0.5490487217903137
-3.032850742340088,4.6925482749938965,0.5391955971717834
-3.0409274101257324,4.637529373168945,0.5238932967185974
-3.0622260570526123,4.606081008911133,0.5112173557281494
-3.0893430709838867,4.579862117767334,0.4986393451690674
-3.1039927005767822,4.53359317779541,0.4836128056049347
-3.1179089546203613,4.492232322692871,0.46874624490737915
-2.845059633255005,4.043088436126709,0.41227617859840393
-2.8487579822540283,3.9892053604125977,0.396528035402298
-2.887920379638672,3.99102520942688,0.3861704468727112
-2.9300084114074707,3.995307445526123,0.37556010484695435
-2.9418928623199463,3.953906297683716,0.35970568656921387
-2.463399648666382,3.4765727519989014,-0.20164541900157928
-2.4163074493408203,3.461261749267578,-0.21202929317951202
-2.7988131046295166,4.073381423950195,-0.2626366913318634
-2.2894935607910156,3.38594126701355,-0.22893710434436798
-2.2070610523223877,3.3137097358703613,-0.23365658521652222
-2.203301191329956,3.362154483795166,-0.24673721194267273
-2.2062549591064453,3.4199061393737793,-0.2603524923324585
-2.158748149871826,3.398620367050171,-0.2677156925201416
-2.1078925132751465,3.3745596408843994,-0.2748147249221802
-1.2692159414291382,2.0645673274993896,-0.1733015477657318
-1.2424434423446655,2.0530314445495605,-0.17730110883712769
-2.079745054244995,3.4942221641540527,-0.31012147665023804
-2.095499277114868,3.579037666320801,-0.32599279284477234
-1.2457044124603271,2.1626362800598145,-0.20191937685012817
-1.1971505880355835,2.1136276721954346,-0.20202551782131195
-2.573101758956909,4.621270179748535,-0.45185738801956177
-2.55352520942688,4.662081718444824,-0.46554720401763916
-1.8227291107177734,3.3842968940734863,-0.3449208736419678
-1.788285493850708,3.3797810077667236,-0.35144710540771484
-1.7692837715148926,3.402087688446045,-0.36051079630851746
-1.7452278137207031,3.4136545658111572,-0.36834099888801575
-1.7448571920394897,3.4740114212036133,-0.3814546465873718
-1.7916120290756226,3.6322171688079834,-0.40566954016685486
-1.76533842086792,3.6441500186920166,-0.41375553607940674
-1.746349811553955,3.6696064472198486,-0.4232463538646698
-1.7131075859069824,3.6671981811523438,-0.4293763041496277
-2.295008897781372,5.006025791168213,-0.5948565006256104
-2.2691404819488525,5.042135238647461,-0.6076833605766296
-2.23335862159729,5.056840419769287,-0.6179655194282532
-2.1343164443969727,4.92944860458374,-0.6105479001998901
-2.0106303691864014,4.736382961273193,-0.5943081378936768
-1.948913812637329,4.681220054626465,-0.5947480797767639
-1.8762590885162354,4.596752643585205,-0.5911986231803894
-1.8373491764068604,4.594644546508789,-0.5978182554244995
-1.8206406831741333,4.6501665115356445,-0.6121243238449097
-1.3269909620285034,3.460137128829956,-0.4605464041233063
-0.9183560609817505,2.4454128742218018,-0.3290608525276184
-2.0100409984588623,5.470130920410156,-0.7436572313308716
-0.9880021214485168,2.748854875564575,-0.3775106966495514
-0.9002054929733276,2.5615522861480713,-0.3553372323513031
-0.8532360792160034,2.4829890727996826,-0.34781360626220703
-0.8257004022598267,2.459076404571533,-0.347608357667923
-0.8105669617652893,2.4717068672180176,-0.35252121090888977
-0.8060652613639832,2.5173659324645996,-0.36219605803489685
-0.7903592586517334,2.529879331588745,-0.3672178089618683
-0.7747023701667786,2.5422613620758057,-0.37204599380493164
-0.7720254063606262,2.599076747894287,-0.3833545744419098
-0.757908284664154,2.618786096572876,-0.3892732262611389
-0.7552906274795532,2.6792967319488525,-0.4013242721557617
-0.7426261901855469,2.7063376903533936,-0.4083920121192932
-0.7131673097610474,2.6737310886383057,-0.4062806963920593
-0.7107218503952026,2.7417707443237305,-0.41946184635162354
-0.6773134469985962,2.689955949783325,-0.41431334614753723
-0.6657792329788208,2.724125385284424,-0.42239877581596375
-0.6509903073310852,2.7470524311065674,-0.42850494384765625
-0.6381335258483887,2.78126859664917,-0.43643590807914734
-0.6219300031661987,2.800259590148926,-0.44198232889175415
-0.6055562496185303,2.8191380500793457,-0.4475518465042114
-0.5873417854309082,2.830392360687256,-0.45177918672561646
-0.5742052793502808,2.868061065673828,-0.46006983518600464
-0.5580559372901917,2.8943591117858887,-0.46664080023765564
-0.5420857667922974,2.920475482940674,-0.4731827974319458
-0.5216897130012512,2.923720121383667,-0.47606298327445984
-0.5011947751045227,2.926900863647461,-0.4785308539867401
-0.4838007688522339,2.9489622116088867,-0.48411762714385986
-0.46639129519462585,2.974768877029419,-0.4904031753540039
-0.7491615414619446,5.005775451660156,-0.8286402821540833
-0.7016314268112183,4.9224958419799805,-0.8178629875183105
-0.6568270921707153,4.850341796875,-0.8084931969642639
-0.6164621114730835,4.804581165313721,-0.8034968972206116
-0.5607256293296814,4.62460470199585,-0.7759506106376648
-0.5152608752250671,4.516918659210205,-0.7604542970657349
-0.4853172302246094,4.535333156585693,-0.7654057741165161
-0.4513450562953949,4.515213489532471,-0.7638803124427795
-0.41735658049583435,4.491006374359131,-0.7616775035858154
-0.38141998648643494,4.439688682556152,-0.7548794150352478
-0.34813031554222107,4.418904781341553,-0.7529568076133728
-0.3115161955356598,4.340298175811768,-0.7407538294792175
-0.27999773621559143,4.322890281677246,-0.7390039563179016
-0.24813905358314514,4.2937211990356445,-0.7352622747421265
-0.22021707892417908,4.333535671234131,-0.7433717250823975
-0.18779759109020233,4.296372890472412,-0.7376561164855957
-0.1561712920665741,4.251270771026611,-0.7305253744125366
-0.12395569682121277,4.163613319396973,-0.7160962820053101
-0.09426205605268478,4.129601955413818,-0.7109081149101257
-0.06568501144647598,4.137765884399414,-0.7127510905265808
-0.0357230082154274,4.057276725769043,-0.6989004611968994
-0.007511643227189779,4.049715518951416,-0.6976457834243774
0.02065710537135601,4.041958808898926,-0.6963909864425659
0.04910348355770111,4.068648815155029,-0.701105535030365
0.0774327963590622,4.068292617797852,-0.7006171345710754
0.10485707968473434,4.033125877380371,-0.694038450717926
0.13313071429729462,4.024694919586182,-0.6920922994613647
0.16232016682624817,4.0545525550842285,-0.6967703700065613
0.19423949718475342,4.134226322174072,-0.7098448872566223
0.223757803440094,4.148384094238281,-0.7111609578132629
0.25324785709381104,4.158487796783447,-0.7118093371391296
0.28266727924346924,4.156823635101318,-0.7104544639587402
0.30953288078308105,4.128105640411377,-0.7045361995697021
0.33944252133369446,4.141518592834473,-0.705344557762146
0.371962308883667,4.181602478027344,-0.7105016112327576
0.40649333596229553,4.236778259277344,-0.7182196974754333
0.43372946977615356,4.207325458526611,-0.711581289768219
0.47183236479759216,4.2849884033203125,-0.7229862809181213
0.48004212975502014,4.098395347595215,-0.6893258690834045
0.520376443862915,4.191004276275635,-0.7027037143707275
0.5630908012390137,4.29089879989624,-0.7172285914421082
0.5972062349319458,4.313995361328125,-0.7188442945480347
0.6222144961357117,4.275942802429199,-0.709915041923523
0.729809045791626,4.782758712768555,-0.79092937707901
0.7563866972923279,4.736320495605469,-0.7801752686500549
0.7868318557739258,4.716350555419922,-0.773852527141571
0.8269332051277161,4.753187656402588,-0.7767942547798157
0.8604803681373596,4.747981548309326,-0.7721830010414124
0.893436074256897,4.742626667022705,-0.767647922039032
0.9309130907058716,4.759739398956299,-0.7667568325996399
0.9564736485481262,4.716037750244141,-0.7561094164848328
0.9892756938934326,4.710056781768799,-0.7511668801307678
1.018412470817566,4.684932231903076,-0.7429014444351196
1.049271821975708,4.671022415161133,-0.7365403175354004
1.0784227848052979,4.649341106414795,-0.7289865016937256
1.1072808504104614,4.627493381500244,-0.7213776111602783
1.1319714784622192,4.590585231781006,-0.7109982371330261
1.1577173471450806,4.557157039642334,-0.7011673450469971
0.9656763076782227,3.6937060356140137,-0.5646059513092041
0.9865092635154724,3.6688969135284424,-0.5571314692497253
1.0078591108322144,3.647794246673584,-0.5499704480171204
1.0331135988235474,3.6414754390716553,-0.5449613332748413
1.061047911643982,3.6422550678253174,-0.5409431457519531
1.0865763425827026,3.6354737281799316,-0.5358607172966003
1.1119284629821777,3.6285645961761475,-0.5306586623191833
1.1324232816696167,3.6067965030670166,-0.5230628252029419
1.1573786735534668,3.5996506214141846,-0.5176355838775635
1.1685190200805664,3.5479776859283447,-0.5057517290115356
1.198340892791748,3.555135726928711,-0.5023923516273499
1.217849850654602,3.5329315662384033,-0.4945719242095947
1.2396808862686157,3.5179195404052734,-0.4878111481666565
1.2668991088867188,3.5172483921051025,-0.48300689458847046
1.2915936708450317,3.5090548992156982,-0.4771636128425598
1.3136295080184937,3.493417263031006,-0.47004401683807373
1.3307764530181885,3.466984987258911,-0.4615361988544464
1.3520625829696655,3.451223611831665,-0.45446521043777466
1.3734171390533447,3.4352381229400635,-0.44736069440841675
1.3943268060684204,3.419239044189453,-0.4401796758174896
1.723645806312561,4.144558906555176,-0.527104377746582
1.7583709955215454,4.147794723510742,-0.5211251378059387
1.787507176399231,4.136312961578369,-0.5132004618644714
1.8194149732589722,4.1318511962890625,-0.5060619711875916
1.8350125551223755,4.091921329498291,-0.4944811761379242
1.8701590299606323,4.094059944152832,-0.48787301778793335
1.895646095275879,4.074742794036865,-0.47870659828186035
1.9239777326583862,4.0624213218688965,-0.4703241288661957
1.9483270645141602,4.043150901794434,-0.4610418975353241
1.9727150201797485,4.023619651794434,-0.45171990990638733
1.9928297996520996,3.9929726123809814,-0.4409283995628357
2.020519971847534,3.9799914360046387,-0.43218663334846497
2.0440046787261963,3.960179567337036,-0.4226519763469696
2.0713090896606445,3.946911096572876,-0.41374123096466064
2.0991151332855225,3.9331412315368652,-0.40463337302207947
2.129840612411499,3.926378011703491,-0.3961753845214844
2.145596742630005,3.8920814990997314,-0.38481205701828003
2.128873825073242,3.7998721599578857,-0.36787116527557373
2.167132616043091,3.805980682373047,-0.36049267649650574
2.184908151626587,3.7787024974823,-0.3498654067516327
2.194600820541382,3.7378551959991455,-0.3380545973777771
2.2332923412323,3.7429943084716797,-0.3299410343170166
2.2508628368377686,3.7150964736938477,-0.31902918219566345
2.271562099456787,3.694157361984253,-0.3087429404258728
2.305380344390869,3.692371129989624,-0.29973381757736206
2.3144524097442627,3.650646924972534,-0.28737106919288635
2.3390936851501465,3.6357128620147705,-0.27700087428092957
2.3723464012145996,3.633528232574463,-0.2675076723098755
2.389289617538452,3.604496717453003,-0.25572583079338074
2.4042649269104004,3.5764925479888916,-0.2440822273492813
2.4371302127838135,3.5738165378570557,-0.23393245041370392
2.4625489711761475,3.557100534439087,-0.22222638130187988
2.481088876724243,3.5353622436523438,-0.21043159067630768
2.5231215953826904,3.544571876525879,-0.1999400109052658
2.5245468616485596,3.4962127208709717,-0.18580353260040283
2.5654044151306152,3.5057482719421387,-0.1747729629278183
2.1848607063293457,2.943101167678833,-0.1361415535211563
2.7984118461608887,3.931244134902954,0.41966935992240906
2.764587640762329,3.944164514541626,0.43233516812324524
2.7222180366516113,3.943791627883911,0.44293466210365295
2.7279961109161377,4.018512725830078,0.4618644118309021
2.6898257732391357,4.024099349975586,0.47219228744506836
2.63716459274292,4.006372928619385,0.47932541370391846
2.609541177749634,4.032307147979736,0.4915163815021515
2.591848134994507,4.070042610168457,0.5047120451927185
2.5670206546783447,4.0936384201049805,0.5158026814460754
2.5420708656311035,4.12158727645874,0.5272089838981628
2.5061748027801514,4.133133888244629,0.5364654660224915
2.4739015102386475,4.146764755249023,0.5455984473228455
2.4541714191436768,4.1797614097595215,0.557101845741272
2.4338059425354004,4.217331886291504,0.5689198970794678
2.39772367477417,4.227797985076904,0.577129602432251
2.3713629245758057,4.250359535217285,0.5865615606307983
2.2754030227661133,4.1471638679504395,0.5785794854164124
2.2476887702941895,4.169944763183594,0.5875017046928406
2.219715118408203,4.192549705505371,0.596443235874176
2.2002618312835693,4.227935314178467,0.6069856286048889
2.1668379306793213,4.235384464263916,0.6134679317474365
2.145716428756714,4.271073341369629,0.6238986253738403
2.113719940185547,4.285945892333984,0.6310874223709106
2.085355281829834,4.307374477386475,0.6392274498939514
2.054928779602051,4.320963382720947,0.6460165977478027
2.030924081802368,4.3483710289001465,0.6549251079559326
1.9889439344406128,4.3412322998046875,0.6581904888153076
1.9718846082687378,4.390460968017578,0.6701102256774902
2.0054006576538086,4.552395343780518,0.6992761492729187
1.9518665075302124,4.5157060623168945,0.6979178190231323
1.9411622285842896,4.578208923339844,0.7119084596633911
1.9148213863372803,4.609306335449219,0.7206173539161682
1.8788208961486816,4.618979454040527,0.7260926365852356
1.8553073406219482,4.656688213348389,0.7359080910682678
1.8281381130218506,4.683115482330322,0.7438949942588806
1.7924073934555054,4.6877264976501465,0.7484591007232666
1.750106930732727,4.67809534072876,0.7502933740615845
1.3490763902664185,3.6890079975128174,0.5943154692649841
1.3142931461334229,3.676286220550537,0.5948798656463623
1.2745014429092407,3.6446752548217773,0.5922666192054749
1.6436243057250977,4.807190895080566,0.784500777721405
1.6094611883163452,4.817941665649414,0.7893657088279724
1.5702446699142456,4.817923069000244,0.7922289371490479
3.048391580581665,9.586967468261719,1.5820732116699219
1.5271207094192505,4.9232587814331055,0.8153402805328369
1.4948068857192993,4.940480709075928,0.8210699558258057
1.455828070640564,4.935274600982666,0.8231038451194763
1.4342659711837769,4.99308967590332,0.8352373838424683
1.3933801651000977,4.987959384918213,0.8368097543716431
1.3462460041046143,4.956283092498779,0.8339007496833801
1.2866277694702148,4.871822357177734,0.8220361471176147
1.2631187438964844,4.921127796173096,0.8327332139015198
1.2342698574066162,4.951638221740723,0.8403252363204956
1.2018015384674072,4.974911689758301,0.8462168574333191
1.1757335662841797,5.024124622344971,0.8565173745155334
1.1397117376327515,5.031858444213867,0.8598031401634216
1.106041669845581,5.04670524597168,0.8643091917037964
1.0771719217300415,5.0839033126831055,0.8726913332939148
1.0410608053207397,5.090857028961182,0.8759710788726807
1.004866123199463,5.097665309906006,0.8786408305168152
1.7934587001800537,9.451736450195312,1.6318986415863037
1.733098030090332,9.50129508972168,1.643325686454773
1.6403989791870117,9.364479064941406,1.622530221939087
1.5681287050247192,9.340883255004883,1.6214081048965454
1.508388638496399,9.384992599487305,1.6320682764053345
1.4333511590957642,9.337657928466797,1.625990629196167
1.3626147508621216,9.316494941711426,1.6242754459381104
1.2997750043869019,9.348161697387695,1.6318480968475342
1.2243669033050537,9.291712760925293,1.624131202697754
1.1531009674072266,9.245918273925781,1.6182693243026733
0.2617255747318268,2.2244155406951904,0.3898632526397705
0.2419465184211731,2.1878182888031006,0.38385578989982605
0.9581499695777893,9.25887680053711,1.6256893873214722
0.8915848731994629,9.249648094177246,1.625352382659912
0.3882752060890198,4.353662967681885,0.7656803727149963
0.35260942578315735,4.290879249572754,0.7553010582923889
0.32706594467163086,4.350587368011475,0.7665191292762756
0.29618576169013977,4.344903945922852,0.7661991715431213
0.346946656703949,5.675383567810059,1.001116156578064
0.30562883615493774,5.662217617034912,0.9991428852081299
0.26666003465652466,5.6794633865356445,1.0025795698165894
0.22787490487098694,5.7002739906311035,1.0066940784454346
0.18900419771671295,5.724661350250244,1.0114917755126953
0.15050683915615082,5.775698184967041,1.0210540294647217
0.11074186116456985,5.838108062744141,1.0321924686431885
0.0701560452580452,5.8464250564575195,1.0335845947265625
0.029409438371658325,5.8313798904418945,1.030896782875061
-0.017221875488758087,8.95102596282959,1.5824350118637085
-0.07883505523204803,8.877598762512207,1.5695631504058838
-0.14015278220176697,8.780655860900879,1.5526108741760254
-0.19767223298549652,8.625678062438965,1.5252231359481812
-0.2580946385860443,8.639652252197266,1.526943325996399
-0.22817455232143402,6.196787357330322,1.0947144031524658
-0.2663038969039917,6.083728790283203,1.0743170976638794
-0.1818419098854065,3.5845694541931152,0.632774293422699
-0.20720449090003967,3.5832674503326416,0.6323516368865967
-0.2343120276927948,3.6163671016693115,0.6380329132080078
-0.5629761815071106,7.8473968505859375,1.3834940195083618
-0.615572452545166,7.824477195739746,1.3782628774642944
-0.5711360573768616,6.6703104972839355,1.1739978790283203
-0.6106374859809875,6.585949897766113,1.1582382917404175
-0.6396142840385437,6.413351058959961,1.1270614862442017
-0.6801089644432068,6.370753765106201,1.1188116073608398
-0.732072114944458,6.4350199699401855,1.1291329860687256
-0.771689236164093,6.392033576965332,1.1201200485229492
-0.809083104133606,6.329622745513916,1.1077535152435303
-0.848477840423584,6.293793678283691,1.1001359224319458
-0.88628089427948,6.24622106552124,1.090518832206726
-0.931404709815979,6.2517266273498535,1.090227723121643
-0.982060968875885,6.291128635406494,1.095887541770935
-1.0321224927902222,6.322648048400879,1.0994731187820435
-1.0851513147354126,6.372887134552002,1.1063034534454346
-1.136157751083374,6.4075469970703125,1.1104551553726196
-1.1902060508728027,6.453099727630615,1.1165021657943726
-1.2460169792175293,6.501935005187988,1.1231253147125244
-1.2987383604049683,6.531436443328857,1.1264399290084839
-1.352976679801941,6.564331531524658,1.1298284530639648
-1.4122257232666016,6.623445510864258,1.1374748945236206
-1.4523769617080688,6.5917816162109375,1.1295710802078247
-1.4890931844711304,6.544769287109375,1.1190931797027588
-1.523213505744934,6.48616361618042,1.106684923171997
-0.6797802448272705,2.805346727371216,0.4776241183280945
-0.6916320323944092,2.7710013389587402,0.47064805030822754
-0.7104501128196716,2.766582727432251,0.46860602498054504
-0.7332050800323486,2.776937961578369,0.4690791070461273
-0.7541723251342773,2.779656171798706,0.4682697653770447
-0.771820604801178,2.7671639919281006,0.4648709297180176
-1.7606785297393799,6.146969318389893,1.0298742055892944
-1.7921910285949707,6.0984954833984375,1.018728256225586
-1.82564115524292,6.061256408691406,1.0091114044189453
-1.855316400527954,6.012756824493408,0.9976959824562073
-1.887769341468811,5.971175193786621,0.9874285459518433
-1.916406512260437,5.918334007263184,0.9753668904304504
-1.948039174079895,5.87636137008667,0.9651829600334167
-1.978413462638855,5.834534168243408,0.9547380208969116
-2.006446599960327,5.789156913757324,0.9434780478477478
-2.0377652645111084,5.7545905113220215,0.9340645670890808
-2.0634772777557373,5.701243877410889,0.9215574264526367
-2.0979747772216797,5.673141956329346,0.9132072925567627
-1.5219697952270508,4.029451847076416,0.6459400057792664
-1.5436272621154785,4.005381107330322,0.6390442252159119
-1.554979681968689,3.9560866355895996,0.6281326413154602
-1.5619001388549805,3.8958628177642822,0.6155291199684143
-1.5803139209747314,3.8641252517700195,0.6074497699737549
-1.5940377712249756,3.8215479850769043,0.5977222323417664
-1.6082267761230469,3.7827553749084473,0.5884955525398254
-1.619733214378357,3.740713596343994,0.5785830616950989
-1.64519202709198,3.730360507965088,0.5735730528831482
-1.6677453517913818,3.7126305103302,0.567417562007904
-1.690626859664917,3.6945457458496094,0.5611818432807922
-1.7229219675064087,3.6974751949310303,0.5580793023109436
-1.7442790269851685,3.67970609664917,0.5515576601028442
-1.7659087181091309,3.661612033843994,0.5449585318565369
-1.767087697982788,3.601581573486328,0.532173752784729
-1.7837283611297607,3.5725715160369873,0.5239689350128174
-1.8014408349990845,3.5471343994140625,0.5162699818611145
-1.8177944421768188,3.522200584411621,0.5084226727485657
-1.8482900857925415,3.5246474742889404,0.5045502185821533
-1.869367241859436,3.5056185722351074,0.49736303091049194
-1.1734001636505127,2.1640892028808594,0.3042602837085724
-1.1824967861175537,2.146411180496216,0.2989087402820587
-2.506917953491211,4.4812846183776855,0.6178511381149292
-2.517554998397827,4.431913375854492,0.6048362255096436
-5.973773956298828,10.345135688781738,1.396134614944458
-6.046004772186279,10.305891036987305,1.3752973079681396
-1.2390048503875732,2.08109974861145,0.274402916431427
-2.892754554748535,4.788272380828857,0.6237007975578308
-2.9384469985961914,4.789107322692871,0.6156068444252014
-2.976799726486206,4.775923728942871,0.6054621338844299
-3.0036699771881104,4.751269817352295,0.5936259627342224
-3.0177812576293945,4.706803798675537,0.5793911814689636
-3.0234029293060303,4.644474983215332,0.5623801350593567
-3.038408041000366,4.598871231079102,0.5474233031272888
-3.077256917953491,4.593132019042969,0.536821186542511
-3.090376138687134,4.548179626464844,0.5215377807617188
-3.102625846862793,4.498846530914307,0.5052933692932129
-3.1697328090667725,4.534212589263916,0.4982604384422302
-2.8522355556488037,4.026305675506592,0.4325091540813446
-2.922236919403076,4.063835144042969,0.42508232593536377
-2.9168310165405273,4.001840591430664,0.4072421193122864
-2.9215481281280518,3.956256628036499,0.3910765051841736
-2.9688212871551514,4.1561174392700195,-0.24172508716583252
-2.4272804260253906,3.4534826278686523,-0.2135355919599533
-1.3390562534332275,1.9337239265441895,-0.1259913295507431
-2.8797173500061035,4.224833965301514,-0.28915292024612427
-2.2354867458343506,3.3320086002349854,-0.23864169418811798
-2.2312259674072266,3.376192092895508,-0.25189313292503357
-2.2221760749816895,3.4185385704040527,-0.26535436511039734
-2.171875,3.394463062286377,-0.27313628792762756
-2.1477572917938232,3.408921718597412,-0.28357911109924316
-1.268358588218689,2.046478509902954,-0.17575734853744507
-1.2351008653640747,2.025240659713745,-0.1792219877243042
-2.0922555923461914,3.486090660095215,-0.317400723695755
-2.0821759700775146,3.5274157524108887,-0.3299170434474945
-2.1108031272888184,3.6360130310058594,-0.34895896911621094
-1.1892493963241577,2.08178973197937,-0.2046375870704651
-1.185547947883606,2.1101646423339844,-0.21227902173995972
-2.5687263011932373,4.652379035949707,-0.4787980616092682
-1.8338007926940918,3.3772687911987305,-0.35497334599494934
-1.8042680025100708,3.3790106773376465,-0.3624386191368103
-1.7757331132888794,3.3843955993652344,-0.3701881766319275
-1.7545338869094849,3.403254985809326,-0.37937378883361816
-1.7494038343429565,3.4529550075531006,-0.3919815123081207
-1.8008277416229248,3.6175038814544678,-0.41784095764160156
-1.781219482421875,3.6435139179229736,-0.4279805123806
-1.7550201416015625,3.6552133560180664,-0.4363757371902466
-1.7357865571975708,3.680572748184204,-0.4463372826576233
-2.3159244060516357,5.002500534057617,-0.6158779859542847
-2.2820959091186523,5.0251593589782715,-0.6279842257499695
-2.2524819374084473,5.054136753082275,-0.6406340599060059
-2.100146532058716,4.801966667175293,-0.6171374320983887
-1.9735392332077026,4.693343162536621,-0.6191561222076416
-1.899644136428833,4.609442234039307,-0.6158897280693054
-0.9698671102523804,2.400575876235962,-0.32470184564590454
-0.9640735983848572,2.43564510345459,-0.33331063389778137
-0.93534255027771,2.412968873977661,-0.33399659395217896
-0.9154421091079712,2.4116692543029785,-0.3375556766986847
-0.9035190939903259,2.432044267654419,-0.3442157506942749
-0.878208339214325,2.4159696102142334,-0.3455139994621277
-0.8608779311180115,2.4215800762176514,-0.3498278856277466
-0.8512775897979736,2.4489448070526123,-0.3573046624660492
-0.8390239477157593,2.4688942432403564,-0.36373284459114075
-0.8236314654350281,2.4815938472747803,-0.3690855801105499
-0.8106937408447266,2.5015063285827637,-0.37537381052970886
-0.8010669350624084,2.532388925552368,-0.38337045907974243
-0.7855713963508606,2.544710636138916,-0.38857731223106384
-0.7698892951011658,2.556955099105835,-0.39374175667762756
-0.7582637667655945,2.584002733230591,-0.4010268747806549
-0.7459526062011719,2.6110830307006836,-0.40844908356666565
-0.7431469559669495,2.6714558601379395,-0.4211023449897766
-0.7324458956718445,2.7057998180389404,-0.42977985739707947
-0.7093663811683655,2.6953916549682617,-0.43107426166534424
-0.6960191130638123,2.722194194793701,-0.43832775950431824
-0.6764975190162659,2.726510524749756,-0.4420461058616638
-0.6573686599731445,2.7305943965911865,-0.4456838369369507
-0.6460432410240173,2.768395185470581,-0.4546610713005066
-0.6281852126121521,2.7798638343811035,-0.45922333002090454
-0.6069456338882446,2.7761354446411133,-0.4612920582294464
-0.59356290102005,2.8099987506866455,-0.4696792960166931
-0.5808295607566833,2.8475265502929688,-0.4786386787891388
-0.5593240857124329,2.843475580215454,-0.4803224802017212
-0.8598931431770325,4.539040565490723,-0.7705467343330383
-0.8308993577957153,4.559304714202881,-0.7778194546699524
-0.7791903614997864,4.454255104064941,-0.763738751411438
-0.7383856773376465,4.4019389152526855,-0.7579976916313171
-0.6958816647529602,4.33411169052124,-0.7493656873703003
-0.6520972847938538,4.250695705413818,-0.737955629825592
-0.6140376329421997,4.197369575500488,-0.7316960692405701
-0.5735921263694763,4.124773025512695,-0.7218525409698486
-0.5381518602371216,4.078576564788818,-0.7160689830780029
-0.5048167109489441,4.043553352355957,-0.7122325897216797
-0.4743741750717163,4.0273661613464355,-0.7117053270339966
-0.35105109214782715,3.1697604656219482,-0.5620031356811523
-0.3245536983013153,3.129729747772217,-0.5563069581985474
-0.3038047254085541,3.1469664573669434,-0.560734748840332
-0.28562453389167786,3.190845489501953,-0.569938063621521
-0.26531651616096497,3.215447187423706,-0.5757511258125305
-0.24496139585971832,3.2437844276428223,-0.5820793509483337
-0.22447149455547333,3.2758922576904297,-0.5887460112571716
-0.2040734440088272,3.323237657546997,-0.5982187986373901
-0.18134932219982147,3.332043170928955,-0.6007817387580872
-0.15908536314964294,3.35221004486084,-0.6054291725158691
-0.13728126883506775,3.391521453857422,-0.6130640506744385
-0.1188226118683815,3.545954704284668,-0.6414766311645508
-0.0926060900092125,3.504321575164795,-0.6344754695892334
-0.06752210110425949,3.466336488723755,-0.6281431317329407
-0.04316070303320885,3.4435887336730957,-0.6243662238121033
-0.01920008659362793,3.4361183643341064,-0.6229722499847412
0.004702609498053789,3.4438562393188477,-0.6243655681610107
0.029275672510266304,3.466797351837158,-0.6285462379455566
0.053407248109579086,3.4665095806121826,-0.6285459399223328
0.07769978046417236,3.4738364219665527,-0.6294048428535461
0.10254625976085663,3.4963784217834473,-0.632949709892273
0.12784959375858307,3.5225844383239746,-0.6371811032295227
0.15219338238239288,3.5178844928741455,-0.6358494162559509
0.18210247159004211,3.6167008876800537,-0.6530032157897949
0.20853416621685028,3.638612747192383,-0.655854344367981
0.23185445368289948,3.606616497039795,-0.6490210890769958
0.2629396915435791,3.6895265579223633,-0.6628818511962891
0.18657426536083221,2.384451389312744,-0.42774084210395813
0.3195439577102661,3.743530035018921,-0.6699473261833191
0.34268468618392944,3.7109410762786865,-0.6624887585639954
0.37000954151153564,3.724130392074585,-0.6632378697395325
0.4011666774749756,3.7715485095977783,-0.6700891852378845
0.43084245920181274,3.79964542388916,-0.6732781529426575
0.45676323771476746,3.7893474102020264,-0.6692084074020386
0.4820864200592041,3.778920888900757,-0.6651972532272339
0.5202438831329346,3.8636608123779297,-0.6779149174690247
0.5569053292274475,3.9290130138397217,-0.687175452709198
0.5893316268920898,3.9598922729492188,-0.6898168325424194
0.618545651435852,3.9638383388519287,-0.6876270174980164
0.6554408669471741,4.0170392990112305,-0.6940171122550964
0.7060698866844177,4.145856857299805,-0.7133684754371643
0.7476796507835388,4.213569164276123,-0.721840500831604
0.7888287305831909,4.2734174728393555,-0.7284830212593079
0.830085039138794,4.329134941101074,-0.7343552112579346
0.88343745470047,4.437283039093018,-0.7489211559295654
0.9136219620704651,4.428006649017334,-0.7436819672584534
0.9637190103530884,4.5128984451293945,-0.7536066174507141
1.0066797733306885,4.559696674346924,-0.7570335268974304
1.0530861616134644,4.617371559143066,-0.7621663808822632
1.0895007848739624,4.6256914138793945,-0.7590256333351135
1.1217507123947144,4.618932723999023,-0.7531853318214417
1.150100588798523,4.597043991088867,-0.7446233630180359
1.1782335042953491,4.574962615966797,-0.736093282699585
1.2082304954528809,4.560129642486572,-0.7287677526473999
1.238635540008545,4.544966220855713,-0.7212812304496765
1.2628724575042725,4.51127815246582,-0.7105174660682678
1.2877658605575562,4.481164932250977,-0.7004091739654541
1.3125369548797607,4.45084285736084,-0.6903145909309387
1.0908946990966797,3.606560707092285,-0.5550263524055481
1.1072300672531128,3.570099115371704,-0.5447559356689453
1.1390188932418823,3.5853028297424316,-0.5423815846443176
1.159214973449707,3.563432216644287,-0.5343948006629944
1.186705470085144,3.5633950233459473,-0.52967768907547
1.2115731239318848,3.5558996200561523,-0.5237181782722473
1.231102705001831,3.5336995124816895,-0.5154411792755127
1.253474235534668,3.518516778945923,-0.5081420540809631
1.2781814336776733,3.5105082988739014,-0.5019469857215881
1.3000558614730835,3.495094060897827,-0.4946715831756592
1.3228141069412231,3.483311653137207,-0.48770642280578613
1.3440927267074585,3.4677484035491943,-0.4802461862564087
1.3688507080078125,3.4589684009552,-0.4735867977142334
1.3902637958526611,3.442953109741211,-0.46605443954467773
1.408080816268921,3.4198527336120605,-0.45736634731292725
1.4286175966262817,3.4038121700286865,-0.4496850073337555
1.4616388082504272,3.4159913063049316,-0.445625901222229
1.483002781867981,3.399221658706665,-0.4376673996448517
1.835720181465149,4.130906105041504,-0.524746835231781
1.8449037075042725,4.076836109161377,-0.5107957124710083
1.8734289407730103,4.0648908615112305,-0.502091109752655
1.9053682088851929,4.059675216674805,-0.4941793978214264
1.9370912313461304,4.054343223571777,-0.4859406054019928
1.9580645561218262,4.028054237365723,-0.4753255546092987
1.9828054904937744,4.008336067199707,-0.46538469195365906
2.005746603012085,3.984914779663086,-0.45503300428390503
2.0382132530212402,3.982560396194458,-0.446944922208786
2.0563464164733887,3.952361822128296,-0.435761034488678
2.080954074859619,3.9317259788513184,-0.42530882358551025
2.093705415725708,3.890676736831665,-0.41283756494522095
2.135033369064331,3.904668092727661,-0.40611177682876587
2.1541359424591064,3.877366781234741,-0.3950277268886566
2.145081043243408,3.798694372177124,-0.3786396086215973
2.171661138534546,3.7845470905303955,-0.36865782737731934
2.197136640548706,3.7707622051239014,-0.35883426666259766
2.199465036392212,3.716158628463745,-0.34498468041419983
2.2296957969665527,3.7081284523010254,-0.33538615703582764
2.270813226699829,3.7205650806427,-0.32751306891441345
2.2759318351745605,3.6725964546203613,-0.31410887837409973
2.305911064147949,3.6639630794525146,-0.303958535194397
2.3432302474975586,3.6688616275787354,-0.2948722243309021
2.3463399410247803,3.6213605403900146,-0.2816086709499359
2.3760712146759033,3.612123489379883,-0.27082106471061707
2.422748327255249,3.6288135051727295,-0.26165834069252014
2.420421600341797,3.5747900009155273,-0.24758979678153992
