X,Y,Z
-1.988653540611267,3.9424452781677246,-0.35286712646484375
-1.9643518924713135,3.9626760482788086,-0.3604503571987152
-1.9320698976516724,3.9692327976226807,-0.3666459023952484
-1.9030792713165283,3.982579231262207,-0.3734765350818634
-1.8781458139419556,4.0023722648620605,-0.38077807426452637
-1.8531972169876099,4.021928787231445,-0.38800951838493347
-1.8299756050109863,4.0489983558654785,-0.39593806862831116
-1.7975090742111206,4.0543718338012695,-0.40168389678001404
-1.7720375061035156,4.07343053817749,-0.4086681306362152
-1.7433395385742188,4.085169792175293,-0.4148711860179901
-1.719916582107544,4.111335277557373,-0.4223974645137787
-1.692714810371399,4.130376815795898,-0.4293281137943268
-1.6650477647781372,4.145175933837891,-0.43566054105758667
-1.6415455341339111,4.170631408691406,-0.44309690594673157
-1.6087960004806519,4.174435138702393,-0.4480236768722534
-1.3003381490707397,3.447115182876587,-0.3737015724182129
-1.2674604654312134,3.4339866638183594,-0.37600597739219666
-1.2486205101013184,3.4569091796875,-0.38217994570732117
-1.2212597131729126,3.457948684692383,-0.3857101798057556
-1.1964693069458008,3.4661195278167725,-0.39004239439964294
-1.1718863248825073,3.4740240573883057,-0.39432817697525024
-1.1544090509414673,3.503920555114746,-0.40117010474205017
-1.1319245100021362,3.5189402103424072,-0.4060874283313751
-1.1091605424880981,3.53385853767395,-0.4109433591365814
-1.0885676145553589,3.55603289604187,-0.41667672991752625
-1.063686728477478,3.5630908012390137,-0.420621395111084
-1.0418776273727417,3.5812015533447266,-0.42579028010368347
-1.015992283821106,3.5881876945495605,-0.42951253056526184
-0.9925712943077087,3.6023483276367188,-0.43407124280929565
-0.9693109393119812,3.6162734031677246,-0.43860018253326416
-0.9479734301567078,3.637523651123047,-0.4440440237522125
-0.9222798347473145,3.6437182426452637,-0.44735389947891235
-0.8997567892074585,3.6649105548858643,-0.4525567889213562
-0.8757052421569824,3.678297996520996,-0.4567830264568329
-0.8534866571426392,3.6990301609039307,-0.46193644404411316
-0.8292098045349121,3.7121036052703857,-0.46600547432899475
-0.8046327829360962,3.7250750064849854,-0.4698759913444519
-0.7786431908607483,3.734178304672241,-0.4733302593231201
-0.7571069598197937,3.761962652206421,-0.47913041710853577
-0.7308509945869446,3.766780376434326,-0.4820374846458435
-0.7072182297706604,3.786734104156494,-0.48653823137283325
-0.6819471120834351,3.7989184856414795,-0.4900294244289398
-0.6587692499160767,3.8262698650360107,-0.49554625153541565
-0.6333339810371399,3.8380911350250244,-0.4990469813346863
-0.6119382977485657,3.876553535461426,-0.5059245228767395
-0.5835516452789307,3.872819185256958,-0.5070185661315918
-0.5596815943717957,3.899548292160034,-0.5121303200721741
-0.5308977961540222,3.895472764968872,-0.5132507681846619
-0.5068034529685974,3.9218392372131348,-0.5183759331703186
-0.475665807723999,3.894289970397949,-0.5160858631134033
-0.4564319849014282,3.966552972793579,-0.5269014239311218
-0.4261995255947113,3.9463272094726562,-0.5254724621772766
-0.4037589132785797,3.9990670680999756,-0.533789336681366
-0.3768525719642639,4.017024040222168,-0.5375328660011292
-0.34943273663520813,4.027119159698486,-0.5397322773933411
-0.3237364888191223,4.060182571411133,-0.5450446605682373
-0.2959437966346741,4.06990909576416,-0.547258198261261
-0.2694009244441986,4.098752975463867,-0.5520737767219543
-0.2394488900899887,4.084960460662842,-0.551025927066803
-0.21099022030830383,4.08643913269043,-0.5516926050186157
-0.1812804639339447,4.060649871826172,-0.5487020015716553
-0.15241093933582306,4.04625129699707,-0.5472714304924011
-0.12453000247478485,4.054862022399902,-0.5489771962165833
-0.09601740539073944,4.063333511352539,-0.550380289554596
-0.040651220828294754,2.4383294582366943,-0.3303181529045105
-0.03866126015782356,3.9829506874084473,-0.5396668314933777
-0.01092534139752388,3.9598782062530518,-0.5366659760475159
0.016423024237155914,3.913388967514038,-0.530515193939209
0.04387497529387474,3.8938632011413574,-0.5275871753692627
0.07025313377380371,3.8548083305358887,-0.5219945907592773
0.09521304070949554,3.7807483673095703,-0.5116953253746033
0.12048336863517761,3.749089479446411,-0.5071669816970825
0.14591582119464874,3.7327470779418945,-0.5046521425247192
0.1695210337638855,3.681480884552002,-0.4970548450946808
0.1938653290271759,3.6493749618530273,-0.4920726418495178
0.21758127212524414,3.6209957599639893,-0.4876374900341034
0.24068282544612885,3.5885984897613525,-0.48269352316856384
0.261601984500885,3.532917022705078,-0.4744495451450348
0.28613612055778503,3.531175374984741,-0.47325053811073303
0.30732378363609314,3.486802339553833,-0.46635693311691284
0.32860463857650757,3.4539029598236084,-0.46105557680130005
0.3498368561267853,3.424727201461792,-0.4562884569168091
0.3693484365940094,3.3839216232299805,-0.4496913254261017
0.39275896549224854,3.381491184234619,-0.448132187128067
0.41277581453323364,3.3480992317199707,-0.4424811899662018
0.43410107493400574,3.3299829959869385,-0.4389002025127411
0.4515177011489868,3.2848703861236572,-0.4317691922187805
0.47095271944999695,3.2589075565338135,-0.42684999108314514
0.48482394218444824,3.1983563899993896,-0.41745781898498535
0.5062114596366882,3.1874427795410156,-0.4145658314228058
0.5220588445663452,3.145857095718384,-0.40774744749069214
0.5452175736427307,3.1500489711761475,-0.40674424171447754
0.5738957524299622,3.184619665145874,-0.4094524085521698
0.5887788534164429,3.142763376235962,-0.40235570073127747
0.619493305683136,3.184532642364502,-0.40597257018089294
0.631314218044281,3.1271555423736572,-0.3969403803348541
0.6513497829437256,3.1154351234436035,-0.39351794123649597
0.6687551736831665,3.0922329425811768,-0.388612300157547
0.688407838344574,3.0802860260009766,-0.38515666127204895
0.7081723213195801,3.0681591033935547,-0.38168415427207947
0.7227019667625427,3.0332093238830566,-0.3753233850002289
0.7436537146568298,3.0284855365753174,-0.37253323197364807
0.7588445544242859,3.0010554790496826,-0.36698660254478455
0.7767402529716492,2.984788417816162,-0.36283478140830994
0.7915538549423218,2.957139730453491,-0.35732918977737427
0.8103049397468567,2.9443676471710205,-0.3534488379955292
0.8263638615608215,2.924133777618408,-0.3486540913581848
0.8216184973716736,2.832993984222412,-0.3355054259300232
0.8070787191390991,2.7121975421905518,-0.3189902603626251
0.830501914024353,2.7216925621032715,-0.31786203384399414
0.8634458780288696,2.7606399059295654,-0.31990399956703186
0.8753098845481873,2.7328057289123535,-0.3142459988594055
0.8966783285140991,2.734400987625122,-0.3119785487651825
0.9132925868034363,2.7210614681243896,-0.3080059885978699
0.9131153225898743,2.659958600997925,-0.2985466718673706
0.915909469127655,2.610006332397461,-0.2903934121131897
0.9446684718132019,2.633145570755005,-0.2903471291065216
0.9964934587478638,2.7180497646331787,-0.2970115542411804
1.0071381330490112,2.6896169185638428,-0.2911689877510071
1.022718071937561,2.675792932510376,-0.28684601187705994
1.0325244665145874,2.6473822593688965,-0.2810003459453583
1.0484378337860107,2.63313889503479,-0.2765941619873047
1.062409520149231,2.615323066711426,-0.27186909317970276
1.0802698135375977,2.6083807945251465,-0.26815804839134216
1.0890077352523804,2.5798137187957764,-0.2622610628604889
1.1038107872009277,2.5654258728027344,-0.2578073740005493
1.1126911640167236,2.536500930786133,-0.2518587112426758
1.129922866821289,2.529250144958496,-0.24803081154823303
1.1406607627868652,2.5077106952667236,-0.24282293021678925
1.1514167785644531,2.486018180847168,-0.23759916424751282
1.167164921760559,2.4747326374053955,-0.2333562672138214
1.1809030771255493,2.4599523544311523,-0.22866244614124298
1.187318205833435,2.431260108947754,-0.22276851534843445
1.2006027698516846,2.4163999557495117,-0.21813495457172394
1.2174937725067139,2.408297061920166,-0.21408315002918243
1.2265918254852295,2.386536121368408,-0.20876894891262054
1.2390395402908325,2.371666431427002,-0.20409439504146576
1.255732536315918,2.363234519958496,-0.19983649253845215
1.2610349655151367,2.3342301845550537,-0.19388620555400848
1.2766867876052856,2.3260557651519775,-0.18964894115924835
1.286603569984436,2.3075525760650635,-0.18459047377109528
1.2950193881988525,2.2852871417999268,-0.1791352480649948
1.3108545541763306,2.2765872478485107,-0.17467805743217468
1.3181129693984985,2.2546815872192383,-0.16928765177726746
1.3334531784057617,2.2459750175476074,-0.1648285686969757
1.349137783050537,2.2369225025177,-0.16023722290992737
1.351751446723938,2.208282709121704,-0.15425312519073486
1.3666836023330688,2.1993935108184814,-0.1496112048625946
1.3778698444366455,2.183506727218628,-0.14438261091709137
1.3923923969268799,2.1745853424072266,-0.13962039351463318
1.3981282711029053,2.152620792388916,-0.1340479701757431
1.4065974950790405,2.1333975791931152,-0.1284532994031906
1.4167712926864624,2.117574453353882,-0.12297218292951584
1.4349287748336792,2.1150355339050293,-0.11834491044282913
1.4451440572738647,2.0988922119140625,-0.1126723513007164
1.4544825553894043,2.0831992626190186,-0.10701310634613037
1.4589464664459229,2.0612452030181885,-0.10104763507843018
1.4553542137145996,2.025731325149536,-0.09402304887771606
1.4728378057479858,2.0229759216308594,-0.08867324888706207
1.4678337574005127,1.9881696701049805,-0.08169589191675186
1.4746028184890747,2.0896995067596436,0.1584586501121521
1.4685245752334595,2.112577438354492,0.16486236453056335
1.452340841293335,2.123314380645752,0.17020928859710693
1.4442667961120605,2.147190570831299,0.17665234208106995
1.4333999156951904,2.163412570953369,0.1820390373468399
1.4168225526809692,2.173896312713623,0.18686148524284363
1.4125970602035522,2.2040398120880127,0.19339695572853088
1.39706552028656,2.213527202606201,0.19781143963336945
1.3844389915466309,2.2302191257476807,0.2028602808713913
1.3754944801330566,2.253615617752075,0.20845140516757965
1.3590960502624512,2.2631547451019287,0.2126246839761734
1.3489247560501099,2.2824275493621826,0.21761871874332428
1.339431643486023,2.3056552410125732,0.2228957712650299
1.3293505907058716,2.3290295600891113,0.22828978300094604
1.312896490097046,2.33797550201416,0.23203541338443756
1.2961052656173706,2.3469574451446533,0.23573081195354462
1.2896140813827515,2.376757860183716,0.24144311249256134
1.2717665433883667,2.3859822750091553,0.245102196931839
1.261842966079712,2.4084632396698,0.25003448128700256
1.2518032789230347,2.4308528900146484,0.25489863753318787
1.24594247341156,2.4640543460845947,0.2608044147491455
1.2241131067276,2.465934991836548,0.26342400908470154
1.2132524251937866,2.488265037536621,0.26815545558929443
1.202172875404358,2.5105390548706055,0.272915780544281
1.1902992725372314,2.5330450534820557,0.2775355875492096
1.1715508699417114,2.541433572769165,0.2806095778942108
1.1673022508621216,2.5814850330352783,0.2872045934200287
1.1491737365722656,2.5892767906188965,0.2901577353477478
1.136976957321167,2.6112887859344482,0.29467514157295227
1.1204590797424316,2.62654709815979,0.2983303368091583
1.1011265516281128,2.6343917846679688,0.3011310398578644
1.0909658670425415,2.663503408432007,0.3063552677631378
1.0752195119857788,2.677962064743042,0.3098742365837097
1.0618515014648438,2.6996867656707764,0.3141735792160034
1.048787236213684,2.725304126739502,0.31885334849357605
1.0316476821899414,2.7398412227630615,0.32224029302597046
1.0173625946044922,2.761439561843872,0.3264603018760681
1.0032776594161987,2.7828097343444824,0.33064863085746765
0.9667719602584839,2.7419662475585938,0.32736679911613464
0.9439530968666077,2.741426944732666,0.32874464988708496
0.930216908454895,2.7663333415985107,0.3331712782382965
0.8993801474571228,2.739509344100952,0.33136600255966187
0.8826005458831787,2.7528560161590576,0.3343795835971832
0.8830446004867554,2.821648597717285,0.34417372941970825
0.892856240272522,2.9280130863189697,0.3584182560443878
0.8761550188064575,2.9489994049072266,0.36225661635398865
0.860275149345398,2.973618507385254,0.3665745258331299
0.8456647396087646,3.0017480850219727,0.371329665184021
0.8287973403930664,3.0222928524017334,0.37517184019088745
0.8133659362792969,3.0503408908843994,0.3798277676105499
0.7930243015289307,3.0634822845458984,0.3825520873069763
0.7710148692131042,3.068875551223755,0.3843134343624115
0.7537440657615662,3.092902183532715,0.38842546939849854
0.7392832636833191,3.1280550956726074,0.3939495086669922
0.7208747267723083,3.148040533065796,0.39760029315948486
0.7030914425849915,3.1756949424743652,0.40200096368789673
0.6844798922538757,3.199394464492798,0.40589001774787903
0.6632140278816223,3.211597442626953,0.4083486497402191
0.6451019644737244,3.2388129234313965,0.412734717130661
0.6239842772483826,3.2506535053253174,0.415179580450058
0.6079056859016418,3.292930841445923,0.4215240776538849
0.586590588092804,3.3084487915039062,0.4241965413093567
0.5669994354248047,3.335294723510742,0.42835119366645813
0.5483015179634094,3.369675636291504,0.433506578207016
0.5282374024391174,3.396254062652588,0.4376828074455261
0.5070443153381348,3.418910503387451,0.4413917064666748
0.48750966787338257,3.4529082775115967,0.4465172290802002
0.46520107984542847,3.471503496170044,0.44941964745521545
0.4455793797969818,3.513015031814575,0.45531922578811646
0.421251505613327,3.519796848297119,0.4567464590072632
0.39920398592948914,3.5456383228302,0.4606695771217346
0.37809935212135315,3.586785078048706,0.46662232279777527
0.35646629333496094,3.6239206790924072,0.4720122218132019
0.33444494009017944,3.6648409366607666,0.4776448905467987
0.31125423312187195,3.6979033946990967,0.4822826683521271
0.28731706738471985,3.726956605911255,0.4864267408847809
0.26297563314437866,3.759735584259033,0.4910910427570343
0.23923689126968384,3.80005145072937,0.49676305055618286
0.2147187739610672,3.8363540172576904,0.5019053220748901
0.18942999839782715,3.8686745166778564,0.5062252879142761
0.16511936485767365,3.935657262802124,0.5151085257530212
0.13765478134155273,3.952178955078125,0.5174176692962646
0.11116481572389603,3.9917235374450684,0.5227658152580261
0.08425405621528625,4.03495979309082,0.5286262035369873
0.05689816549420357,4.085756778717041,0.535507321357727
0.02868325635790825,4.124795436859131,0.5404999852180481
-0.0005652253166772425,4.148147106170654,0.5434433817863464
-0.029852252453565598,4.206151962280273,0.5509534478187561
-0.05967457592487335,4.244583606719971,0.5559245347976685
-0.09011475741863251,4.2866740226745605,0.561400830745697
-0.12012236565351486,4.293701648712158,0.5623119473457336
-0.1493520736694336,4.277336597442627,0.5598673224449158
-0.18176966905593872,4.330422401428223,0.5664479732513428
-0.220530167222023,4.507084369659424,0.5892080068588257
-0.25456979870796204,4.555792808532715,0.595252275466919
-0.29133763909339905,4.635165691375732,0.6053218245506287
-0.36700063943862915,5.255224227905273,0.6859890818595886
-0.4001157283782959,5.202424049377441,0.6785107851028442
-0.4386603832244873,5.230555534362793,0.681455671787262
-0.47265177965164185,5.2043962478637695,0.6773597002029419
-0.5142199397087097,5.258984088897705,0.6838009357452393
-0.5664805769920349,5.405693054199219,0.7022238969802856
-0.5870882868766785,5.243840217590332,0.6805851459503174
-0.621971845626831,5.2282867431640625,0.6777445673942566
-0.6584062576293945,5.227932929992676,0.6766632795333862
-0.6984390020370483,5.254210948944092,0.679054319858551
-0.7334945797920227,5.241812705993652,0.6764745116233826
-0.7693491578102112,5.229046821594238,0.6738580465316772
-0.8068730235099792,5.231436252593994,0.6732419729232788
-0.8362026810646057,5.183887004852295,0.666033148765564
-0.869098961353302,5.163017272949219,0.6620226502418518
-0.9030874371528625,5.149574279785156,0.6590011715888977
-0.9251078367233276,5.07108736038208,0.6477067470550537
-0.9651932716369629,5.087547779083252,0.648545503616333
-0.9915991425514221,5.035329818725586,0.6406829953193665
-1.0216877460479736,5.005857944488525,0.6355693936347961
-1.0758581161499023,5.093903064727783,0.6451197862625122
-1.1055898666381836,5.064043045043945,0.6397472023963928
-1.1347768306732178,5.030085563659668,0.6338722109794617
-1.1661328077316284,5.007303714752197,0.629451334476471
-1.1873657703399658,4.9428300857543945,0.6198374032974243
-1.2138499021530151,4.904779434204102,0.6133653521537781
-1.2068880796432495,4.738954067230225,0.5908091068267822
-1.2396119832992554,4.73085355758667,0.5879705548286438
-1.2697484493255615,4.715167999267578,0.5842484831809998
-1.3025439977645874,4.706567287445068,0.5813935995101929
-1.3331600427627563,4.690274715423584,0.5776195526123047
-1.3585816621780396,4.659117698669434,0.5717484354972839
-1.390663504600525,4.650043487548828,0.5684818625450134
-1.1185834407806396,3.650409698486328,0.4446284770965576
-1.143545389175415,3.642977476119995,0.44207674264907837
-1.1676908731460571,3.6315486431121826,0.43903496861457825
-1.4998502731323242,4.556329250335693,0.5487298369407654
-1.5310585498809814,4.546377182006836,0.5450727343559265
-1.5995532274246216,4.64649772644043,0.5546228289604187
-1.6385475397109985,4.658026695251465,0.5535537600517273
-1.6761013269424438,4.661604404449463,0.5514717698097229
-1.6858373880386353,4.588290214538574,0.5403321385383606
-1.711599588394165,4.562629222869873,0.534615695476532
-1.734413743019104,4.529552459716797,0.5279107689857483
-1.7620210647583008,4.511022090911865,0.5229881405830383
-1.787186861038208,4.484872341156006,0.517164409160614
-1.8243411779403687,4.487151622772217,0.5145925283432007
-1.847661018371582,4.457078456878662,0.5081906914710999
-1.9097485542297363,4.520059108734131,0.5121247172355652
-1.9246472120285034,4.471982955932617,0.5035237669944763
-1.945684552192688,4.4379425048828125,0.4965181052684784
-1.9702752828598022,4.410585880279541,0.49022915959358215
-2.0037167072296143,4.404568195343018,0.48621001839637756
-2.028604745864868,4.380870342254639,0.4799983501434326
-4.367217540740967,9.270195007324219,1.0082368850708008
-4.4235711097717285,9.227360725402832,0.9959592819213867
-4.491580009460449,9.204293251037598,0.9856480956077576
-2.155978202819824,4.343563079833984,0.46127060055732727
-2.1817686557769775,4.322543144226074,0.4549812078475952
-2.190857410430908,4.270483493804932,0.4455614686012268
-2.213223695755005,4.241979598999023,0.4384881854057312
-2.250246286392212,4.2406697273254395,0.4341965615749359
-2.2597224712371826,4.192078113555908,0.424839586019516
-2.2836008071899414,4.17083740234375,0.4183157980442047
-2.2516822814941406,4.046818256378174,0.40144476294517517
-2.28765606880188,4.045083999633789,0.39674311876296997
-2.310781478881836,4.0235443115234375,0.38993075489997864
-2.337082624435425,4.008922576904297,0.3837275505065918
-2.359675645828247,3.9872193336486816,0.3768063187599182
-2.392137050628662,3.977555751800537,0.37066566944122314
-2.4186885356903076,3.962089776992798,0.36394351720809937
-2.440319538116455,3.9402616024017334,0.3565828204154968
-2.4665539264678955,3.9245152473449707,0.3496612310409546
-2.489751100540161,3.90124249458313,0.34182846546173096
-2.5112497806549072,3.87880539894104,0.3338342607021332
-2.531834125518799,3.856705665588379,0.32598042488098145
-2.5539467334747314,3.8333899974823,0.3176431357860565
-2.621375322341919,3.8779757022857666,0.3146260976791382
-2.0424468517303467,2.980733871459961,0.2365512102842331
-2.0581934452056885,2.9609169960021973,0.22937506437301636
-2.069481611251831,2.9345030784606934,0.22151266038417816
-2.0879645347595215,2.9218945503234863,0.21463453769683838
-2.0981476306915283,2.8958728313446045,0.20650361478328705
-1.0853898525238037,1.4772292375564575,0.10192517936229706
-1.1085350513458252,1.4894871711730957,0.09926515817642212
-2.0517377853393555,2.899639368057251,-0.13515423238277435
-2.4909780025482178,3.578023910522461,-0.17605604231357574
-2.4523282051086426,3.5757973194122314,-0.1844026893377304
-2.4576497077941895,3.642474889755249,-0.19643065333366394
-2.428344964981079,3.656891107559204,-0.20541149377822876
-2.4023454189300537,3.673529624938965,-0.21406139433383942
-2.3746280670166016,3.690993309020996,-0.22274158895015717
-2.3580434322357178,3.7242002487182617,-0.23218868672847748
-2.320688486099243,3.7241106033325195,-0.23939546942710876
-2.2948529720306396,3.7441346645355225,-0.24770912528038025
-2.2655208110809326,3.756873846054077,-0.25537797808647156
-2.235006093978882,3.7655200958251953,-0.26250654458999634
-2.2109878063201904,3.788170576095581,-0.2705555260181427
-2.182616949081421,3.8040361404418945,-0.2782040536403656
-2.15779185295105,3.82211971282959,-0.28563669323921204
-2.1298937797546387,3.8371970653533936,-0.2927855849266052
-2.0959932804107666,3.8419573307037354,-0.2991245687007904
-2.0815021991729736,3.8802690505981445,-0.30791175365448
-2.057034969329834,3.901552677154541,-0.31539157032966614
-2.0248305797576904,3.9090402126312256,-0.32158163189888
-1.9963359832763672,3.9231135845184326,-0.32828566431999207
-1.9757474660873413,3.9504051208496094,-0.3359307646751404
-1.9439085721969604,3.9569449424743652,-0.3417385518550873
-1.9213389158248901,3.9846906661987305,-0.3494337499141693
-1.8960624933242798,4.004843235015869,-0.3563428521156311
-1.8745359182357788,4.031594753265381,-0.3637659251689911
-1.842252254486084,4.037343502044678,-0.36916887760162354
-1.8129900693893433,4.050015926361084,-0.37518200278282166
-1.7872271537780762,4.06940221786499,-0.38176900148391724
-1.764327049255371,4.09577751159668,-0.38906094431877136
-1.7318470478057861,4.100627899169922,-0.3940553069114685
-1.7082091569900513,4.126833915710449,-0.40110206604003906
-1.6788240671157837,4.138329029083252,-0.4066959321498871
-1.6540930271148682,4.160292148590088,-0.4132861793041229
-1.6238285303115845,4.171656608581543,-0.41871511936187744
-1.5965977907180786,4.189945220947266,-0.42474237084388733
-1.5721546411514282,4.21524715423584,-0.43148916959762573
-1.5453004837036133,4.232912540435791,-0.43742284178733826
-1.5152579545974731,4.2432379722595215,-0.4424547553062439
-1.486894130706787,4.260969638824463,-0.44824692606925964
-1.4614793062210083,4.285662651062012,-0.4547363221645355
-1.1882022619247437,3.565246343612671,-0.38147151470184326
-1.147504448890686,3.5250437259674072,-0.3802233934402466
-1.1330100297927856,3.566037178039551,-0.38755127787590027
-1.1094653606414795,3.5811524391174316,-0.3921739161014557
-1.0865411758422852,3.5958845615386963,-0.3966972529888153
-1.0426663160324097,3.5396571159362793,-0.39336010813713074
-1.0174975395202637,3.546600103378296,-0.3967166841030121
-0.9985264539718628,3.5758113861083984,-0.40258345007896423
-0.9844228029251099,3.6236236095428467,-0.41059640049934387
-0.9607105255126953,3.637629747390747,-0.4148404598236084
-0.9390156269073486,3.658961057662964,-0.4197537899017334
-0.913169801235199,3.665147542953491,-0.4227909445762634
-0.8891066312789917,3.6786952018737793,-0.4267031252384186
-0.8651328682899475,3.6920299530029297,-0.4305999279022217
-0.8423187732696533,3.712862968444824,-0.43544498085975647
-0.8186096549034119,3.729766368865967,-0.4394734501838684
-0.7938879132270813,3.742723226547241,-0.44305625557899475
-0.7691144943237305,3.7554962635040283,-0.4466405212879181
-0.7444435358047485,3.768056869506836,-0.45021072030067444
-0.7191120386123657,3.780564069747925,-0.4536929726600647
-0.6967047452926636,3.8081448078155518,-0.45874881744384766
-0.6726023554801941,3.827950954437256,-0.4629083275794983
-0.6445448994636536,3.824629306793213,-0.4642869830131531
-0.622807502746582,3.8593807220458984,-0.4703167676925659
-0.5958601832389832,3.8673059940338135,-0.47284138202667236
-0.5709139108657837,3.8865108489990234,-0.47664108872413635
-0.5457590222358704,3.905548572540283,-0.4804536700248718
-0.5195381045341492,3.9167096614837646,-0.48331907391548157
-0.49414488673210144,3.9353909492492676,-0.48711732029914856
-0.46564003825187683,3.930873394012451,-0.4876485764980316
-0.43587997555732727,3.918494701385498,-0.4872418940067291
-0.41530218720436096,3.9868102073669434,-0.49688538908958435
-0.38980093598365784,4.012566089630127,-0.5012689828872681
-0.3625631630420685,4.022736549377441,-0.5035691261291504
-0.3363822102546692,4.048217296600342,-0.507516086101532
-0.30821675062179565,4.058099746704102,-0.5095514059066772
-0.2789003551006317,4.044548511505127,-0.508651852607727
-0.2539305090904236,4.0965447425842285,-0.5160256028175354
-0.2283782809972763,4.152294635772705,-0.5236226320266724
-0.19593022763729095,4.080157279968262,-0.5149384140968323
-0.16605888307094574,4.058134078979492,-0.5126020312309265
-0.13928130269050598,4.101722240447998,-0.5185723304748535
-0.1100567877292633,4.0753984451293945,-0.5157298445701599
-0.04992751032114029,2.491346597671509,-0.3153257369995117
-0.052528660744428635,4.014500617980957,-0.5081571936607361
-0.023902112618088722,3.9798808097839355,-0.5038487315177917
0.003769144881516695,3.9411847591400146,-0.4990459978580475
0.030807441100478172,3.890679121017456,-0.4927167594432831
0.057424068450927734,3.8594164848327637,-0.4884367883205414
0.08326854556798935,3.812474489212036,-0.4822022616863251
0.10902033746242523,3.7847299575805664,-0.47842466831207275
0.13496583700180054,3.7606706619262695,-0.4751356840133667
0.15926705300807953,3.7171132564544678,-0.4692588448524475
0.18275165557861328,3.669565200805664,-0.4626307785511017
0.20690178871154785,3.645087242126465,-0.45894521474838257
0.23050442337989807,3.6165807247161865,-0.45478197932243347
0.2527681887149811,3.5685627460479736,-0.4481896460056305
0.27514418959617615,3.5359294414520264,-0.44332703948020935
0.29603832960128784,3.4915943145751953,-0.436872273683548
0.31951937079429626,3.4818789958953857,-0.43478310108184814
0.33874601125717163,3.429564952850342,-0.4274075925350189
0.36059480905532837,3.404088020324707,-0.4233989119529724
0.3824344277381897,3.3862738609313965,-0.4200706481933594
0.41141700744628906,3.429920196533203,-0.4243200123310089
0.43323588371276855,3.41178297996521,-0.4209345579147339
0.4518156945705414,3.3704373836517334,-0.4147197902202606
0.46860745549201965,3.317429304122925,-0.40705522894859314
0.4915653467178345,3.3143272399902344,-0.4052448868751526
0.5132846236228943,3.3034048080444336,-0.4025026857852936
0.5336859822273254,3.2846739292144775,-0.39883485436439514
0.5526885390281677,3.2581467628479004,-0.3942475914955139
0.5712496042251587,3.231544256210327,-0.38955727219581604
0.5890526175498962,3.2009973526000977,-0.3842083811759949
0.6097099781036377,3.1894779205322266,-0.38120847940444946
0.6288294792175293,3.1701927185058594,-0.37730276584625244
0.6446614265441895,3.135575294494629,-0.3716079294681549
0.6622833013534546,3.1123368740081787,-0.36708199977874756
0.6807659864425659,3.0927350521087646,-0.36291009187698364
0.7003558278083801,3.080672025680542,-0.35968589782714844
0.7165111303329468,3.0533132553100586,-0.3546898365020752
0.7341176867485046,3.0334298610687256,-0.3505710959434509
0.7550399899482727,3.028590679168701,-0.34796249866485596
0.7704735994338989,3.000960350036621,-0.3427346348762512
0.7862877249717712,2.9770755767822266,-0.3380048871040344
0.800954282283783,2.9493210315704346,-0.3328638970851898
0.8172029256820679,2.9290406703948975,-0.3284747898578644
0.833051860332489,2.908728837966919,-0.3240072429180145
0.830420196056366,2.8248703479766846,-0.3125056028366089
0.8310108780860901,2.7560911178588867,-0.3028096556663513
0.852561891078949,2.757931709289551,-0.3009151518344879
0.8785271644592285,2.7745509147644043,-0.3004184663295746
0.887982964515686,2.7391927242279053,-0.2943139672279358
0.9072261452674866,2.7331972122192383,-0.2913496494293213
0.9213225245475769,2.712376594543457,-0.28684449195861816
0.9272792935371399,2.6695477962493896,-0.27996405959129333
0.9689739942550659,2.7293920516967773,-0.2837575674057007
0.9849957227706909,2.715705394744873,-0.2798691689968109
1.003924012184143,2.709092617034912,-0.276683509349823
1.0175514221191406,2.6877102851867676,-0.27193304896354675
1.0302751064300537,2.666522264480591,-0.2671546936035156
1.0427558422088623,2.6452794075012207,-0.26241201162338257
1.0552647113800049,2.6238791942596436,-0.2576553225517273
1.0721098184585571,2.6131644248962402,-0.2539561092853546
1.087201476097107,2.5988285541534424,-0.2497503012418747
1.095710277557373,2.5702202320098877,-0.24425306916236877
1.1134024858474731,2.562933921813965,-0.240781769156456
1.1250360012054443,2.541161298751831,-0.23593035340309143
1.135992407798767,2.5195422172546387,-0.23104935884475708
1.146897792816162,2.4978041648864746,-0.22612085938453674
1.1590654850006104,2.4796173572540283,-0.22157739102840424
1.1696717739105225,2.457717180252075,-0.21668878197669983
1.1830154657363892,2.4429941177368164,-0.2123912125825882
1.1960350275039673,2.428285837173462,-0.20809686183929443
1.212918758392334,2.4202208518981934,-0.20429377257823944
1.2263203859329224,2.405036687850952,-0.19988760352134705
1.2354345321655273,2.383145332336426,-0.19490346312522888
1.2514625787734985,2.375080108642578,-0.19106006622314453
1.2603973150253296,2.3529956340789795,-0.18605226278305054
1.2675082683563232,2.327319383621216,-0.18075014650821686
1.279569387435913,2.3121163845062256,-0.1761855185031891
1.2950148582458496,2.303800344467163,-0.17222540080547333
1.3032515048980713,2.2815144062042236,-0.16712282598018646
1.3149490356445312,2.266080856323242,-0.16251707077026367
1.326029658317566,2.2508609294891357,-0.15792642533779144
1.3374760150909424,2.2352895736694336,-0.1532185971736908
1.3490545749664307,2.2194910049438477,-0.14845621585845947
1.355527400970459,2.1975178718566895,-0.1432982087135315
1.378293752670288,2.2020151615142822,-0.13986830413341522
1.3853143453598022,2.1794233322143555,-0.13449974358081818
1.3874839544296265,2.150517702102661,-0.12871794402599335
1.4015896320343018,2.141615629196167,-0.12423911690711975
1.4163423776626587,2.1321566104888916,-0.11953345686197281
1.4283543825149536,2.1196861267089844,-0.11461954563856125
1.4376477003097534,2.1041982173919678,-0.10956136137247086
1.4435425996780396,2.081448554992676,-0.10379673540592194
1.457200527191162,2.0721559524536133,-0.09875839203596115
1.409446120262146,1.9770642518997192,-0.08978012204170227
1.4711534976959229,2.033912420272827,-0.08739874511957169
1.4793643951416016,2.0184993743896484,-0.08178092539310455
1.4626275300979614,1.9679903984069824,-0.07454713433980942
1.4363529682159424,2.0175399780273438,0.13837401568889618
1.4651310443878174,2.0923244953155518,0.14822757244110107
1.456729769706726,2.112049102783203,0.1539238542318344
1.449435830116272,2.135572671890259,0.1598050594329834
1.4327605962753296,2.14642333984375,0.16473209857940674
1.4261480569839478,2.1691601276397705,0.17021647095680237
1.4136669635772705,2.186243772506714,0.17527784407138824
1.3967387676239014,2.1967363357543945,0.17974475026130676
1.3935471773147583,2.2260549068450928,0.18549223244190216
1.3772032260894775,2.2358624935150146,0.18955737352371216
1.3641839027404785,2.2525992393493652,0.19416609406471252
1.355314016342163,2.2757561206817627,0.1993042677640915
1.341285228729248,2.2882375717163086,0.20335376262664795
1.3318098783493042,2.311432361602783,0.20825189352035522
1.3143527507781982,2.321068286895752,0.2119532972574234
1.309108018875122,2.350484609603882,0.21734824776649475
1.2958797216415405,2.3663578033447266,0.22150713205337524
1.2818254232406616,2.382526397705078,0.22554044425487518
1.2639621496200562,2.391728639602661,0.22893410921096802
1.257677674293518,2.4210736751556396,0.23416510224342346
1.2441850900650024,2.436466693878174,0.23804518580436707
1.2344937324523926,2.4628641605377197,0.2429126799106598
1.2230517864227295,2.4856135845184326,0.24742668867111206
1.2084906101226807,2.501065254211426,0.25118088722229004
1.1909319162368774,2.509174346923828,0.2541555166244507
1.1825685501098633,2.5386035442352295,0.2591919004917145
1.1734966039657593,2.5681958198547363,0.26423102617263794
1.1541860103607178,2.576630115509033,0.2671588361263275
1.1439563035964966,2.602156639099121,0.2717462480068207
1.1257281303405762,2.6098082065582275,0.2744794487953186
1.1096346378326416,2.6248629093170166,0.2778211236000061
1.0993306636810303,2.654184341430664,0.2827068865299225
1.088514804840088,2.683542490005493,0.28765374422073364
1.0639395713806152,2.6763863563537598,0.28861796855926514
1.057700753211975,2.7161612510681152,0.2946281433105469
1.037851333618164,2.723551034927368,0.29699015617370605
1.0234036445617676,2.745349168777466,0.30094558000564575
1.0085158348083496,2.7671380043029785,0.30494678020477295
0.9917683601379395,2.7811834812164307,0.3080427348613739
0.9555693864822388,2.7401461601257324,0.3050033152103424
0.9357099533081055,2.746762275695801,0.307058185338974
0.9219341278076172,2.7716619968414307,0.3111819326877594
0.8883222341537476,2.7374985218048096,0.308702677488327
0.8844351172447205,2.7915422916412354,0.3161191940307617
0.8867183327674866,2.8679146766662598,0.3261359632015228
0.890786349773407,2.9557809829711914,0.33733534812927246
0.8716385960578918,2.969362735748291,0.3400757908821106
0.8481026887893677,2.967878818511963,0.34110674262046814
0.8319704532623291,2.9923782348632812,0.34514302015304565
0.815132200717926,3.0128860473632812,0.3487149477005005
0.8037495613098145,3.0558955669403076,0.3548254072666168
0.7818504571914673,3.06138277053833,0.3564532697200775
0.7636479735374451,3.0817818641662598,0.35984063148498535
0.747570812702179,3.113474130630493,0.3645949065685272
0.7293440103530884,3.1335465908050537,0.367978572845459
0.7109045386314392,3.153506278991699,0.3713754415512085
0.6918099522590637,3.173470973968506,0.37458834052085876
0.6747560501098633,3.2047417163848877,0.3791041374206543
0.6530351042747498,3.2169909477233887,0.381412535905838
0.6377580165863037,3.2594356536865234,0.3873094320297241
0.617905855178833,3.2788877487182617,0.3904961049556732
0.597841203212738,3.2982144355773926,0.39368951320648193
0.5777681469917297,3.32134747505188,0.39708590507507324
0.5576177835464478,3.348252534866333,0.4009731411933899
0.5375644564628601,3.3749659061431885,0.40485450625419617
0.5185035467147827,3.4092037677764893,0.40966445207595825
0.49641963839530945,3.4241127967834473,0.4121742844581604
0.47887754440307617,3.4734697341918945,0.4188213050365448
0.4549523591995239,3.4844048023223877,0.42060133814811707
0.43316230177879333,3.5105273723602295,0.42423325777053833
0.40971946716308594,3.5249524116516113,0.42647671699523926
0.3875802755355835,3.5507616996765137,0.430119127035141
0.3691905736923218,3.614997386932373,0.43844670057296753
0.34654757380485535,3.6444098949432373,0.4425370395183563
0.3218672275543213,3.6621763706207275,0.4449741542339325
0.29991868138313293,3.710659980773926,0.45116567611694336
0.2758394181728363,3.7396786212921143,0.4550192356109619
0.2512688636779785,3.764660120010376,0.4584064185619354
0.22755931317806244,3.808830499649048,0.46415823698043823
0.20261746644973755,3.849003314971924,0.46941763162612915
0.1774153709411621,3.8890347480773926,0.4743766188621521
0.15275141596794128,3.956021308898926,0.48264890909194946
0.1253213733434677,3.964714765548706,0.4838348627090454
0.09872116148471832,4.0081024169921875,0.48927974700927734
0.0710218995809555,4.0474395751953125,0.49426010251045227
0.04341580718755722,4.098210334777832,0.5006511807441711
0.014980326406657696,4.121691703796387,0.5033801794052124
-0.013882987201213837,4.175993919372559,0.5098954439163208
-0.04330196976661682,4.210705757141113,0.514041006565094
-0.07390507310628891,4.256831169128418,0.519602358341217
-0.10451776534318924,4.298868656158447,0.5246902108192444
-0.1339004784822464,4.28255033493042,0.5226805210113525
-0.1632731407880783,4.273826599121094,0.5212743878364563
-0.1979435235261917,4.3849897384643555,0.5344716906547546
-0.23416151106357574,4.495875835418701,0.5476429462432861
-0.2697650194168091,4.559982776641846,0.5551234483718872
-0.3068654239177704,4.639315605163574,0.5644789338111877
-0.3414056599140167,4.6680731773376465,0.5677010416984558
-0.37829047441482544,4.723691463470459,0.5738818049430847
-0.4297470450401306,4.937432289123535,0.5991756916046143
-0.4854995310306549,5.158356189727783,0.6252997517585754
-0.5352256894111633,5.293908596038818,0.6410683393478394
-0.5849378705024719,5.409721851348877,0.6544428467750549
-0.6199249029159546,5.382535457611084,0.650536835193634
-0.6415067315101624,5.25125789642334,0.6337776780128479
-0.6757546067237854,5.227593898773193,0.6299114227294922
-0.7085266709327698,5.199948310852051,0.6256216764450073
-0.7492564916610718,5.229687213897705,0.6282621026039124
-0.7792773842811584,5.182337284088135,0.6216630935668945
-0.8116933107376099,5.153980731964111,0.6173839569091797
-0.8489987254142761,5.156052112579346,0.616456151008606
-0.8803569078445435,5.127407550811768,0.611765444278717
-0.9065840840339661,5.071839809417725,0.6039088368415833
-0.9476853013038635,5.100070476531982,0.6060624718666077
-0.9765591025352478,5.059294700622559,0.6000248193740845
-1.005621314048767,5.022175312042236,0.5944668054580688
-1.0453623533248901,5.038104057312012,0.5948850512504578
-1.065844178199768,4.9666361808776855,0.5849354267120361
-1.1022021770477295,4.970892906188965,0.5839477181434631
-1.1552724838256836,5.046732425689697,0.5913615226745605
-1.177826166152954,4.985982418060303,0.5827674865722656
-1.2011563777923584,4.92877721786499,0.5746190547943115
-1.2289931774139404,4.898216724395752,0.5692911744117737
-1.2195591926574707,4.724687576293945,0.547393798828125
-1.2495994567871094,4.709104537963867,0.5438867807388306
-1.285982608795166,4.715705394744873,0.5429449677467346
-1.3151543140411377,4.691843509674072,0.5384688377380371
-1.3412065505981445,4.660541534423828,0.5331489443778992
-1.3683316707611084,4.6368021965026855,0.5284291505813599
-1.1129738092422485,3.6799275875091553,0.4178045690059662
-1.1298189163208008,3.646611452102661,0.41247162222862244
-1.1507935523986816,3.6240298748016357,0.4083268344402313
-1.4775514602661133,4.543326377868652,0.5099499821662903
-1.5135011672973633,4.548221111297607,0.5083438754081726
-1.5516183376312256,4.560365676879883,0.5074049234390259
-1.6014939546585083,4.605214595794678,0.5100860595703125
-1.64063560962677,4.616550445556641,0.5090175867080688
-1.6800504922866821,4.623432636260986,0.5073613524436951
-1.6890743970870972,4.550143718719482,0.4969366192817688
-1.743057131767273,4.60087776184082,0.49979233741760254
-1.766929030418396,4.571357727050781,0.4939306974411011
-1.7947993278503418,4.552553176879883,0.4892602860927582
-1.8212921619415283,4.525702476501465,0.4836150109767914
-1.8616944551467896,4.534886360168457,0.48188868165016174
-1.8605514764785767,4.447438716888428,0.4696292281150818
-1.8902535438537598,4.435343265533447,0.46539145708084106
-1.9167790412902832,4.4159111976623535,0.4604095220565796
-1.944857120513916,4.395580291748047,0.4551923871040344
-2.0186429023742676,4.478085041046143,0.4606306254863739
-2.0046474933624268,4.36956787109375,0.4461503326892853
-2.040278434753418,4.370697021484375,0.4429301917552948
-2.069370985031128,4.35746955871582,0.43826010823249817
-2.100323438644409,4.343135833740234,0.43327558040618896
-2.1097865104675293,4.2870588302612305,0.42419078946113586
-2.141659736633301,4.280428409576416,0.41981831192970276
-2.173501968383789,4.273576736450195,0.41543474793434143
-2.177401304244995,4.210843563079834,0.4055880904197693
-2.206810474395752,4.1960129737854,0.4002982974052429
-2.230041265487671,4.170997142791748,0.3938356637954712
-2.296480417251587,4.228577136993408,0.3951025605201721
-2.2264952659606934,4.036593437194824,0.3731725513935089
-2.2699623107910156,4.048583507537842,0.3700079321861267
-2.2899749279022217,4.019900798797607,0.36305883526802063
-2.320660352706909,4.011796951293945,0.35776054859161377
-2.3469018936157227,3.9970171451568604,0.3519587218761444
-2.3786332607269287,3.98783016204834,0.3463824391365051
-2.3937954902648926,3.9519824981689453,0.3384191393852234
-2.423490047454834,3.943528890609741,0.3326795995235443
-2.4454185962677,3.9213266372680664,0.3256970942020416
-2.4770665168762207,3.911203622817993,0.3194206655025482
-2.499046802520752,3.8884902000427246,0.3120267987251282
-2.5156097412109375,3.859746217727661,0.3041132688522339
-2.5456433296203613,3.849909782409668,0.29752033948898315
-2.594412088394165,3.864841938018799,0.2924068868160248
-2.6649718284606934,3.916541814804077,0.2898798882961273
-2.081247091293335,3.017190933227539,0.21825601160526276
-2.059910297393799,2.942257881164551,0.20740735530853271
-2.078643321990967,2.9295027256011963,0.20096541941165924
-2.0886213779449463,2.9036498069763184,0.19346201419830322
-2.1088335514068604,2.889472484588623,0.18632814288139343
-1.0877337455749512,1.4713164567947388,0.09166170656681061
-2.0673184394836426,2.8986475467681885,-0.12427128106355667
-2.074206829071045,2.9555931091308594,-0.1339247226715088
-2.4607551097869873,3.56123948097229,-0.16957272589206696
-2.471961259841919,3.6335811614990234,-0.18095740675926208
-2.4441630840301514,3.651890277862549,-0.1897772252559662
-2.4162590503692627,3.6653101444244385,-0.19773204624652863
-2.3842971324920654,3.6764321327209473,-0.20561115443706512
-2.361010789871216,3.7002339363098145,-0.21401438117027283
-2.330840826034546,3.709657907485962,-0.22117970883846283
-2.307344436645508,3.7330358028411865,-0.2291489541530609
-2.2754435539245605,3.742971181869507,-0.2362704873085022
-2.248715877532959,3.758629560470581,-0.24347665905952454
-2.2211520671844482,3.7745211124420166,-0.25054827332496643
-2.1990103721618652,3.800511598587036,-0.2582978904247284
-2.1720316410064697,3.8155295848846436,-0.26507270336151123
-2.1445651054382324,3.830566167831421,-0.2717643678188324
-2.1157703399658203,3.8460607528686523,-0.27853959798812866
-2.0953738689422607,3.8744702339172363,-0.28607016801834106
-2.068164348602295,3.888590097427368,-0.29242178797721863
-2.0360665321350098,3.8962247371673584,-0.2981685996055603
-2.0110270977020264,3.917487621307373,-0.30497583746910095
-1.9864044189453125,3.9382784366607666,-0.31166884303092957
-1.9653996229171753,3.965728521347046,-0.3187579810619354
-1.9399511814117432,3.9864277839660645,-0.3252468407154083
-1.9109984636306763,3.9999024868011475,-0.3311627507209778
-1.8829666376113892,4.012699604034424,-0.3368712067604065
-1.8543442487716675,4.025529861450195,-0.34251829981803894
-1.8310656547546387,4.052785873413086,-0.3494126498699188
-1.7987103462219238,4.058250904083252,-0.35434940457344055
-1.7764339447021484,4.08456563949585,-0.36101770401000977
-1.7503806352615356,4.103791236877441,-0.36698275804519653
-1.7252427339553833,4.12661075592041,-0.3732098340988159
-1.6950442790985107,4.138622760772705,-0.37854498624801636
-1.6660325527191162,4.149917125701904,-0.38365575671195984
-1.642322301864624,4.175624370574951,-0.3900119662284851
-1.612288236618042,4.186852931976318,-0.39491644501686096
-1.584951639175415,4.2051310539245605,-0.400508850812912
-1.552269697189331,4.208547115325928,-0.4046779274940491
-1.5305492877960205,4.2408623695373535,-0.41151729226112366
-1.5053657293319702,4.265927314758301,-0.4174948036670685
-1.4722915887832642,4.268780708312988,-0.42132580280303955
-1.437258243560791,4.263847351074219,-0.424334317445755
-1.1685690879821777,3.549561023712158,-0.35619503259658813
-1.1528046131134033,3.5870511531829834,-0.36264902353286743
-1.134185552597046,3.6170835494995117,-0.36839759349823
-1.3314584493637085,4.353300094604492,-0.4466250240802765
-1.3066333532333374,4.380678176879883,-0.45266398787498474
-1.275796890258789,4.389348983764648,-0.45661649107933044
-1.2462210655212402,4.405513286590576,-0.46126070618629456
-1.2211644649505615,4.436315536499023,-0.4674287438392639
-1.190056324005127,4.444362640380859,-0.4712042510509491
-1.1628613471984863,4.46721887588501,-0.4765596091747284
-1.1368471384048462,4.497592926025391,-0.4824059009552002
-1.0988141298294067,4.482663631439209,-0.4834619164466858
-1.0528271198272705,4.429457187652588,-0.48030319809913635
-1.027215600013733,4.459027290344238,-0.486089289188385
-1.0077853202819824,4.518845558166504,-0.49504226446151733
-0.9783640503883362,4.536900520324707,-0.49926990270614624
-0.7930535078048706,3.809666872024536,-0.4211779534816742
-0.7679617404937744,3.8224518299102783,-0.4245002567768097
-0.7427922487258911,3.8350577354431152,-0.42782649397850037
-0.7172608971595764,3.847571849822998,-0.43085363507270813
-0.6888168454170227,3.8446383476257324,-0.432123601436615
-0.6632945537567139,3.860698938369751,-0.4355781376361847
-0.638908863067627,3.8803091049194336,-0.4394242465496063
-0.615416407585144,3.90745210647583,-0.4440874755382538
-0.5902817845344543,3.926830291748047,-0.44759005308151245
-0.5605049133300781,3.915306806564331,-0.4475923180580139
-0.5347124934196472,3.934377670288086,-0.4511333405971527
-0.5043718814849854,3.9147040843963623,-0.45021963119506836
-0.48359939455986023,3.971885919570923,-0.45798444747924805
-0.4558061957359314,3.9750149250030518,-0.4593413472175598
-0.4308987259864807,4.0049567222595215,-0.463826060295105
-0.40297776460647583,4.007705211639404,-0.4651871621608734
-0.37749242782592773,4.04120397567749,-0.4701652526855469
-0.3506036102771759,4.059080600738525,-0.47302860021591187
-0.32440438866615295,4.088394641876221,-0.47713443636894226
-0.2949797511100769,4.078841686248779,-0.47673094272613525
-0.26837000250816345,4.107785224914551,-0.4808494746685028
-0.23788712918758392,4.086231708526611,-0.4790954887866974
-0.21177183091640472,4.1342244148254395,-0.4850829243659973
-0.18118856847286224,4.09678316116333,-0.4810470640659332
-0.15160571038722992,4.070748805999756,-0.47836771607398987
-0.12284880131483078,4.056133270263672,-0.47704797983169556
-0.0945088267326355,4.072362422943115,-0.4793192148208618
-0.06494464725255966,3.999213457107544,-0.47071048617362976
-0.03715714439749718,4.003440856933594,-0.471231609582901
-0.009395122528076172,4.042388916015625,-0.4758630394935608
0.01838839426636696,3.9763989448547363,-0.46816352009773254
0.046299561858177185,3.960662841796875,-0.46625545620918274
0.07290768623352051,3.913743019104004,-0.4604182839393616
0.09979227185249329,3.9015493392944336,-0.4586927592754364
0.1251235455274582,3.8465182781219482,-0.45195773243904114
0.14991196990013123,3.795199394226074,-0.44568708539009094
0.17483679950237274,3.763127326965332,-0.44149431586265564
0.19828630983829498,3.7037746906280518,-0.4339272677898407
0.222618967294693,3.6791560649871826,-0.4304732084274292
0.24711085855960846,3.6621227264404297,-0.427933931350708
0.27025502920150757,3.6294467449188232,-0.42359358072280884
0.2938695251941681,3.608262300491333,-0.4203453063964844
0.3151712119579315,3.5598506927490234,-0.4138340950012207
0.33724015951156616,3.5306684970855713,-0.40961045026779175
0.357028603553772,3.4820396900177,-0.4031646251678467
0.37787672877311707,3.448732614517212,-0.3985289931297302
0.40176916122436523,3.446190595626831,-0.3971497416496277
0.4226993918418884,3.4164774417877197,-0.3926190137863159
0.44334036111831665,3.390536069869995,-0.3885749578475952
0.46372610330581665,3.3644604682922363,-0.38454481959342957
0.4848889112472534,3.3459510803222656,-0.381361722946167
0.5050712823867798,3.323526382446289,-0.37748634815216064
0.5235450267791748,3.289417028427124,-0.37229853868484497
0.5437887907028198,3.2705795764923096,-0.36889392137527466
0.5612501502037048,3.236298084259033,-0.36377695202827454
