X,Y,Z
0.06471756100654602,1.6305127143859863,0.12683962285518646
0.053509801626205444,1.6348086595535278,0.12723088264465332
0.0423458032310009,1.6429206132888794,0.12792570888996124
0.0317915640771389,1.6898972988128662,0.13160936534404755
0.02052563615143299,1.732913851737976,0.13494354486465454
0.03591667115688324,7.55517053604126,0.5882865190505981
-0.016698870807886124,7.5824995040893555,0.5904024243354797
-0.06919354945421219,7.554940223693848,0.5882731080055237
-0.12141619622707367,7.538702011108398,0.5870535373687744
-0.1728125512599945,7.498765468597412,0.5837529301643372
-0.2243914157152176,7.481849670410156,0.5820853114128113
-0.276155561208725,7.452873706817627,0.5795043706893921
-0.3286425471305847,7.466372013092041,0.5802596211433411
-0.27390724420547485,5.3713908195495605,0.4172532856464386
-0.3135495185852051,5.408260345458984,0.4199441969394684
-0.3515000343322754,5.413773536682129,0.4200015068054199
-0.38739821314811707,5.3801374435424805,0.41693270206451416
-0.4234102666378021,5.361845970153809,0.41508522629737854
-0.46057626605033875,5.358831405639648,0.41444092988967896
-0.43722081184387207,4.70404577255249,0.36345696449279785
-0.4616924226284027,4.619560241699219,0.35660845041275024
-0.4932490587234497,4.608523368835449,0.35522767901420593
-0.5222883224487305,4.58186674118042,0.3526182770729065
-0.5528088808059692,4.57050085067749,0.35120686888694763
-0.5815432667732239,4.5434370040893555,0.34860411286354065
-0.6131026148796082,4.53934907913208,0.3477828800678253
-0.642989993095398,4.519539833068848,0.34576719999313354
-0.6711509227752686,4.495833873748779,0.3432328701019287
-0.7031695246696472,4.498904228210449,0.3427536189556122
-0.7302384376525879,4.470991611480713,0.3399323523044586
-0.7599758505821228,4.458211421966553,0.3382736146450043
-0.786845862865448,4.429892539978027,0.33545681834220886
-0.8194120526313782,4.43199348449707,0.3349071443080902
-0.8438022136688232,4.395782470703125,0.3313046097755432
-0.7293241620063782,3.6640734672546387,0.2754456400871277
-0.7544530630111694,3.6590628623962402,0.2743668854236603
-0.7790576815605164,3.6500017642974854,0.2729892432689667
-0.949386715888977,4.2988104820251465,0.32069075107574463
-0.9875891208648682,4.3302693367004395,0.32210972905158997
-1.0134544372558594,4.3083953857421875,0.319446861743927
-1.0427396297454834,4.301515102386475,0.31791412830352783
-1.0724323987960815,4.294323444366455,0.3163575530052185
-1.1008763313293457,4.279191017150879,0.3142077326774597
-1.1246792078018188,4.248931884765625,0.31098663806915283
-1.1494442224502563,4.226276397705078,0.3081469237804413
-1.180228590965271,4.226003170013428,0.30693796277046204
-1.2057727575302124,4.206753730773926,0.3043627142906189
-1.233191728591919,4.190805435180664,0.3020058572292328
-1.259975552558899,4.174818515777588,0.2996843755245209
-1.288511037826538,4.166234016418457,0.2978147566318512
-1.314162254333496,4.150178909301758,0.2953219711780548
-1.3469024896621704,4.156199932098389,0.29440924525260925
-1.3686844110488892,4.12459135055542,0.290791392326355
-1.392333984375,4.100348949432373,0.28773194551467896
-1.4181548357009888,4.0833821296691895,0.28516885638237
-1.4429799318313599,4.06655740737915,0.28246092796325684
-1.470334768295288,4.0569000244140625,0.28026437759399414
-1.5007950067520142,4.054198741912842,0.27853265404701233
-1.524011492729187,4.0290207862854,0.27521762251853943
-1.5548821687698364,4.025722980499268,0.27343353629112244
-1.578993558883667,4.008112907409668,0.2705077826976776
-1.602938175201416,3.990358829498291,0.26759082078933716
-1.613885521888733,3.9398016929626465,0.26247638463974
-1.658249020576477,3.968029022216797,0.26256081461906433
-1.6781028509140015,3.938657522201538,0.258851557970047
-1.7058573961257935,3.931140661239624,0.2564464509487152
-1.730433464050293,3.9162936210632324,0.25357455015182495
-1.7539838552474976,3.8974273204803467,0.2504081428050995
-1.7685173749923706,3.8567378520965576,0.24580299854278564
-1.791561484336853,3.8376569747924805,0.24259181320667267
-1.8169472217559814,3.825882911682129,0.23974865674972534
-1.8388323783874512,3.806928873062134,0.23647239804267883
-1.8618649244308472,3.7872118949890137,0.23305757343769073
-1.8852359056472778,3.767097234725952,0.2295941561460495
-1.906873106956482,3.7476258277893066,0.22611774504184723
-1.942368745803833,3.755906105041504,0.2242863029241562
-1.9642499685287476,3.7358860969543457,0.22069919109344482
-1.9792168140411377,3.701648235321045,0.21624131500720978
-2.0079843997955322,3.695195436477661,0.2133685052394867
-1.7120566368103027,3.101273775100708,0.17687420547008514
-1.729001522064209,3.083078145980835,0.17362989485263824
-0.8308058381080627,1.4575841426849365,0.08099640905857086
-0.8446055054664612,1.4587345123291016,0.07994776964187622
-0.8620121479034424,1.4667283296585083,0.07923468947410583
-0.8680049180984497,1.4541897773742676,0.07735724002122879
-0.8781176805496216,1.448187232017517,0.0758117213845253
-0.8918522000312805,1.4490236043930054,0.07459713518619537
-0.8929241895675659,1.4300726652145386,0.07235506922006607
-0.8943197131156921,1.4108333587646484,0.07005175948143005
-0.8873988389968872,1.3782868385314941,0.06707487255334854
-0.8941083550453186,1.3693640232086182,0.06527666002511978
-0.8944970965385437,1.3505007028579712,0.06298891454935074
-0.9496087431907654,1.412352442741394,0.06433114409446716
-2.401273012161255,3.522066831588745,0.15649078786373138
-1.2698599100112915,1.8367291688919067,0.07945653796195984
-1.3342732191085815,1.9014025926589966,0.07985170185565948
-1.3781473636627197,1.9715505838394165,-0.06112946197390556
-1.3163214921951294,1.9428000450134277,-0.0656902864575386
-1.176016926765442,1.7641379833221436,-0.06196773424744606
-1.2960221767425537,1.9749093055725098,-0.07182653248310089
-1.180370569229126,1.8264840841293335,-0.06859590858221054
-1.2105963230133057,1.9043985605239868,-0.0737537369132042
-1.2484303712844849,1.9958274364471436,-0.07954820990562439
-0.8303982615470886,1.4406085014343262,-0.06472957134246826
-2.1381242275238037,3.772629737854004,-0.17301347851753235
-1.71828293800354,3.081636428833008,-0.14403876662254333
-2.045267343521118,3.730189323425293,-0.17758888006210327
-2.052966594696045,3.810213327407837,-0.18465040624141693
-2.010793924331665,3.7971556186676025,-0.1871856451034546
-1.98074209690094,3.803936004638672,-0.19056259095668793
-1.9336949586868286,3.779729127883911,-0.19227933883666992
-1.872835397720337,3.7272770404815674,-0.19246719777584076
-1.8034813404083252,3.65266489982605,-0.19129881262779236
-1.8132426738739014,3.738931894302368,-0.19859275221824646
-1.5026110410690308,3.156470775604248,-0.16986162960529327
-1.5076905488967896,3.227254867553711,-0.17591838538646698
-1.4884494543075562,3.244611978530884,-0.17902149260044098
-1.4914436340332031,3.3116648197174072,-0.18491990864276886
-1.434430480003357,3.247243642807007,-0.18335913121700287
-1.4136604070663452,3.264692783355713,-0.18642160296440125
-1.3923232555389404,3.277942657470703,-0.18916256725788116
-1.3589184284210205,3.262226104736328,-0.19022394716739655
-1.345826268196106,3.297016143798828,-0.19413433969020844
-1.31191086769104,3.2811291217803955,-0.19505047798156738
-1.264222264289856,3.2285523414611816,-0.1937350034713745
-1.2277599573135376,3.2007200717926025,-0.1938095986843109
-1.184510588645935,3.1544322967529297,-0.1926572173833847
-1.1591805219650269,3.1553916931152344,-0.1943109780550003
-1.1235944032669067,3.1267032623291016,-0.19410941004753113
-1.0962541103363037,3.1197378635406494,-0.19523873925209045
-1.0719201564788818,3.1198127269744873,-0.19676019251346588
-1.0384622812271118,3.093996047973633,-0.19651702046394348
-1.0018092393875122,3.0567407608032227,-0.19552098214626312
-0.972070038318634,3.037569522857666,-0.1956353485584259
-0.9365236759185791,2.9996228218078613,-0.19453871250152588
-0.9153038263320923,3.0060579776763916,-0.19619691371917725
-0.8871791362762451,2.9899821281433105,-0.19632954895496368
-0.8584188222885132,2.9698662757873535,-0.196178138256073
-0.827181339263916,2.9381377696990967,-0.19522398710250854
-0.8005241751670837,2.9211671352386475,-0.1952378898859024
-0.772441565990448,2.9003965854644775,-0.1948588639497757
-0.749921977519989,2.898157835006714,-0.1956971287727356
-0.7219667434692383,2.873016595840454,-0.19497638940811157
-0.6982625722885132,2.8627355098724365,-0.19525007903575897
-0.6746726036071777,2.8522815704345703,-0.19548018276691437
-0.6480439901351929,2.830387592315674,-0.19481724500656128
-0.6179080009460449,2.7891573905944824,-0.19279716908931732
-0.6082141995429993,2.839057207107544,-0.1970760077238083
-0.5805258750915527,2.8049838542938232,-0.19553545117378235
-0.5532683730125427,2.7706854343414307,-0.19389969110488892
-0.5348407626152039,2.782172918319702,-0.19537635147571564
-0.5116522312164307,2.766653060913086,-0.19495221972465515
-0.4896751344203949,2.754732847213745,-0.19477322697639465
-0.46657803654670715,2.734959840774536,-0.19403915107250214
-0.4436804950237274,2.715022325515747,-0.1932123899459839
-0.4254625737667084,2.725771903991699,-0.19450268149375916
-0.4011337459087372,2.693956136703491,-0.1927512288093567
-0.373651921749115,2.634901762008667,-0.18903584778308868
-0.35843294858932495,2.6605563163757324,-0.19140014052391052
-0.3368939459323883,2.6397593021392822,-0.1903436928987503
-0.3151254653930664,2.614938735961914,-0.18892374634742737
-0.29557397961616516,2.609339475631714,-0.1889040470123291
-0.27659738063812256,2.6035454273223877,-0.1888672560453415
-0.2569463849067688,2.5898597240448,-0.1882636845111847
-0.23889416456222534,2.5915558338165283,-0.18869546055793762
-0.22207966446876526,2.608665704727173,-0.1901841014623642
-0.2053191363811493,2.6334586143493652,-0.19225046038627625
-0.18643204867839813,2.627025604248047,-0.19204238057136536
-0.16714701056480408,2.6126818656921387,-0.19126293063163757
-0.14892183244228363,2.6137635707855225,-0.19153517484664917
-0.12951116263866425,2.5913798809051514,-0.1900123953819275
-0.1110801175236702,2.59222149848938,-0.19020330905914307
-0.09333590418100357,2.600703716278076,-0.19096170365810394
-0.07478030771017075,2.585700035095215,-0.19000454246997833
-0.056789711117744446,2.5861496925354004,-0.19011671841144562
-0.03842946141958237,2.5631091594696045,-0.18841928243637085
-0.020447371527552605,2.5866892337799072,-0.190158411860466
-0.002450208179652691,2.5789756774902344,-0.189606174826622
0.015625813975930214,2.6023030281066895,-0.19134540855884552
0.033517226576805115,2.586552858352661,-0.19015751779079437
0.05120629072189331,2.570688247680664,-0.18886467814445496
0.06886287033557892,2.5624918937683105,-0.1881456971168518
0.08698902279138565,2.5619518756866455,-0.18799641728401184
0.1047934740781784,2.561295986175537,-0.1878497451543808
0.1237182542681694,2.5838680267333984,-0.18936531245708466
0.1399158388376236,2.551851511001587,-0.18677397072315216
0.1590617597103119,2.5741727352142334,-0.1881692260503769
0.17670319974422455,2.565234899520874,-0.18728305399417877
0.19513458013534546,2.5717358589172363,-0.18753671646118164
0.21233651041984558,2.56257963180542,-0.18662115931510925
0.231449156999588,2.576605796813965,-0.18727649748325348
0.2507658898830414,2.5904901027679443,-0.18792608380317688
0.2674524188041687,2.5731875896453857,-0.18631479144096375
0.28703007102012634,2.5867931842803955,-0.1869567334651947
0.3040701448917389,2.577035903930664,-0.18589013814926147
0.3237819969654083,2.5903866291046143,-0.18636693060398102
0.34163016080856323,2.588139295578003,-0.1857280731201172
0.35991400480270386,2.585706949234009,-0.18507301807403564
0.3801662027835846,2.5986063480377197,-0.1855287253856659
0.39822545647621155,2.5959479808807373,-0.18485583364963531
0.41367706656455994,2.5778026580810547,-0.18296216428279877
0.43016281723976135,2.5672574043273926,-0.18162274360656738
0.4492935538291931,2.5719470977783203,-0.18136687576770782
0.47656381130218506,2.618600368499756,-0.18405349552631378
0.5034063458442688,2.661240816116333,-0.18642833828926086
0.5186921954154968,2.642488479614258,-0.1843787282705307
0.5430670380592346,2.6694788932800293,-0.18552537262439728
0.5655883550643921,2.6847848892211914,-0.18584874272346497
0.5879096388816833,2.696014642715454,-0.1858741194009781
0.615164041519165,2.729965925216675,-0.18743443489074707
0.6356732845306396,2.7333476543426514,-0.18678069114685059
0.6562347412109375,2.736581325531006,-0.1861218363046646
0.6770780086517334,2.7396109104156494,-0.18544338643550873
0.7089689373970032,2.783935308456421,-0.18753260374069214
0.7262292504310608,2.7715096473693848,-0.18575379252433777
0.7492164373397827,2.781625747680664,-0.18541118502616882
0.7796754837036133,2.8178505897521973,-0.1867956668138504
0.8056672811508179,2.834946632385254,-0.18688015639781952
0.830103874206543,2.844230890274048,-0.1864262968301773
0.8563455939292908,2.860964298248291,-0.1863914281129837
0.886160671710968,2.8886947631835938,-0.1870080828666687
0.9152959585189819,2.912410020828247,-0.18734322488307953
0.9331822395324707,2.8986411094665527,-0.18524707853794098
0.9585988521575928,2.906867504119873,-0.1845414936542511
0.98088538646698,2.9077653884887695,-0.1832635998725891
1.0108047723770142,2.9306299686431885,-0.18335483968257904
1.0180402994155884,2.8869192600250244,-0.17927254736423492
1.0407932996749878,2.887197732925415,-0.17793035507202148
1.0890060663223267,2.9569058418273926,-0.18079759180545807
1.1560813188552856,3.0735466480255127,-0.18633460998535156
1.1881294250488281,3.0948684215545654,-0.18604715168476105
1.2153321504592896,3.1011762619018555,-0.184805765748024
1.2528178691864014,3.1326050758361816,-0.18504193425178528
1.2799181938171387,3.138617515563965,-0.18366223573684692
1.3418869972229004,3.2271296977996826,-0.18700900673866272
1.3762538433074951,3.2466824054718018,-0.18629275262355804
1.1342378854751587,2.624814987182617,-0.14909590780735016
1.1522012948989868,2.6170923709869385,-0.14710143208503723
1.1634072065353394,2.595151662826538,-0.14428454637527466
1.1732696294784546,2.5693931579589844,-0.1412343531847
1.1878583431243896,2.5541915893554688,-0.13877852261066437
1.223771095275879,2.5848608016967773,-0.13878031075000763
1.2410703897476196,2.576714277267456,-0.13662558794021606
1.7632147073745728,3.5985376834869385,-0.18838082253932953
1.7921770811080933,3.5930910110473633,-0.1855468899011612
1.9034156799316406,3.7513327598571777,-0.19107259809970856
1.9427144527435303,3.7664644718170166,-0.1891055852174759
1.3772735595703125,2.6267294883728027,-0.1299465149641037
1.3808454275131226,2.5896453857421875,-0.12613169848918915
1.363227367401123,2.5150463581085205,-0.12054963409900665
1.32179594039917,2.399928092956543,-0.11310364305973053
1.3170530796051025,2.3535654544830322,-0.109011709690094
1.3140957355499268,2.310528039932251,-0.10508596897125244
1.3256723880767822,2.2950010299682617,-0.10242492705583572
1.319030523300171,2.2492902278900146,-0.09844158589839935
1.330750823020935,2.2333998680114746,-0.09568212181329727
1.338074803352356,2.210891008377075,-0.09267253428697586
1.3565807342529297,2.2088537216186523,-0.0905136987566948
1.3548351526260376,2.1733078956604004,-0.08695144951343536
1.38667631149292,2.190290689468384,-0.08540704101324081
1.3802828788757324,2.148162841796875,-0.0815090537071228
1.4029098749160767,2.152218818664551,-0.07939890772104263
1.4070796966552734,2.1262238025665283,-0.07605604827404022
1.4167122840881348,2.1105146408081055,-0.07310572266578674
1.4303985834121704,2.1013565063476562,-0.07035920023918152
1.449708104133606,2.0976812839508057,-0.06756817549467087
1.4543230533599854,2.0755324363708496,-0.06423556059598923
1.467974305152893,2.0659916400909424,-0.061216577887535095
1.4592704772949219,2.024289608001709,-0.05714300647377968
1.4626884460449219,2.002593994140625,-0.0537097230553627
1.4647525548934937,1.976921558380127,-0.04994281381368637
3.1816253662109375,4.450019836425781,0.15669141709804535
3.1723744869232178,4.508985996246338,0.16493771970272064
2.5209102630615234,3.6398017406463623,0.13779127597808838
2.508309841156006,3.6766960620880127,0.14356382191181183
2.4255497455596924,3.614649772644043,0.14533470571041107
3.1506338119506836,4.768527984619141,0.19684313237667084
3.090334177017212,4.75179386138916,0.20114006102085114
3.083469867706299,4.8210039138793945,0.20892901718616486
1.6325970888137817,2.5931239128112793,0.114814892411232
1.6225793361663818,2.617663621902466,0.11827708780765533
3.0369560718536377,4.982770919799805,0.22949354350566864
2.9837827682495117,4.978178024291992,0.23353822529315948
2.9708611965179443,5.03557825088501,0.24024176597595215
2.932135820388794,5.053477764129639,0.24499890208244324
2.811180353164673,4.929220199584961,0.2427075207233429
2.7284867763519287,4.863682270050049,0.24295538663864136
2.680600643157959,4.858839511871338,0.24618946015834808
2.614722490310669,4.823487281799316,0.24763093888759613
2.56956148147583,4.825386047363281,0.25094109773635864
2.510502815246582,4.794590473175049,0.25231942534446716
2.4502124786376953,4.759740829467773,0.2534344494342804
2.388063669204712,4.7255377769470215,0.2544061243534088
2.3323183059692383,4.700891971588135,0.25579872727394104
1.253102421760559,2.5706324577331543,0.14128878712654114
1.2216907739639282,2.5510432720184326,0.14159931242465973
1.2031910419464111,2.559720993041992,0.14339186251163483
1.1762501001358032,2.5506486892700195,0.14416538178920746
1.1545323133468628,2.5518925189971924,0.14550334215164185
1.1635866165161133,2.6204094886779785,0.15066540241241455
1.1294050216674805,2.5927324295043945,0.15027815103530884
2.063138008117676,4.832133769989014,0.2821909189224243
2.0368845462799072,4.868462085723877,0.2864421308040619
2.0126683712005615,4.90787410736084,0.2908513844013214
1.984247088432312,4.9360809326171875,0.2945910394191742
1.9874186515808105,5.047985553741455,0.30323460698127747
2.0096354484558105,5.214953899383545,0.3152328133583069
1.9942129850387573,5.287443161010742,0.32159224152565
1.9715180397033691,5.341527462005615,0.32686373591423035
1.9527827501296997,5.4063191413879395,0.33280643820762634
1.908710241317749,5.40533447265625,0.33451977372169495
1.8937995433807373,5.488853454589844,0.34146013855934143
1.8708066940307617,5.550092697143555,0.34704795479774475
1.836313247680664,5.577861309051514,0.35056930780410767
1.9072524309158325,5.931854724884033,0.3746921718120575
1.8742173910140991,5.974915504455566,0.3790895938873291
1.8574657440185547,6.073826789855957,0.38703253865242004
1.8263667821884155,6.127857208251953,0.39215731620788574
1.8010563850402832,6.200173854827881,0.39845985174179077
1.7644665241241455,6.238889694213867,0.4026773273944855
1.7388429641723633,6.318744659423828,0.4093705117702484
1.7087440490722656,6.3873610496521,0.4152558743953705
1.6669049263000488,6.414374828338623,0.41847583651542664
0.822536051273346,3.2582035064697266,0.21329787373542786
1.5608006715774536,6.372518062591553,0.4186480641365051
0.801779568195343,3.3755199909210205,0.22249005734920502
1.4637340307235718,6.363256454467773,0.4205852150917053
1.3971967697143555,6.278274059295654,0.41613659262657166
1.3497058153152466,6.272586822509766,0.4169296622276306
1.3052321672439575,6.2818708419799805,0.41874396800994873
1.2438600063323975,6.2027812004089355,0.4146498143672943
1.1934142112731934,6.1768574714660645,0.41386234760284424
1.133236289024353,6.096922874450684,0.40938130021095276
1.0886390209197998,6.097029685974121,0.4102814793586731
1.0487024784088135,6.123703479766846,0.4129917621612549
1.0048130750656128,6.123064041137695,0.413865327835083
0.9554477334022522,6.0874762535095215,0.4123411476612091
0.9055269360542297,6.047741889953613,0.4102836549282074
0.8567649126052856,6.011466979980469,0.40847185254096985
0.8127227425575256,6.009641170501709,0.40902432799339294
0.6475229859352112,5.052512168884277,0.34445032477378845
0.6231765747070312,5.145817279815674,0.3514064848423004
0.592037558555603,5.19258975982666,0.3550938069820404
0.5539030432701111,5.181075096130371,0.3546668589115143
0.1625678837299347,1.6287310123443604,0.11161226779222488
0.15097856521606445,1.62983238697052,0.11181345582008362
0.14160726964473724,1.6541293859481812,0.11361075937747955
0.13131070137023926,1.670601725578308,0.11487910151481628
0.11739915609359741,1.640372395515442,0.11287973076105118
0.11041814833879471,1.7111488580703735,0.11780989915132523
0.09685853868722916,1.6885416507720947,0.11631938070058823
0.08432507514953613,1.6735984086990356,0.11535926908254623
0.06879280507564545,1.584589958190918,0.10929485410451889
0.059187062084674835,1.623966932296753,0.11208879947662354
0.04913700744509697,1.6671855449676514,0.11508218199014664
0.03729709982872009,1.6674906015396118,0.11510806530714035
0.026139432564377785,1.698880672454834,0.11728552728891373
0.014828646555542946,1.757472038269043,0.12134724855422974
0.011301564052700996,7.58738899230957,0.5239801406860352
-0.0414130873978138,7.587276458740234,0.524088978767395
-0.09458081424236298,7.5517449378967285,0.5213804244995117
-0.14655521512031555,7.527547836303711,0.5194860100746155
-0.19819822907447815,7.502994537353516,0.5175933837890625
-0.24893377721309662,7.458611011505127,0.514359176158905
-0.3011036217212677,7.46450662612915,0.514617919921875
-0.35296595096588135,7.462257385253906,0.5142784714698792
-0.2951122224330902,5.428370952606201,0.37374353408813477
-0.3321629464626312,5.418455123901367,0.37272101640701294
-0.36760810017585754,5.384950160980225,0.3700951635837555
-0.40499842166900635,5.382299900054932,0.36960911750793457
-0.44178542494773865,5.371618270874023,0.3685893714427948
-0.4744313955307007,5.310186386108398,0.36401185393333435
-0.44561994075775146,4.62797212600708,0.31678348779678345
-0.4763249456882477,4.613204479217529,0.315324991941452
-0.506466805934906,4.594354629516602,0.3136045038700104
-0.5366017818450928,4.575282573699951,0.3118836283683777
-0.5680098533630371,4.563680648803711,0.3106823265552521
-0.5984975099563599,4.551973342895508,0.309379905462265
-0.6255143284797668,4.516924858093262,0.3063993453979492
-0.6559605598449707,4.508724689483643,0.30525997281074524
-0.6859155297279358,4.496439456939697,0.30385664105415344
-0.7164024114608765,4.483850002288818,0.3024372458457947
-0.7461664080619812,4.47114896774292,0.30103740096092224
-0.7754690051078796,4.458319187164307,0.29947108030319214
-0.8058587908744812,4.452999591827393,0.29837003350257874
-0.8333747386932373,4.432142734527588,0.29624322056770325
-0.8529042601585388,4.368943214416504,0.29130080342292786
-0.7437208294868469,3.671384811401367,0.2441859245300293
-0.769212007522583,3.666191339492798,0.24324378371238708
-0.945465087890625,4.358064651489258,0.28826770186424255
-0.9717869162559509,4.33637809753418,0.28596803545951843
-1.003252387046814,4.337294578552246,0.28517022728919983
-1.03026282787323,4.31501579284668,0.2828364968299866
-1.0583345890045166,4.300273895263672,0.2810303568840027
-1.0782804489135742,4.255202770233154,0.2771545648574829
-1.1130058765411377,4.270526885986328,0.27712154388427734
-1.1399180889129639,4.255448341369629,0.2751246988773346
-1.1656831502914429,4.232390403747559,0.27259260416030884
-1.192986249923706,4.216771602630615,0.2705695927143097
-1.222307801246643,4.208465099334717,0.2690211236476898
-1.2452174425125122,4.181515693664551,0.26612424850463867
-1.2735085487365723,4.173094272613525,0.26442405581474304
-1.302466630935669,4.164257526397705,0.26268014311790466
-1.3265661001205444,4.140377998352051,0.26000574231147766
-1.3552590608596802,4.131183624267578,0.2582702934741974
-1.3758084774017334,4.099828720092773,0.2550407350063324
-1.403343677520752,4.090602874755859,0.253156840801239
-1.4231477975845337,4.059085845947266,0.24990852177143097
-1.4518816471099854,4.049018383026123,0.24793337285518646
-1.4827262163162231,4.0462517738342285,0.24643883109092712
-1.510311245918274,4.036159992218018,0.24441248178482056
-1.5290285348892212,4.0041937828063965,0.24100349843502045
-1.5615416765213013,4.008499622344971,0.23979119956493378
-1.5841593742370605,3.982961416244507,0.236722931265831
-1.6103854179382324,3.9683492183685303,0.2343505620956421
-1.6373881101608276,3.9574155807495117,0.23211824893951416
-1.66835355758667,3.9572975635528564,0.23046086728572845
-1.6872047185897827,3.928212881088257,0.22712181508541107
-1.7149083614349365,3.91633677482605,0.2247115820646286
-1.7420790195465088,3.9044623374938965,0.22234050929546356
-1.771464467048645,3.899928569793701,0.22028683125972748
-1.7907565832138062,3.87406325340271,0.21700775623321533
-1.8135569095611572,3.85496187210083,0.2140950858592987
-1.8307307958602905,3.8210413455963135,0.2102915495634079
-1.8605355024337769,3.815443992614746,0.208075612783432
-1.8788158893585205,3.7892086505889893,0.20464421808719635
-1.9003427028656006,3.769865036010742,0.20160505175590515
-1.92640221118927,3.7567639350891113,0.19882048666477203
-1.952509880065918,3.7434091567993164,0.19602088630199432
-1.970516324043274,3.716456174850464,0.19239182770252228
-1.9985764026641846,3.7104573249816895,0.18987150490283966
-2.0463452339172363,3.737957000732422,0.18895648419857025
-1.7194008827209473,3.089473009109497,0.1542050838470459
-1.7362362146377563,3.071209192276001,0.15127703547477722
-0.8472394347190857,1.4756970405578613,0.07168171554803848
-0.8533247709274292,1.4632203578948975,0.07005287706851959
-0.8674675822257996,1.4640246629714966,0.0690392255783081
-0.8731014728546143,1.451633095741272,0.0673772469162941
-0.8906204104423523,1.4593361616134644,0.0666348934173584
-0.8967099785804749,1.4464918375015259,0.06486272811889648
-0.9025548696517944,1.4337002038955688,0.06311005353927612
-0.8991754055023193,1.408173680305481,0.06079888343811035
-0.90421462059021,1.3957126140594482,0.05904744565486908
-0.9224787354469299,1.4025027751922607,0.058043040335178375
-0.9361240267753601,1.402894139289856,0.05671316757798195
-2.4217512607574463,3.579669237136841,0.14126762747764587
-1.3416334390640259,1.9535804986953735,0.07502168416976929
-1.4080779552459717,2.0216519832611084,0.07545968890190125
-1.3781908750534058,1.95209538936615,0.07071878015995026
-1.2566348314285278,1.7851072549819946,-0.048401638865470886
-1.6690807342529297,2.4067771434783936,-0.06828194856643677
-1.3474825620651245,1.9738199710845947,-0.058421917259693146
-1.2500486373901367,1.8605115413665771,-0.057270534336566925
-1.299518346786499,1.9635591506958008,-0.06261356174945831
-1.2184474468231201,1.8718982934951782,-0.061760175973176956
-1.4280980825424194,2.229126214981079,-0.07585225999355316
-1.2312673330307007,1.9516445398330688,-0.06833507865667343
-0.8216937184333801,1.4368795156478882,-0.05797119438648224
-2.1107499599456787,3.7529826164245605,-0.15438705682754517
-1.691741943359375,3.0612964630126953,-0.128353551030159
-2.0558922290802,3.7830188274383545,-0.1614219695329666
-2.0331716537475586,3.803987741470337,-0.16508647799491882
-2.012644052505493,3.8323867321014404,-0.1690322458744049
-1.9739171266555786,3.825995922088623,-0.17143265902996063
-1.9308395385742188,3.808427333831787,-0.17323364317417145
-1.886620044708252,3.7868266105651855,-0.17475278675556183
-1.8795667886734009,3.8423972129821777,-0.1797599345445633
-1.8704135417938232,3.894397497177124,-0.1846345216035843
-1.824890375137329,3.8683817386627197,-0.18574190139770508
-1.6106359958648682,3.477311134338379,-0.1690385788679123
-1.5574864149093628,3.428579092025757,-0.16866672039031982
-1.6154109239578247,3.624901294708252,-0.1803755909204483
-1.4494041204452515,3.314174175262451,-0.16672852635383606
-1.4077074527740479,3.2810919284820557,-0.1668422371149063
-1.3900423049926758,3.3054404258728027,-0.16977547109127045
-1.3687734603881836,3.3226304054260254,-0.17238591611385345
-1.3631230592727661,3.3753886222839355,-0.1767919659614563
-1.3640073537826538,3.4463517665863037,-0.18221014738082886
-1.3477569818496704,3.4777443408966064,-0.1854773908853531
-1.3200048208236694,3.4799160957336426,-0.18718770146369934
-1.3127349615097046,3.5366992950439453,-0.1918584257364273
-1.2627660036087036,3.4759767055511475,-0.1901126205921173
-1.2355858087539673,3.477344512939453,-0.19166752696037292
-1.1889278888702393,3.4233431816101074,-0.19008290767669678
-1.1445218324661255,3.3724982738494873,-0.1886245310306549
-1.1046607494354248,3.3322818279266357,-0.18772217631340027
-1.0838459730148315,3.347212314605713,-0.18989640474319458
-1.048223853111267,3.3175625801086426,-0.18940369784832
-1.009626865386963,3.2763986587524414,-0.18823078274726868
-0.9754083752632141,3.2459535598754883,-0.1876334697008133
-0.9473069310188293,3.2338616847991943,-0.18807829916477203
-0.9178192615509033,3.217939615249634,-0.18826067447662354
-0.8970204591751099,3.2318148612976074,-0.190073624253273
-0.8578033447265625,3.1777756214141846,-0.18788428604602814
-0.8326616883277893,3.172283172607422,-0.18853485584259033
-0.8105561137199402,3.1779251098632812,-0.18985162675380707
-0.784030556678772,3.168431043624878,-0.19019432365894318
-0.7542932629585266,3.143498659133911,-0.18953219056129456
-0.7206127047538757,3.099297285079956,-0.1876935362815857
-0.6973025798797607,3.0965638160705566,-0.18834921717643738
-0.6774124503135681,3.1088898181915283,-0.1899290531873703
-0.6438834071159363,3.0601806640625,-0.1876743584871292
-0.6268964409828186,3.0875232219696045,-0.19004008173942566
-0.5939603447914124,3.0343942642211914,-0.18745015561580658
-0.575010359287262,3.0498886108398438,-0.18909162282943726
-0.551725447177887,3.0422418117523193,-0.1893065869808197
-0.5259840488433838,3.023005723953247,-0.18867208063602448
-0.50341796875,3.018892765045166,-0.18895460665225983
-0.4798124432563782,3.0068955421447754,-0.1887461245059967
-0.45532917976379395,2.986992835998535,-0.18804089725017548
-0.4367794990539551,3.005474090576172,-0.18975913524627686
-0.4110138416290283,2.9775853157043457,-0.18842320144176483
-0.3885408639907837,2.968768835067749,-0.18827314674854279
-0.3667955696582794,2.9636406898498535,-0.1883615255355835
-0.3416818380355835,2.927359104156494,-0.18646925687789917
-0.3187902569770813,2.906374454498291,-0.18555162847042084
-0.29727816581726074,2.8968698978424072,-0.18523238599300385
-0.2751658856868744,2.883364200592041,-0.1846466362476349
-0.25295668840408325,2.861891508102417,-0.1835508644580841
-0.22892330586910248,2.81304669380188,-0.18070003390312195
-0.20960523188114166,2.81843638420105,-0.18133753538131714
-0.19096197187900543,2.8353724479675293,-0.18260176479816437
-0.1712486445903778,2.8444266319274902,-0.18333850800991058
-0.1522119641304016,2.8611087799072266,-0.18457436561584473
-0.13194754719734192,2.854295253753662,-0.18430320918560028
-0.11211661249399185,2.855128288269043,-0.1845339983701706
-0.09247113764286041,2.8636245727539062,-0.18515819311141968
-0.07197046279907227,2.856409788131714,-0.18472732603549957
-0.052217502146959305,2.8646316528320312,-0.1853032261133194
-0.032554931938648224,2.888308048248291,-0.18688826262950897
-0.012321846559643745,2.8494794368743896,-0.18443745374679565
0.007495327852666378,2.8572936058044434,-0.18492038547992706
0.027781004086136818,2.864971160888672,-0.185332253575325
0.047452252358198166,2.8491244316101074,-0.18423298001289368
0.0681927502155304,2.8877010345458984,-0.18666136264801025
0.08732778578996658,2.855992555618286,-0.18455521762371063
0.10659082233905792,2.839745283126831,-0.18338730931282043
0.1266484558582306,2.8467414379119873,-0.18364253640174866
0.145533487200737,2.822434663772583,-0.181885227560997
0.1660853773355484,2.836935520172119,-0.18264086544513702
0.18631094694137573,2.84350848197937,-0.18289369344711304
0.20406882464885712,2.8149497509002686,-0.18084608018398285
0.2223300188779831,2.79794979095459,-0.1794494241476059
0.24270352721214294,2.804108142852783,-0.17954261600971222
0.2614477276802063,2.7946174144744873,-0.1786467283964157
0.28241226077079773,2.808274984359741,-0.1792384386062622
0.3056609034538269,2.841158390045166,-0.18102629482746124
0.3234867751598358,2.823523998260498,-0.17948465049266815
0.3471069931983948,2.8521742820739746,-0.18088370561599731
0.36884984374046326,2.865203380584717,-0.1813003569841385
0.39084064960479736,2.878060817718506,-0.18170948326587677
0.4108208417892456,2.875314474105835,-0.1811164915561676
0.4317578077316284,2.8801753520965576,-0.18087589740753174
0.4549492597579956,2.8963844776153564,-0.18134184181690216
0.47249987721443176,2.8778159618377686,-0.1796438992023468
0.49910828471183777,2.9129319190979004,-0.18129956722259521
0.5180049538612366,2.9017574787139893,-0.18006005883216858
0.5465242862701416,2.9441776275634766,-0.1820143163204193
0.5690101385116577,2.9518840312957764,-0.1818179190158844
0.5913235545158386,2.955505847930908,-0.18135926127433777
0.6134602427482605,2.9590115547180176,-0.1809072047472
0.6405436992645264,2.985236644744873,-0.1818259060382843
0.6610122323036194,2.9808361530303955,-0.18076150119304657
0.6814503073692322,2.976294755935669,-0.17969708144664764
0.7113852500915527,3.0094330310821533,-0.18088456988334656
0.7350712418556213,3.0158438682556152,-0.18047195672988892
0.7616519331932068,3.0334384441375732,-0.18069782853126526
0.7843511700630188,3.0357789993286133,-0.17990374565124512
0.8110979795455933,3.0530333518981934,-0.17999383807182312
0.8387855887413025,3.0698835849761963,-0.1800251305103302
0.8580595850944519,3.0565266609191895,-0.17830047011375427
0.8813252449035645,3.058095693588257,-0.17740397155284882
0.9209784269332886,3.1156744956970215,-0.17965461313724518
0.9546969532966614,3.1504502296447754,-0.18056081235408783
0.976959228515625,3.143704652786255,-0.17904351651668549
1.0059131383895874,3.159215211868286,-0.17881304025650024
0.986473798751831,3.026231050491333,-0.17015379667282104
0.981103241443634,2.9418342113494873,-0.164273202419281
1.0100085735321045,2.9609856605529785,-0.16419582068920135
1.0409127473831177,2.9834225177764893,-0.16426390409469604
1.2023462057113647,3.3691837787628174,-0.18415509164333344
1.2252126932144165,3.361039161682129,-0.18226104974746704
1.2507356405258179,3.3600542545318604,-0.18075840175151825
1.2738703489303589,3.3514554500579834,-0.17882975935935974
1.3084203004837036,3.3717236518859863,-0.178425595164299
1.3506265878677368,3.4097628593444824,-0.17885836958885193
1.4013396501541138,3.4694294929504395,-0.18034783005714417
1.445648193359375,3.5104622840881348,-0.18080922961235046
1.4761409759521484,3.514798879623413,-0.17931120097637177
1.0997213125228882,2.5683231353759766,-0.12976501882076263
1.1438320875167847,2.6216118335723877,-0.13107311725616455
1.1487962007522583,2.585402250289917,-0.12791892886161804
1.1666648387908936,2.5774757862091064,-0.12614840269088745
1.184572458267212,2.5693817138671875,-0.12436845898628235
1.208519458770752,2.575547218322754,-0.12322571873664856
1.2327512502670288,2.5814366340637207,-0.12201695889234543
1.2214577198028564,2.5133213996887207,-0.1173287183046341
1.9552899599075317,3.9531748294830322,-0.18219749629497528
1.2295434474945068,2.4441869258880615,-0.11116005480289459
1.2209242582321167,2.3873729705810547,-0.10709817707538605
1.2750766277313232,2.4517557621002197,-0.10841993987560272
1.2796310186386108,2.4186010360717773,-0.105350561439991
1.2810947895050049,2.382513999938965,-0.10218542069196701
1.2706714868545532,2.32608699798584,-0.09818959981203079
1.2942185401916504,2.331028461456299,-0.09675364941358566
1.3008052110671997,2.3050568103790283,-0.09402326494455338
1.3162769079208374,2.2963404655456543,-0.09195538610219955
1.31965970993042,2.2674174308776855,-0.08911535888910294
1.3234648704528809,2.238110065460205,-0.08621001243591309
1.3386834859848022,2.229121446609497,-0.08409303426742554
1.3410338163375854,2.20039963722229,-0.08122916519641876
1.3603111505508423,2.197805166244507,-0.07924256473779678
1.3568588495254517,2.1586225032806396,-0.07594822347164154
1.3729509115219116,2.153132200241089,-0.07385572791099548
1.3956941366195679,2.157163619995117,-0.07203246653079987
1.4107110500335693,2.1474521160125732,-0.06964058429002762
1.4098272323608398,2.115338087081909,-0.0665021762251854
1.4346532821655273,2.1222639083862305,-0.06459001451730728
1.4383113384246826,2.0962252616882324,-0.061560094356536865
1.4562129974365234,2.09342360496521,-0.059217073023319244
1.4610247611999512,2.0710532665252686,-0.056234441697597504
1.4617693424224854,2.041851758956909,-0.05294002965092659
1.4608110189437866,2.0137274265289307,-0.049766890704631805
1.4699925184249878,1.9974151849746704,-0.0466877818107605
3.169490098953247,4.468876361846924,0.13790585100650787
3.11838698387146,4.466451644897461,0.14302851259708405
2.593271255493164,3.770754814147949,0.12482273578643799
3.160801410675049,4.673815727233887,0.15972952544689178
3.1426477432250977,4.7187323570251465,0.16581760346889496
3.1171224117279053,4.754134178161621,0.17150117456912994
3.0934739112854004,4.7972636222839355,0.17744654417037964
1.6218403577804565,2.5544283390045166,0.09663485735654831
1.6322400569915771,2.6123757362365723,0.10100314766168594
1.6043130159378052,2.611208915710449,0.10303202271461487
2.9327309131622314,4.850898265838623,0.195047527551651
2.827042579650879,4.750236988067627,0.19443796575069427
2.775979518890381,4.743937015533447,0.19748865067958832
2.7712905406951904,4.81868839263916,0.20395924150943756
2.4934189319610596,4.406300067901611,0.18933652341365814
2.4658429622650146,4.430574893951416,0.19317837059497833
2.457157611846924,4.493166446685791,0.19863329827785492
2.43923282623291,4.538250923156738,0.20330415666103363
2.452516794204712,4.641587734222412,0.21060162782669067
2.4750654697418213,4.766211032867432,0.2188781350851059
2.4149558544158936,4.735538005828857,0.21997684240341187
2.3649415969848633,4.72130823135376,0.22175399959087372
2.3147566318511963,4.702508449554443,0.22320665419101715
1.2296305894851685,2.5438973903656006,0.122004434466362
1.2126187086105347,2.556293487548828,0.12377896159887314
1.189043641090393,2.554358720779419,0.1248542070388794
1.1792941093444824,2.580268383026123,0.12725213170051575
1.1500921249389648,2.5634307861328125,0.12754365801811218
1.1518336534500122,2.618093252182007,0.13132694363594055
2.0716116428375244,4.805098056793213,0.24300117790699005
2.046715021133423,4.84105110168457,0.2467101812362671
2.0278680324554443,4.891110420227051,0.25114625692367554
2.0005619525909424,4.923275470733643,0.25462955236434937
1.97922682762146,4.973780632019043,0.2589709758758545
2.025951623916626,5.202642917633057,0.27273398637771606
2.000840425491333,5.245640754699707,0.2767448127269745
1.9847387075424194,5.3141374588012695,0.2821446359157562
1.9576046466827393,5.357306003570557,0.2861170172691345
1.929444670677185,5.400540828704834,0.29003673791885376
1.8873779773712158,5.406993865966797,0.2920246124267578
1.8835740089416504,5.5196099281311035,0.2997165620326996
1.8487173318862915,5.5435943603515625,0.30264055728912354
1.8889119625091553,5.801308631896973,0.31826484203338623
1.8943352699279785,5.963348388671875,0.3286758363246918
1.8657541275024414,6.025331497192383,0.3336610496044159
1.8395986557006836,6.090315341949463,0.33878055214881897
1.8115265369415283,6.151479721069336,0.3437292277812958
1.7788426876068115,6.201480388641357,0.34795552492141724
1.748108148574829,6.262762069702148,0.3527244031429291
1.71352219581604,6.312623023986816,0.35688653588294983
1.6835246086120605,6.381100177764893,0.3621324300765991
1.6526347398757935,6.445442199707031,0.36715587973594666
0.810339629650116,3.254862070083618,0.18607325851917267
1.5449336767196655,6.399692058563232,0.3669593930244446
0.7878558039665222,3.3685145378112793,0.1937388777732849
1.433591365814209,6.333411693572998,0.3653896152973175
1.371903657913208,6.263145923614502,0.3624337911605835
1.3282320499420166,6.272457122802734,0.36408641934394836
1.2806732654571533,6.2663350105285645,0.36463701725006104
1.2135275602340698,6.160400390625,0.3593343198299408
1.1646708250045776,6.145928859710693,0.35937994718551636
1.121895670890808,6.153802871704102,0.36071425676345825
1.067690134048462,6.096067428588867,0.3582095205783844
1.025065541267395,6.103306770324707,0.3594479262828827
0.9831689596176147,6.118032932281494,0.36095210909843445
0.9332945346832275,6.086328029632568,0.3597426414489746
0.8742874264717102,5.980755805969238,0.3541523516178131
0.8277814984321594,5.951878547668457,0.35310110449790955
0.6950281858444214,5.265425682067871,0.3129725754261017
0.6305662989616394,5.0495686531066895,0.30056989192962646
0.6114425659179688,5.193258762359619,0.30949917435646057
0.5733616948127747,5.189716339111328,0.3096860647201538
0.16328729689121246,1.5786207914352417,0.09432321786880493
0.1593981832265854,1.6534538269042969,0.09892706573009491
0.1447707712650299,1.619555950164795,0.09703309834003448
0.130203515291214,1.5816631317138672,0.09482414275407791
0.1160016730427742,1.543661117553711,0.09260906279087067
0.11047878861427307,1.6222344636917114,0.0973929837346077
0.09871276468038559,1.6151728630065918,0.09704293310642242
0.08706659823656082,1.6080256700515747,0.09669158607721329
0.07549788057804108,1.600797176361084,0.09632449597120285
0.06192982569336891,1.5467454195022583,0.09308906644582748
0.05100530385971069,1.5432401895523071,0.09289933741092682
0.04216475412249565,1.6176153421401978,0.09740352630615234
0.03293606638908386,1.7231253385543823,0.10379035025835037
0.021389417350292206,1.7583996057510376,0.10595446825027466
0.038821253925561905,7.622791290283203,0.45936256647109985
-0.014180638827383518,7.591691493988037,0.4573476314544678
-0.06670548766851425,7.564124584197998,0.4555688202381134
-0.1189093142747879,7.540094375610352,0.4540257751941681
-0.17068123817443848,7.507906436920166,0.45201393961906433
-0.22205086052417755,7.479264259338379,0.45023807883262634
-0.27463093400001526,7.469736576080322,0.4494091272354126
-0.32680273056030273,7.475471496582031,0.4493843615055084
-0.2740341126918793,5.409107208251953,0.3249141573905945
-0.3129113018512726,5.430453777313232,0.32595881819725037
-0.349584698677063,5.4126081466674805,0.3246663510799408
-0.38729166984558105,5.4022440910339355,0.32383549213409424
-0.42212292551994324,5.368376731872559,0.32142260670661926
-0.4591199457645416,5.365374565124512,0.3208320140838623
-0.435026615858078,4.70204496383667,0.28081995248794556
-0.4603286683559418,4.625217914581299,0.27590057253837585
-0.4913827180862427,4.606367111206055,0.27445337176322937
-0.5224643349647522,4.595127105712891,0.27347317337989807
-0.5512853860855103,4.568235397338867,0.27138054370880127
-0.5816910266876221,4.556643486022949,0.27021366357803345
-0.6120086312294006,4.544842720031738,0.26904815435409546
-0.6408559083938599,4.517277717590332,0.2669530510902405
-0.6716817021369934,4.5088958740234375,0.26601526141166687
-0.7004379034042358,4.4887776374816895,0.26433804631233215
-0.7311534285545349,4.4839301109313965,0.2634332776069641
-0.7618793845176697,4.478864669799805,0.2625272572040558
-0.7873014807701111,4.442838668823242,0.25981950759887695
-0.8159140944480896,4.421865463256836,0.25799503922462463
-0.8437087535858154,4.400816917419434,0.256193608045578
-0.7286666035652161,3.6643893718719482,0.21274809539318085
-0.7545050978660583,3.663191795349121,0.21205423772335052
-0.7795130610466003,3.6580045223236084,0.21113957464694977
-0.9471654891967773,4.296136379241943,0.24723850190639496
-0.9821444749832153,4.312341690063477,0.24745526909828186
-1.0173449516296387,4.328279495239258,0.24764767289161682
-1.0430442094802856,4.306180000305176,0.24551287293434143
-1.0628269910812378,4.261224746704102,0.2420968860387802
-1.0836926698684692,4.219806671142578,0.2388877272605896
-1.1189806461334229,4.234869003295898,0.23888994753360748
-1.1555125713348389,4.253419399261475,0.23909179866313934
-1.1825007200241089,4.237974643707275,0.23728692531585693
-1.2111457586288452,4.229957580566406,0.235845685005188
-1.2303831577301025,4.187906265258789,0.23250702023506165
-1.2639201879501343,4.194287300109863,0.231866255402565
-1.2884700298309326,4.170563697814941,0.22956982254981995
-1.317226767539978,4.161653995513916,0.22805732488632202
-1.3429001569747925,4.145328998565674,0.22602926194667816
-1.3664358854293823,4.121284008026123,0.22357745468616486
-1.3972232341766357,4.119277000427246,0.2223338484764099
-1.420668363571167,4.094825744628906,0.21987974643707275
-1.4385111331939697,4.055580139160156,0.2166435271501541
-1.4710228443145752,4.060597896575928,0.21565333008766174
-1.4955453872680664,4.043405532836914,0.2134910225868225
-1.523598074913025,4.033015251159668,0.211656853556633
-1.5459617376327515,4.007869243621826,0.2090631127357483
-1.570854902267456,3.9898884296417236,0.2068532258272171
-1.5975205898284912,3.979387044906616,0.20491155982017517
-1.6196494102478027,3.957886219024658,0.20241820812225342
-1.6441749334335327,3.939408779144287,0.2000368982553482
-1.6685539484024048,3.920767068862915,0.19766047596931458
-1.6800894737243652,3.8734426498413086,0.19383668899536133
-1.7154147624969482,3.8836424350738525,0.19280293583869934
-1.7509198188781738,3.8935563564300537,0.19174841046333313
-1.7749625444412231,3.874180793762207,0.1891757994890213
-1.795274019241333,3.847698926925659,0.18628892302513123
-1.8312968015670776,3.8567309379577637,0.18505918979644775
-1.8500217199325562,3.8305654525756836,0.1820899099111557
-1.8825627565383911,3.832188844680786,0.180428147315979
-1.902664303779602,3.804917335510254,0.17731869220733643
-1.9112293720245361,3.7569963932037354,0.1732976883649826
-1.9323763847351074,3.73749041557312,0.17052723467350006
-1.9515334367752075,3.7144126892089844,0.16760990023612976
-1.9827220439910889,3.7112553119659424,0.1655055284500122
-2.0159289836883545,3.7112152576446533,0.1635272353887558
-1.7125970125198364,3.103081464767456,0.1349795013666153
-1.7252240180969238,3.0782878398895264,0.13218066096305847
-1.7387126684188843,3.0528323650360107,0.1292789876461029
-0.8526017665863037,1.473065972328186,0.06149512901902199
-0.8582996129989624,1.4607526063919067,0.06006627902388573
-0.8679730296134949,1.455073356628418,0.05889764800667763
-0.8740373849868774,1.4423660039901733,0.05740544945001602
-0.8880413174629211,1.4430112838745117,0.05644092336297035
-0.897363543510437,1.4372806549072266,0.05520318076014519
-0.9110704660415649,1.4379323720932007,0.05418149381875992
-0.9137948751449585,1.3804945945739746,0.04876115918159485
-2.3695075511932373,3.526071548461914,0.12146033346652985
-1.1811749935150146,1.7088937759399414,0.05577709525823593
-1.51587975025177,2.161094903945923,0.06839392334222794
-1.2240797281265259,1.7508238554000854,-0.04256407544016838
-1.303552269935608,1.8952631950378418,-0.048202622681856155
-1.3316450119018555,1.9658688306808472,-0.05202516168355942
-1.2295464277267456,1.8742419481277466,-0.053265929222106934
-1.3181867599487305,2.040144443511963,-0.059806082397699356
-1.2862555980682373,2.023441791534424,-0.061095550656318665
-0.8151537179946899,1.346015453338623,-0.04394708573818207
-0.8797323107719421,1.5523544549942017,-0.05522148683667183
-1.1539362668991089,2.069997549057007,-0.07500913739204407
-1.6744433641433716,3.053591012954712,-0.11264550685882568
-2.0149447917938232,3.7393596172332764,-0.14030800759792328
-2.0146853923797607,3.8057773113250732,-0.14520655572414398
-1.980918049812317,3.805758476257324,-0.1474667340517044
-1.953935980796814,3.8195741176605225,-0.1502331793308258
-1.9137678146362305,3.809192419052124,-0.1519933044910431
-1.8933840990066528,3.8366785049438477,-0.15522514283657074
