X,Y,Z
1.1420104503631592,1.993232011795044,-0.22900432348251343
1.1832685470581055,2.0329909324645996,-0.2278618961572647
1.2426116466522217,2.1026110649108887,-0.2297075241804123
1.2993483543395996,2.1646575927734375,-0.23014894127845764
1.3146895170211792,2.15614652633667,-0.22280119359493256
1.3520262241363525,2.184213638305664,-0.2190074920654297
1.3669670820236206,2.1756417751312256,-0.21145504713058472
1.3740088939666748,2.1534957885742188,-0.2023889720439911
1.378073811531067,2.128448009490967,-0.1931634545326233
1.7816162109375,2.712459087371826,-0.2373068928718567
1.8595253229141235,2.7879703044891357,-0.23406580090522766
1.8064090013504028,2.669583320617676,-0.21480228006839752
1.8660043478012085,2.719414472579956,-0.20921865105628967
1.885219931602478,2.7069733142852783,-0.19798745214939117
1.4421964883804321,2.04195499420166,-0.14154662191867828
1.4605510234832764,2.0390625,-0.13321499526500702
1.456599473953247,2.004005193710327,-0.12249954044818878
1.4649871587753296,1.9887279272079468,-0.11315097659826279
2.2947757244110107,3.2480416297912598,0.4642143249511719
2.6181907653808594,3.763111114501953,0.549993097782135
2.58604097366333,3.773798942565918,0.563179612159729
1.5331088304519653,2.2755725383758545,0.34645259380340576
1.5245552062988281,2.298722267150879,0.356312096118927
1.5164567232131958,2.3214149475097656,0.3659251034259796
1.5590242147445679,2.4264140129089355,0.38854625821113586
1.6310234069824219,2.581195116043091,0.4196564555168152
1.587638020515442,2.552354574203491,0.4207916259765625
3.0368878841400146,4.960456371307373,0.8287398815155029
2.990267515182495,4.968320846557617,0.8404523134231567
2.9642651081085205,5.008530616760254,0.8574597239494324
2.9614553451538086,5.084129333496094,0.8801209330558777
2.9313745498657227,5.117062568664551,0.8955883979797363
2.9071409702301025,5.164126396179199,0.9129450917243958
2.882718563079834,5.210885524749756,0.930310070514679
2.865757942199707,5.266480445861816,0.9488458633422852
2.8353991508483887,5.298241138458252,0.9632188081741333
2.812490940093994,5.351902008056641,0.9811559915542603
2.7876596450805664,5.401829719543457,0.9983551502227783
2.772658109664917,5.468045234680176,1.0183993577957153
2.759493112564087,5.537296772003174,1.0390191078186035
1.2411799430847168,2.5353970527648926,0.47917917370796204
1.2150554656982422,2.5300283432006836,0.4813968539237976
1.1894251108169556,2.524266481399536,0.483474999666214
1.187522530555725,2.5667598247528076,0.49468547105789185
1.1597570180892944,2.553227186203003,0.4951165020465851
1.1663600206375122,2.6168789863586426,0.5104492902755737
2.5814943313598633,5.908143997192383,1.1586440801620483
2.5532898902893066,5.964484691619873,1.1760841608047485
2.5224857330322266,6.009097099304199,1.1909841299057007
2.4946110248565674,6.0604567527771,1.2072727680206299
2.4673352241516113,6.115359306335449,1.2242966890335083
2.439063549041748,6.17453145980835,1.241524577140808
2.4050912857055664,6.223120212554932,1.2568538188934326
2.3789925575256348,6.2888922691345215,1.2755948305130005
2.3465986251831055,6.336184024810791,1.2905808687210083
2.3175735473632812,6.394121170043945,1.3078640699386597
2.2879157066345215,6.45607328414917,1.325513243675232
2.252293348312378,6.507554054260254,1.3408609628677368
2.2229087352752686,6.576765537261963,1.3599283695220947
2.1931381225585938,6.64171028137207,1.3780903816223145
2.1465048789978027,6.655354022979736,1.3856709003448486
2.0859787464141846,6.624814510345459,1.3840887546539307
2.0180411338806152,6.576305389404297,1.377936840057373
1.959343433380127,6.5526885986328125,1.3768340349197388
1.8978115320205688,6.517568111419678,1.3733421564102173
1.8415449857711792,6.492577075958252,1.3718785047531128
1.7868095636367798,6.470800876617432,1.3711146116256714
1.7254507541656494,6.42273473739624,1.3647979497909546
1.6696417331695557,6.400730609893799,1.3631582260131836
1.6084269285202026,6.352147102355957,1.3557668924331665
1.5543845891952515,6.329033851623535,1.3538388013839722
1.5009772777557373,6.301525592803955,1.3509317636489868
1.4569084644317627,6.310786247253418,1.3559374809265137
1.3993808031082153,6.263952732086182,1.3489928245544434
1.3450180292129517,6.22801399230957,1.34359610080719
1.2856451272964478,6.165507793426514,1.3323029279708862
1.2459996938705444,6.196159839630127,1.3411948680877686
1.1920706033706665,6.15142297744751,1.3337924480438232
1.146263837814331,6.1476030349731445,1.3353198766708374
1.0924972295761108,6.094459533691406,1.3261345624923706
1.048221468925476,6.0937299728393555,1.3279411792755127
0.9968480467796326,6.051385879516602,1.320243239402771
0.9413094520568848,5.9784650802612305,1.305910587310791
0.9079241156578064,6.048619747161865,1.3229122161865234
0.8554482460021973,5.982365608215332,1.3100923299789429
0.8086350560188293,5.9497246742248535,1.3046633005142212
0.7618186473846436,5.91295051574707,1.2983484268188477
0.6075519323348999,4.993340015411377,1.0971989631652832
0.5857827067375183,5.114670276641846,1.124707579612732
0.5551549792289734,5.175275802612305,1.138965129852295
0.17617301642894745,1.757855772972107,0.3871918320655823
0.3806299865245819,4.08386754989624,0.9003256559371948
0.36006778478622437,4.177347183227539,0.9217939376831055
0.32877612113952637,4.152897834777832,0.9170060753822327
0.29745545983314514,4.132143497467041,0.9127252101898193
0.2709294855594635,4.172029972076416,0.9218805432319641
0.44679591059684753,7.715177536010742,1.7055187225341797
0.3938855528831482,7.733032703399658,1.710265040397644
0.339162677526474,7.712414264678955,1.70658278465271
0.28347983956336975,7.68381929397583,1.7012295722961426
0.22951640188694,7.674072742462158,1.6991537809371948
0.17549462616443634,7.652551174163818,1.6943475008010864
0.12133003026247025,7.607771396636963,1.6844738721847534
0.06807877868413925,7.574051380157471,1.6771297454833984
0.014444251544773579,7.551403045654297,1.6723214387893677
-0.03798740357160568,7.528381824493408,1.6675074100494385
-0.08990950137376785,7.497405052185059,1.6608543395996094
-0.14150378108024597,7.470093727111816,1.6541000604629517
-0.19301897287368774,7.453864574432373,1.6498836278915405
-0.24372801184654236,7.422035217285156,1.6422981023788452
-0.2971690893173218,7.443179607391357,1.646505355834961
-0.25260302424430847,5.387477397918701,1.1914865970611572
-0.29051414132118225,5.393340110778809,1.1925630569458008
-0.3270266354084015,5.376174449920654,1.1882410049438477
-0.36364033818244934,5.366482257843018,1.185172200202942
-0.40081867575645447,5.356493949890137,1.1820818185806274
-0.43569985032081604,5.327280521392822,1.1748257875442505
-0.4163365960121155,4.689756393432617,1.0335667133331299
-0.43985164165496826,4.592060565948486,1.011431097984314
-0.4725642502307892,4.596744537353516,1.0119057893753052
-0.503122866153717,4.578527450561523,1.0068296194076538
-0.5336815714836121,4.567788124084473,1.0033138990402222
-0.5622928142547607,4.541686058044434,0.9964767098426819
-0.5901784300804138,4.511605262756348,0.9888221621513367
-0.6215310096740723,4.507798671722412,0.9869729280471802
-0.6512348055839539,4.488584518432617,0.9817841649055481
-0.6800504922866821,4.469287872314453,0.9765353202819824
-0.7118275165557861,4.4726080894470215,0.975720226764679
-0.7374717593193054,4.438020706176758,0.9666861891746521
-0.7691434621810913,4.4409284591674805,0.9658744931221008
-0.7972734570503235,4.420979976654053,0.9601192474365234
-0.8271691203117371,4.408259868621826,0.9559608101844788
-0.7110101580619812,3.6491010189056396,0.7902311682701111
-0.7390948534011841,3.6596267223358154,0.7910930514335632
-0.7562649250030518,3.6176350116729736,0.7804535031318665
-0.9262962937355042,4.285459995269775,0.9227181673049927
-0.9663308262825012,4.3242974281311035,0.9292446374893188
-0.9981639385223389,4.325577259063721,0.9277350902557373
-1.0247948169708252,4.304291248321533,0.9214309453964233
-1.0509474277496338,4.282922744750977,0.9150155782699585
-1.0819470882415771,4.283872604370117,0.9129257202148438
-1.109667181968689,4.26966667175293,0.9076096415519714
-1.1347603797912598,4.248004913330078,0.9008017778396606
-1.1624584197998047,4.23336935043335,0.8954760432243347
-1.1910001039505005,4.222243785858154,0.8909460306167603
-1.216292381286621,4.199877738952637,0.8840934634208679
-1.2452386617660522,4.192299842834473,0.8797518610954285
-1.2714605331420898,4.177312850952148,0.8739381432533264
-1.2997719049453735,4.169483184814453,0.8696708083152771
-1.321869134902954,4.139317512512207,0.8607232570648193
-1.3508408069610596,4.13086462020874,0.8563389182090759
-1.3827106952667236,4.129317760467529,0.8533772826194763
-1.4056894779205322,4.106348514556885,0.8455268740653992
-1.4232964515686035,4.068792819976807,0.8347111344337463
-1.444330096244812,4.042004585266113,0.8261781930923462
-1.4844236373901367,4.065252304077148,0.8277961015701294
-1.4981276988983154,4.01622200012207,0.8147373795509338
-1.5239505767822266,3.9993178844451904,0.8081703186035156
-1.5536316633224487,3.9972219467163086,0.8041573166847229
-1.577690839767456,3.980624198913574,0.7972633838653564
-1.613300085067749,3.992295026779175,0.796029269695282
-1.6355072259902954,3.9677724838256836,0.7874777913093567
-1.6669210195541382,3.964172124862671,0.7830544710159302
-1.6972814798355103,3.9608020782470703,0.7785237431526184
-1.7146539688110352,3.929363489151001,0.7682265043258667
-1.74100923538208,3.9189529418945312,0.7621031999588013
-1.746003270149231,3.858919858932495,0.7462772727012634
-1.7833442687988281,3.868494749069214,0.7438414692878723
-1.8170604705810547,3.8710222244262695,0.7400830388069153
-1.8363125324249268,3.846162796020508,0.7306552529335022
-1.8721288442611694,3.855844259262085,0.7278138399124146
-1.8882951736450195,3.823502779006958,0.7169634103775024
-1.912358283996582,3.8042638301849365,0.7083966732025146
-1.9357365369796753,3.7850921154022217,0.6999871134757996
-1.9574413299560547,3.7666027545928955,0.6912634968757629
-1.986147403717041,3.7616376876831055,0.685041606426239
-2.008349895477295,3.7424774169921875,0.6761013865470886
-2.0293922424316406,3.719360113143921,0.6663207411766052
-1.7095882892608643,3.081726551055908,0.5472856760025024
-1.7338486909866333,3.078220844268799,0.5416309833526611
-0.8282694220542908,1.4484059810638428,0.25248032808303833
-0.8501071333885193,1.4631692171096802,0.25250914692878723
-0.8644459843635559,1.4643325805664062,0.25012892484664917
-0.8626053929328918,1.4390616416931152,0.24310028553009033
-0.8841630220413208,1.453751802444458,0.24282312393188477
-0.8900811672210693,1.4416801929473877,0.2379511445760727
-0.8921599984169006,1.4228005409240723,0.23189084231853485
-0.9060553908348083,1.4238148927688599,0.22901886701583862
-0.8861624598503113,1.3728256225585938,0.21774397790431976
-0.9040496349334717,1.3803085088729858,0.21574676036834717
-0.9096153974533081,1.3680083751678467,0.2105153501033783
-0.9577974677085876,1.4203561544418335,0.21501237154006958
-2.4087915420532227,3.524113178253174,0.5244710445404053
-1.3419263362884521,1.9343165159225464,0.2823813855648041
-1.4069273471832275,1.9987376928329468,0.28603485226631165
-1.3438754081726074,2.149040699005127,-0.2057000994682312
-1.2718943357467651,2.1004490852355957,-0.21413487195968628
-1.2149569988250732,2.038606882095337,-0.21390902996063232
-0.8505786061286926,1.4754990339279175,-0.1634790003299713
-1.02992844581604,1.8157292604446411,-0.20624218881130219
-1.039219856262207,1.8633413314819336,-0.21678438782691956
-0.9937189817428589,1.812337040901184,-0.21577918529510498
-0.9549995064735413,1.7708332538604736,-0.21546421945095062
-0.8965446949005127,1.6913424730300903,-0.2102414220571518
-0.8912414312362671,1.7110315561294556,-0.21706554293632507
-0.8629754781723022,1.6856797933578491,-0.2180507928133011
-0.8230953812599182,1.63568115234375,-0.21558094024658203
-0.8026154041290283,1.6236079931259155,-0.21789827942848206
-0.7414337396621704,1.527746558189392,-0.20874221622943878
-0.7455254793167114,1.563908338546753,-0.21731536090373993
-0.7229007482528687,1.5440030097961426,-0.21810764074325562
-0.7116427421569824,1.548636555671692,-0.2222413867712021
-0.6908044219017029,1.5319985151290894,-0.22328118979930878
-0.6611273884773254,1.4937981367111206,-0.22096174955368042
-0.6472281217575073,1.490857481956482,-0.22380755841732025
-0.6258215308189392,1.4700186252593994,-0.22376137971878052
-0.6032782196998596,1.44538414478302,-0.22303131222724915
-0.590097963809967,1.4419161081314087,-0.2254481464624405
-0.5582659244537354,1.3917144536972046,-0.22042910754680634
-0.5537093281745911,1.4096177816390991,-0.22607582807540894
0.5230150818824768,1.3955188989639282,-0.22908779978752136
0.5299683213233948,1.3851438760757446,-0.22474399209022522
0.5536627769470215,1.4179139137268066,-0.22735662758350372
0.579413890838623,1.453978419303894,-0.23032419383525848
0.5867816805839539,1.4432109594345093,-0.22581903636455536
0.6147714257240295,1.482430100440979,-0.22891537845134735
0.6280864477157593,1.4857903718948364,-0.22642862796783447
0.6385809779167175,1.4818634986877441,-0.22277890145778656
0.6661908030509949,1.5168308019638062,-0.22490087151527405
0.6956915259361267,1.5551398992538452,-0.22727684676647186
0.7146783471107483,1.5683960914611816,-0.22580976784229279
0.7420811653137207,1.5990190505981445,-0.22672581672668457
0.756713330745697,1.601311206817627,-0.22354041039943695
0.7845811247825623,1.6315600872039795,-0.22409455478191376
0.8179903030395508,1.6719739437103271,-0.22587579488754272
0.849052906036377,1.704847812652588,-0.22629046440124512
0.8821252584457397,1.7409560680389404,-0.22701938450336456
0.9047339558601379,1.7561798095703125,-0.22483602166175842
0.9438804984092712,1.8020915985107422,-0.22639122605323792
0.9803622364997864,1.8405616283416748,-0.22668157517910004
1.022825002670288,1.8889540433883667,-0.22793932259082794
1.0715314149856567,1.9471418857574463,-0.22998027503490448
1.1040400266647339,1.974230408668518,-0.22809675335884094
1.154524564743042,2.0312488079071045,-0.2293282449245453
1.197655200958252,2.074456214904785,-0.22867567837238312
1.2530498504638672,2.1374197006225586,-0.22988246381282806
1.3062303066253662,2.1925947666168213,-0.22955845296382904
1.3175280094146729,2.177464008331299,-0.22180739045143127
1.3444336652755737,2.1891207695007324,-0.21673908829689026
1.3595672845840454,2.180466651916504,-0.20945195853710175
1.3666642904281616,2.1583163738250732,-0.20076286792755127
1.3772064447402954,2.143038034439087,-0.19266285002231598
1.768434762954712,2.7118988037109375,-0.23530161380767822
1.845707654953003,2.787862539291382,-0.23271574079990387
1.8470691442489624,2.7503089904785156,-0.22047705948352814
1.828234314918518,2.683840751647949,-0.20606474578380585
1.8674486875534058,2.7002902030944824,-0.19748210906982422
1.4397642612457275,2.053151845932007,-0.1427498161792755
1.439986228942871,2.0249040126800537,-0.13321614265441895
1.4587993621826172,2.021575927734375,-0.12497669458389282
1.471853494644165,2.012606382369995,-0.11638805270195007
1.467069149017334,1.9778645038604736,-0.10590168833732605
2.2728371620178223,3.1915881633758545,0.42738601565361023
2.601344347000122,3.7087831497192383,0.5086370706558228
2.6111600399017334,3.780397653579712,0.5301530957221985
2.5807547569274902,3.7992374897003174,0.5441743731498718
2.494485378265381,3.729262113571167,0.5443410873413086
1.51846444606781,2.30484676361084,0.34248921275138855
1.525254249572754,2.354827404022217,0.35591912269592285
1.582257628440857,2.482858180999756,0.3812503218650818
1.6158437728881836,2.575054168701172,0.4012375771999359
3.0464489459991455,4.934771537780762,0.7797201871871948
3.0058836936950684,4.952853679656982,0.7930861115455627
3.0024139881134033,5.02955961227417,0.8155835866928101
2.9624955654144287,5.042112827301025,0.8273493051528931
2.9458584785461426,5.0989532470703125,0.8460474610328674
2.9103760719299316,5.126086711883545,0.8597455620765686
2.906627655029297,5.205997467041016,0.8820304870605469
2.878133773803711,5.2418107986450195,0.8969189524650574
2.865278959274292,5.308374404907227,0.9167342185974121
2.832110643386841,5.341644763946533,0.9305708408355713
2.797481060028076,5.370947360992432,0.9436718225479126
2.7803685665130615,5.429999828338623,0.9617308378219604
2.777466297149658,5.520356178283691,0.9856812953948975
2.735948324203491,5.539175510406494,0.9961621165275574
1.236104965209961,2.5498898029327393,0.46182820200920105
1.207586407661438,2.5370922088623047,0.4626491069793701
1.183048129081726,2.53080677986145,0.46455860137939453
1.1714398860931396,2.5523524284362793,0.4715624451637268
1.1615238189697266,2.581447124481201,0.4797631502151489
2.5906450748443604,5.872478485107422,1.0977418422698975
2.5634005069732666,5.924638748168945,1.1137182712554932
2.5380351543426514,5.9798359870910645,1.1302549839019775
2.5075201988220215,6.024299144744873,1.1448967456817627
2.4838922023773193,6.094762802124023,1.163861870765686
2.452969789505005,6.147037982940674,1.1793951988220215
2.4221889972686768,6.198879718780518,1.1948779821395874
2.3881168365478516,6.239292621612549,1.2080942392349243
2.362971782684326,6.304719924926758,1.2262873649597168
2.3311448097229004,6.360004901885986,1.2421737909317017
2.2999770641326904,6.418810844421387,1.2584483623504639
2.274480104446411,6.4955735206604,1.2783831357955933
2.235896348953247,6.531810760498047,1.2903075218200684
2.210707664489746,6.607733726501465,1.3101561069488525
2.1753365993499756,6.65830659866333,1.3252081871032715
2.1152503490448,6.6360087394714355,1.32476007938385
2.047558546066284,6.587574481964111,1.3191087245941162
1.9953465461730957,6.586197853088379,1.322885513305664
1.9306540489196777,6.536189556121826,1.3167849779129028
1.8677524328231812,6.489322185516357,1.3113141059875488
1.8171440362930298,6.4864654541015625,1.3146806955337524
1.7550957202911377,6.442831516265869,1.3089431524276733
1.700707197189331,6.424576282501221,1.3083839416503906
0.8367981314659119,3.2548747062683105,0.6644821166992188
1.5797289609909058,6.32690954208374,1.294754981994629
0.8078711628913879,3.336008310317993,0.6843922734260559
1.481360673904419,6.3091959953308105,1.2974820137023926
1.4309948682785034,6.296358585357666,1.297188401222229
1.3751349449157715,6.256948471069336,1.2914600372314453
1.3222986459732056,6.2283101081848145,1.287988305091858
1.271122932434082,6.202919960021973,1.2852028608322144
1.2188291549682617,6.165738582611084,1.2799679040908813
1.1707650423049927,6.146928310394287,1.278576374053955
1.1126314401626587,6.075340270996094,1.2654541730880737
1.072687029838562,6.101282119750977,1.2725731134414673
1.0227768421173096,6.074252605438232,1.2687348127365112
0.9727813005447388,6.035309314727783,1.2623947858810425
0.9272149801254272,6.01861047744751,1.2607346773147583
0.8824846744537354,6.0053582191467285,1.2598446607589722
0.839207112789154,6.00327730178833,1.2609139680862427
0.7889799475669861,5.95560884475708,1.2520192861557007
0.6451404094696045,5.148628234863281,1.0833739042282104
0.5948991775512695,5.034941673278809,1.0604814291000366
0.5767195820808411,5.190568447113037,1.0943596363067627
0.5298289656639099,5.091400623321533,1.0745820999145508
0.39796268939971924,4.101536750793457,0.8666120767593384
0.36997103691101074,4.119311332702637,0.8707616925239563
0.34474292397499084,4.167330741882324,0.8813479542732239
0.31486865878105164,4.161832332611084,0.8806625008583069
0.28532809019088745,4.1561055183410645,0.879966139793396
0.25738999247550964,4.1730523109436035,0.8841120600700378
0.4232393205165863,7.75386381149292,1.6438870429992676
0.36742597818374634,7.71819543838501,1.6370031833648682
0.3135266900062561,7.720444202423096,1.6376073360443115
0.25845834612846375,7.687944412231445,1.6309195756912231
0.20396088063716888,7.658874988555908,1.6250369548797607
0.14902587234973907,7.621793270111084,1.617535948753357
0.0956399217247963,7.588131427764893,1.6108291149139404
0.04275045916438103,7.557919502258301,1.6049282550811768
-0.009745653718709946,7.535168647766113,1.5997754335403442
-0.061897002160549164,7.508273601531982,1.593618392944336
-0.11480388045310974,7.492467880249023,1.5898884534835815
-0.1662834733724594,7.461025714874268,1.5829261541366577
-0.21724478900432587,7.429233074188232,1.5759687423706055
-0.2691546380519867,7.435282230377197,1.5771152973175049
-0.32120367884635925,7.441003799438477,1.5780831575393677
-0.2711423635482788,5.412207126617432,1.1470435857772827
-0.30796006321907043,5.387505531311035,1.1410796642303467
-0.34376290440559387,5.362592697143555,1.1351450681686401
-0.380233496427536,5.348865509033203,1.131633996963501
-0.41771990060806274,5.350133419036865,1.1313506364822388
-0.4527114927768707,5.3206634521484375,1.1246238946914673
-0.4241732358932495,4.602047920227051,0.9719641804695129
-0.45593613386154175,4.599344730377197,0.9703779816627502
-0.48762935400009155,4.596426486968994,0.9687943458557129
-0.517638087272644,4.578087329864502,0.9640079140663147
-0.5467133522033691,4.551935195922852,0.9576240181922913
-0.5769332647323608,4.533123016357422,0.9528246521949768
-0.6058891415596008,4.510383129119873,0.9472658634185791
-0.6367638111114502,4.506582260131836,0.9451030492782593
-0.6665305495262146,4.49500036239624,0.9413337111473083
-0.6961683630943298,4.483220100402832,0.9375713467597961
-0.7240786552429199,4.456010818481445,0.9306007623672485
-0.755079448223114,4.451321601867676,0.9284016489982605
-0.7821030616760254,4.423798561096191,0.9214892983436584
-0.8126195669174194,4.418807029724121,0.9190297722816467
-0.8335065245628357,4.364847660064697,0.9060975313186646
-0.7250036001205444,3.6611807346343994,0.7586238980293274
-0.7490337491035461,3.6490137577056885,0.7547091245651245
-0.7776645421981812,3.659166097640991,0.7554468512535095
-0.9494693279266357,4.3198957443237305,0.890290379524231
-0.9846473932266235,4.3361639976501465,0.8920710682868958
-1.0123900175094604,4.322596073150635,0.8871691823005676
-1.038753867149353,4.301276683807373,0.8806892037391663
-1.0643606185913086,4.279907703399658,0.874290943145752
-1.0940788984298706,4.273104190826416,0.870878279209137
-1.1189637184143066,4.247537612915039,0.8636863231658936
-1.1486016511917114,4.240313529968262,0.8602715730667114
-1.1759624481201172,4.2256388664245605,0.8548784852027893
-1.2045780420303345,4.218364715576172,0.8509522080421448
-1.2310361862182617,4.203519821166992,0.8455384373664856
-1.253507137298584,4.173652172088623,0.8371111154556274
-1.2826584577560425,4.165592193603516,0.8330891132354736
-1.3099725246429443,4.1498541831970215,0.8275342583656311
-1.3359078168869019,4.134382247924805,0.8217127919197083
-1.3638674020767212,4.126139163970947,0.8172026872634888
-1.3868153095245361,4.1031646728515625,0.8098269104957581
-1.4152384996414185,4.094356536865234,0.8052228689193726
-1.432416558265686,4.0526442527771,0.7941763997077942
-1.4678504467010498,4.0612993240356445,0.7930006384849548
-1.4914380311965942,4.0413899421691895,0.7858755588531494
-1.5132297277450562,4.017843723297119,0.7780038118362427
-1.5375666618347168,4.001339435577393,0.7715438604354858
-1.5598766803741455,3.977187395095825,0.7635502815246582
-1.5968378782272339,3.988386869430542,0.7623008489608765
-1.6217213869094849,3.9710428714752197,0.755610466003418
-1.645437240600586,3.9540207386016846,0.7485780715942383
-1.6779705286026,3.9581246376037598,0.7455775737762451
-1.6988282203674316,3.9335365295410156,0.7371487021446228
-1.7239223718643188,3.9153242111206055,0.7297735810279846
-1.7515168190002441,3.904165744781494,0.7238246202468872
-1.7684645652770996,3.872271776199341,0.713726282119751
-1.7943934202194214,3.861485719680786,0.7074205875396729
-1.8202872276306152,3.8505022525787354,0.701104998588562
-1.8546829223632812,3.852409601211548,0.6968397498130798
-1.8819606304168701,3.840367078781128,0.6901443004608154
-1.9048947095870972,3.8216586112976074,0.6820341348648071
-1.9234477281570435,3.796308755874634,0.6725838780403137
-1.9594420194625854,3.8051598072052,0.6692082285881042
-1.975524663925171,3.772007703781128,0.6582109332084656
-2.002596855163574,3.759012222290039,0.6507001519203186
-2.0115084648132324,3.716076135635376,0.6378722190856934
-2.067728042602539,3.7615253925323486,0.6400550007820129
-1.7200592756271362,3.080707550048828,0.5195109844207764
-1.745734691619873,3.076270818710327,0.513816237449646
-0.8346604108810425,1.446974277496338,0.23929831385612488
-0.8559417724609375,1.4619948863983154,0.2392517477273941
-0.8695493936538696,1.4635013341903687,0.23695771396160126
-0.8758372664451599,1.4512948989868164,0.23229104280471802
-0.8740266561508179,1.4257885217666626,0.22552306950092316
-0.8878234624862671,1.426953911781311,0.22283786535263062
-0.9054729342460632,1.4347506761550903,0.22117014229297638
-0.9029256105422974,1.4094250202178955,0.21424923837184906
-0.9087525010108948,1.3970385789871216,0.2092888206243515
-0.9051859378814697,1.3721635341644287,0.20240949094295502
-0.9185971021652222,1.3731582164764404,0.19929929077625275
-2.3797197341918945,3.5046801567077637,0.499707967042923
-2.4548909664154053,3.56298828125,0.4987320005893707
-1.2756304740905762,1.8268227577209473,0.2507794499397278
-1.3261723518371582,1.8728300333023071,0.2517531216144562
-1.4142338037490845,2.2437362670898438,-0.20499180257320404
-1.3672012090682983,2.203545570373535,-0.20802651345729828
-1.246350646018982,2.075235605239868,-0.20829714834690094
-1.2114372253417969,2.050057888031006,-0.21159301698207855
-0.8116177320480347,1.3954771757125854,-0.14786836504936218
-0.8418824672698975,1.4718294143676758,-0.15995946526527405
-1.0654749870300293,1.894291639328003,-0.21095828711986542
-1.040410041809082,1.880915880203247,-0.21442310512065887
-1.0007444620132446,1.8399757146835327,-0.2144724279642105
-0.9705997705459595,1.8158631324768066,-0.21626503765583038
-0.9051246643066406,1.7224661111831665,-0.20935869216918945
-0.903586745262146,1.7489408254623413,-0.21677863597869873
-0.8765575885772705,1.7272734642028809,-0.21823665499687195
-0.8379338979721069,1.6809327602386475,-0.2163202315568924
-0.8191654086112976,1.6723138093948364,-0.21899721026420593
-0.7853739857673645,1.6320842504501343,-0.2174004763364792
-0.7569008469581604,1.6021308898925781,-0.21693341434001923
-0.7208134531974792,1.554258108139038,-0.21383963525295258
-0.7208492159843445,1.5835387706756592,-0.22128811478614807
-0.6953175067901611,1.5562480688095093,-0.22074197232723236
-0.6778213977813721,1.5465034246444702,-0.22253122925758362
-0.6575171947479248,1.5294475555419922,-0.2231859713792801
-0.6301095485687256,1.4943047761917114,-0.2210512012243271
-0.616290271282196,1.4911532402038574,-0.2235705554485321
-0.5909762978553772,1.4591953754425049,-0.22158300876617432
-0.5776572823524475,1.4556920528411865,-0.22382038831710815
-0.5617604851722717,1.4448161125183105,-0.2248559296131134
-0.5390992164611816,1.4157664775848389,-0.22294318675994873
-0.5314455032348633,1.4264130592346191,-0.22721047699451447
0.4962170720100403,1.3972052335739136,-0.2271256148815155
0.5113322734832764,1.4086546897888184,-0.22660598158836365
0.5432698726654053,1.434854507446289,-0.22577133774757385
0.5616655945777893,1.4531352519989014,-0.2260405719280243
0.5806189179420471,1.4711400270462036,-0.22612924873828888
0.5938245058059692,1.4747016429901123,-0.22395862638950348
0.6158121824264526,1.4996793270111084,-0.22491183876991272
0.6307639479637146,1.50655996799469,-0.22306954860687256
0.6596477627754211,1.5453011989593506,-0.22581738233566284
0.6830517649650574,1.5694842338562012,-0.22622409462928772
0.7017663717269897,1.5829548835754395,-0.22499161958694458
0.7223470211029053,1.5997540950775146,-0.2241487205028534
0.7466115951538086,1.623317003250122,-0.22411182522773743
0.7727870345115662,1.6501864194869995,-0.22439120709896088
0.7943586707115173,1.6662964820861816,-0.22299285233020782
0.8296430706977844,1.7101503610610962,-0.22519603371620178
0.8571849465370178,1.7361286878585815,-0.22482183575630188
0.8762529492378235,1.7445580959320068,-0.22205612063407898
0.9182157516479492,1.7978637218475342,-0.22481675446033478
0.9486231803894043,1.8264806270599365,-0.22422417998313904
0.9853526949882507,1.8648624420166016,-0.2245141863822937
1.0331419706344604,1.9236578941345215,-0.22705598175525665
1.0685937404632568,1.9581178426742554,-0.22646558284759521
1.1106326580047607,2.002180814743042,-0.2266295850276947
1.1553319692611694,2.049109935760498,-0.22683656215667725
1.2023310661315918,2.099108934402466,-0.22698520123958588
1.265610694885254,2.1755332946777344,-0.22967718541622162
1.3027888536453247,2.2040419578552246,-0.22681854665279388
1.3220261335372925,2.202329158782959,-0.22072958946228027
1.340932846069336,2.200662612915039,-0.2146052122116089
1.3565750122070312,2.191744804382324,-0.2074417620897293
1.367761492729187,2.1762499809265137,-0.1997307986021042
1.3822873830795288,2.167691469192505,-0.19267624616622925
1.742236614227295,2.6919095516204834,-0.23120231926441193
1.8361788988113403,2.794265031814575,-0.2313016802072525
1.8702282905578613,2.805246591567993,-0.22326140105724335
1.806310772895813,2.6705057621002197,-0.20388342440128326
1.842802882194519,2.68412709236145,-0.19582636654376984
1.8759971857070923,2.6950745582580566,-0.18745379149913788
1.4286080598831177,2.023358106613159,-0.1335158795118332
1.4565558433532715,2.0327353477478027,-0.126405730843544
1.4651026725769043,2.017439842224121,-0.11787287890911102
1.4698272943496704,1.9951372146606445,-0.10844624042510986
2.2858879566192627,3.232179880142212,0.41456180810928345
2.632308006286621,3.779865026473999,0.49651339650154114
2.593184471130371,3.7861580848693848,0.5087419748306274
2.493534564971924,3.6972835063934326,0.5069976449012756
2.3095405101776123,3.477933406829834,0.4860663115978241
2.2799344062805176,3.4912121295928955,0.4967651665210724
1.6144273281097412,2.5116796493530273,0.3633546233177185
1.627502202987671,2.571251392364502,0.37782222032546997
1.5909719467163086,2.556480646133423,0.3812974691390991
3.0409748554229736,4.970181941986084,0.7519258260726929
2.9974589347839355,4.976540565490723,0.7626002430915833
2.981503486633301,5.029231548309326,0.7804057598114014
2.9622321128845215,5.083523750305176,0.798042893409729
2.9360504150390625,5.127937316894531,0.8143892288208008
2.907107353210449,5.160323143005371,0.8281309008598328
2.8891284465789795,5.212803363800049,0.8452085256576538
2.8495004177093506,5.2327351570129395,0.8564962148666382
2.8479104042053223,5.323982238769531,0.8795902729034424
2.8196096420288086,5.363409519195557,0.8940150737762451
2.7938337326049805,5.405550479888916,0.9087662696838379
2.774955987930298,5.465521335601807,0.9262897372245789
2.7594544887542725,5.5363898277282715,0.9455235600471497
1.2284542322158813,2.510495185852051,0.431979238986969
1.2120572328567505,2.5219578742980957,0.43708792328834534
1.18925142288208,2.5192275047302246,0.4397013187408447
1.1819522380828857,2.55171275138855,0.4482158124446869
1.1628835201263428,2.5597174167633057,0.4524320363998413
1.1535725593566895,2.588543653488159,0.4603174030780792
2.577925205230713,5.8946452140808105,1.0543948411941528
2.553743362426758,5.953849792480469,1.0713351964950562
2.5263829231262207,6.009949684143066,1.0870757102966309
2.4964616298675537,6.062556266784668,1.1021875143051147
2.4650368690490723,6.111230850219727,1.1166343688964844
2.4360902309417725,6.162730693817139,1.1315109729766846
2.4099349975585938,6.225138187408447,1.1486177444458008
2.3813514709472656,6.284061908721924,1.1646435260772705
2.3471920490264893,6.332406520843506,1.1784594058990479
2.316380262374878,6.391414642333984,1.194381833076477
2.2877774238586426,6.453367710113525,1.2108105421066284
2.2566323280334473,6.511734485626221,1.226751446723938
2.2268412113189697,6.573348045349121,1.2432984113693237
2.195798635482788,6.639186382293701,1.259904146194458
2.149745464324951,6.66099739074707,1.2682583332061768
2.0853683948516846,6.6237311363220215,1.2653729915618896
2.023379325866699,6.589401721954346,1.2629966735839844
1.9616929292678833,6.5506391525268555,1.2596983909606934
1.9077529907226562,6.537331581115723,1.2610384225845337
1.8435614109039307,6.490764617919922,1.2553417682647705
1.791460394859314,6.4843244552612305,1.257427453994751
1.729141354560852,6.43655252456665,1.2514835596084595
1.676526665687561,6.421618461608887,1.2519290447235107
0.8181754946708679,3.22536039352417,0.6304787993431091
1.5651711225509644,6.35675573348999,1.245642900466919
0.7945272922515869,3.329012870788574,0.6536572575569153
1.4565707445144653,6.302020072937012,1.2399665117263794
1.405044674873352,6.2853102684021,1.2393062114715576
1.3562166690826416,6.271629810333252,1.2391940355300903
1.3021572828292847,6.231302261352539,1.2338472604751587
1.2538481950759888,6.2169189453125,1.2334898710250854
1.2006222009658813,6.179867744445801,1.2279822826385498
1.1466032266616821,6.138731956481934,1.2217272520065308
1.097442388534546,6.115881443023682,1.2191137075424194
1.0423874855041504,6.050961494445801,1.2081024646759033
1.0051484107971191,6.087679862976074,1.2174298763275146
0.9602722525596619,6.0787434577941895,1.2176909446716309
0.906826913356781,6.020566463470459,1.2073423862457275
0.8576083779335022,5.980842590332031,1.2006462812423706
0.8022786378860474,5.891384124755859,1.1839956045150757
0.7649658918380737,5.926774024963379,1.1924630403518677
0.6105518341064453,5.0037312507629395,1.0079313516616821
0.5827051997184753,5.068341255187988,1.022194743156433
0.5502643585205078,5.106295585632324,1.0307984352111816
0.4115225076675415,4.0885796546936035,0.8258646726608276
0.3834474980831146,4.09878396987915,0.828478217124939
0.35963207483291626,4.158381938934326,0.8411239981651306
0.3312956392765045,4.1682000160217285,0.8437460660934448
0.300657719373703,4.15494441986084,0.8417494297027588
0.2706910967826843,4.14144229888916,0.8397107124328613
0.24257677793502808,4.158421039581299,0.8433212637901306
0.3978704810142517,7.7539567947387695,1.5728802680969238
0.34221282601356506,7.725761890411377,1.5676259994506836
0.286405086517334,7.701020240783691,1.5631532669067383
0.23190715909004211,7.672023773193359,1.5578781366348267
0.1777360737323761,7.634988784790039,1.5510390996932983
0.12413960695266724,7.609158992767334,1.5460350513458252
0.07097550481557846,7.586895942687988,1.5412474870681763
0.017031388357281685,7.54129695892334,1.5317927598953247
-0.03535344451665878,7.522116661071777,1.5277844667434692
-0.08751799911260605,7.514058589935303,1.526109218597412
-0.1388605684041977,7.4673638343811035,1.5166605710983276
-0.19014519453048706,7.443282127380371,1.511877179145813
-0.24142487347126007,7.430508613586426,1.5085415840148926
-0.29388710856437683,7.432684421539307,1.5081664323806763
-0.2479565143585205,5.334959506988525,1.0819923877716064
-0.28890806436538696,5.405912399291992,1.095901608467102
-0.32468533515930176,5.3733649253845215,1.0888770818710327
-0.36202213168144226,5.371145248413086,1.0880541801452637
-0.39914464950561523,5.3572096824646,1.0846786499023438
-0.4348466694355011,5.339374542236328,1.0800484418869019
-0.4154199957847595,4.699524402618408,0.9497655034065247
-0.43947139382362366,4.609135627746582,0.9307053685188293
-0.4699108302593231,4.591002941131592,0.9262925982475281
-0.4998584985733032,4.564995765686035,0.9203294515609741
-0.5316054224967957,4.561675548553467,0.9190002083778381
-0.5611193180084229,4.543057918548584,0.9141680598258972
-0.591296911239624,4.531888484954834,0.9107210040092468
-0.62343430519104,4.535698890686035,0.9103273153305054
-0.6492890119552612,4.4898834228515625,0.8999980688095093
-0.6805022954940796,4.485645294189453,0.8980700969696045
-0.7104857563972473,4.47361946105957,0.8946281671524048
-0.7376958131790161,4.44631814956665,0.8880293965339661
-0.7668299674987793,4.434105396270752,0.8840258121490479
-0.7957822680473328,4.421708106994629,0.8800345063209534
-0.821611225605011,4.3901848793029785,0.8722635507583618
-0.8478193879127502,4.362265110015869,0.8652651906013489
-0.7357687950134277,3.650040864944458,0.7228118181228638
-0.7596439123153687,3.6377274990081787,0.7192273139953613
-0.9286549091339111,4.300280570983887,0.848403811454773
-0.9651910662651062,4.324283599853516,0.8512261509895325
-0.9946965575218201,4.318190574645996,0.848183810710907
-1.024584174156189,4.311802864074707,0.8450976610183716
-1.052790880203247,4.2977094650268555,0.8405337333679199
-1.0808968544006348,4.283417701721191,0.8359753489494324
-1.108835220336914,4.269015789031982,0.8310570120811462
-1.1328327655792236,4.2435503005981445,0.823832631111145
-1.1616568565368652,4.236451625823975,0.8202185034751892
-1.188711166381836,4.221668720245361,0.815131425857544
-1.2160606384277344,4.206592559814453,0.8100005984306335
-1.2416014671325684,4.183823585510254,0.8034006953239441
-1.2681382894515991,4.168578147888184,0.7980661392211914
-1.2986754179000854,4.168015480041504,0.795296847820282
-1.317538857460022,4.130621910095215,0.7855542898178101
-1.339910626411438,4.104001045227051,0.7778919339179993
-1.3751707077026367,4.113417625427246,0.7770056128501892
-1.3989232778549194,4.0899529457092285,0.7699899077415466
-1.4319510459899902,4.095658302307129,0.7682054042816162
-1.456940770149231,4.07955265045166,0.7621194124221802
-1.475185513496399,4.04521369934082,0.752686083316803
-1.4815764427185059,3.978123664855957,0.7371861338615417
-1.5154160261154175,3.982743501663208,0.7349404692649841
-1.5600754022598267,4.015963077545166,0.7380164861679077
-1.5815455913543701,3.9919517040252686,0.7301668524742126
-1.608371376991272,3.9821853637695312,0.7248775959014893
-1.6351346969604492,3.9722330570220947,0.7195872664451599
-1.6575541496276855,3.947235584259033,0.7113996744155884
-1.6852816343307495,3.936469316482544,0.7058886885643005
-1.7125307321548462,3.925703287124634,0.700240969657898
-1.7388302087783813,3.915173292160034,0.6943557858467102
-1.7587074041366577,3.8904027938842773,0.6859905123710632
-1.7763917446136475,3.857975721359253,0.676146924495697
-1.8231885433197021,3.8883588314056396,0.6773227453231812
-1.8370583057403564,3.8487212657928467,0.6662763357162476
-1.8761793375015259,3.8652846813201904,0.6645604968070984
-1.8916417360305786,3.833042621612549,0.6544803977012634
-1.9150183200836182,3.81394100189209,0.646469235420227
-1.9420219659805298,3.8014302253723145,0.639563798904419
-1.9687135219573975,3.7888424396514893,0.6326160430908203
-1.9903523921966553,3.7699787616729736,0.624289333820343
-2.0063395500183105,3.74075984954834,0.6143084764480591
-2.024916648864746,3.714348793029785,0.6046431064605713
-1.7102991342544556,3.085228204727173,0.4976450204849243
-1.7313995361328125,3.074465274810791,0.4912482798099518
-0.822053074836731,1.4379308223724365,0.22748547792434692
-0.8510918617248535,1.4663629531860352,0.2296290546655655
-0.8654491305351257,1.4674603939056396,0.22728672623634338
-0.8759731650352478,1.4617356061935425,0.22383329272270203
-0.8855985403060913,1.4564546346664429,0.22035624086856842
-0.8870405554771423,1.437917709350586,0.21491026878356934
-0.8684161305427551,1.3861501216888428,0.20441924035549164
-0.9157055616378784,1.439355492591858,0.20938169956207275
-0.9042277932167053,1.4012104272842407,0.2008264660835266
-0.9006714820861816,1.376296877861023,0.19432282447814941
-0.9061805009841919,1.363931655883789,0.18940220773220062
-0.9546899199485779,1.416088581085205,0.1932918131351471
-2.4008522033691406,3.513291120529175,0.4709545969963074
-1.6341768503189087,2.3224692344665527,0.29883915185928345
-1.4232350587844849,2.2751104831695557,-0.20479868352413177
-1.4020662307739258,2.278386354446411,-0.21175996959209442
-1.3188291788101196,2.1779816150665283,-0.20860053598880768
-1.281419277191162,2.1498475074768066,-0.21178169548511505
-0.8431930541992188,1.4628738164901733,-0.15202055871486664
-1.1456413269042969,2.0198142528533936,-0.2150021344423294
-1.1121138334274292,1.9934238195419312,-0.21718654036521912
-1.0581461191177368,1.9293397665023804,-0.21498802304267883
-1.0276867151260376,1.9054754972457886,-0.21690379083156586
-0.9847917556762695,1.857292652130127,-0.2158852219581604
-0.9549781680107117,1.8328664302825928,-0.21730445325374603
-0.8973042368888855,1.7527763843536377,-0.21183979511260986
-0.8744204044342041,1.737705945968628,-0.2138655185699463
-0.8551234006881714,1.7294189929962158,-0.21663811802864075
-0.8270186185836792,1.7037235498428345,-0.21715280413627625
-0.7946844696998596,1.6670598983764648,-0.21601711213588715
-0.7696971297264099,1.6440064907073975,-0.2164485901594162
-0.7497689127922058,1.6313434839248657,-0.21812036633491516
-0.7219448089599609,1.6008840799331665,-0.21727141737937927
-0.7041864991188049,1.5913184881210327,-0.21912097930908203
-0.6757442951202393,1.5567255020141602,-0.2174454629421234
-0.6645545959472656,1.561032772064209,-0.2210220992565155
-0.6383394002914429,1.5295544862747192,-0.21943508088588715
-0.6186256408691406,1.5120750665664673,-0.21972134709358215
-0.600738525390625,1.4979552030563354,-0.2204064428806305
-0.581353485584259,1.480186939239502,-0.22046469151973724
-0.5651553273200989,1.4694135189056396,-0.2214193344116211
-0.5465096831321716,1.4512184858322144,-0.22118104994297028
-0.5335718393325806,1.4473276138305664,-0.22306634485721588
-0.51930832862854,1.4397344589233398,-0.22428898513317108
-0.5100826025009155,1.446674108505249,-0.22775430977344513
-0.4859425127506256,1.4096442461013794,-0.22419026494026184
-0.4760093688964844,1.4125951528549194,-0.22691036760807037
0.4819071590900421,1.4029219150543213,-0.2226552963256836
0.5084180235862732,1.447310447692871,-0.22743284702301025
0.5238295197486877,1.4586751461029053,-0.22693264484405518
0.524621844291687,1.4300477504730225,-0.22011058032512665
0.541496217250824,1.4448591470718384,-0.21995092928409576
0.5682499408721924,1.484808087348938,-0.22353290021419525
0.5970206260681152,1.5280671119689941,-0.2274668663740158
0.6133816838264465,1.5387306213378906,-0.22635498642921448
0.6298711895942688,1.5492640733718872,-0.22516469657421112
0.6498365998268127,1.5666743516921997,-0.2248353511095047
0.6714410781860352,1.587507724761963,-0.22496159374713898
0.6977951526641846,1.618880271911621,-0.22640477120876312
0.7089659571647644,1.614525556564331,-0.22276709973812103
0.7297746539115906,1.6312495470046997,-0.22196179628372192
0.7527472376823425,1.6511750221252441,-0.2214362472295761
0.777246356010437,1.674574851989746,-0.22127433121204376
0.808646559715271,1.711796522140503,-0.22278396785259247
0.8425008058547974,1.7520790100097656,-0.224461629986763
0.8685218095779419,1.7745133638381958,-0.2236858308315277
0.9034690856933594,1.8141058683395386,-0.224809467792511
0.9299353361129761,1.8361340761184692,-0.22366400063037872
0.9659695029258728,1.8749990463256836,-0.22432243824005127
1.00444495677948,1.9168801307678223,-0.22513402998447418
1.041250228881836,1.9551551342010498,-0.22526989877223969
1.086065649986267,2.006682872772217,-0.22669585049152374
1.1304924488067627,2.0539283752441406,-0.22715140879154205
1.1656996011734009,2.083930730819702,-0.2255660742521286
1.2067307233810425,2.1239280700683594,-0.224840447306633
1.2661478519439697,2.193647623062134,-0.22686854004859924
1.3072121143341064,2.2289321422576904,-0.22493764758110046
1.3146734237670898,2.2070913314819336,-0.2170509546995163
1.337573528289795,2.2121329307556152,-0.21190756559371948
1.3450558185577393,2.189974069595337,-0.203879714012146
1.3560981750488281,2.17459774017334,-0.19654236733913422
1.3956506252288818,2.2055532932281494,-0.19329912960529327
1.548160195350647,2.4092965126037598,-0.20413267612457275
1.8353900909423828,2.813596725463867,-0.23014762997627258
1.881989598274231,2.844350576400757,-0.2242676168680191
1.8146021366119385,2.702610492706299,-0.2047542929649353
1.8334828615188599,2.6905436515808105,-0.19525615870952606
1.846987009048462,2.672497272491455,-0.185213103890419
1.4219619035720825,2.028024911880493,-0.13366112112998962
1.440417766571045,2.0250370502471924,-0.12635532021522522
1.4535044431686401,2.0161306858062744,-0.11867904663085938
1.458389401435852,1.9937658309936523,-0.10966791957616806
1.4645695686340332,1.975111961364746,-0.10090450197458267
2.272660970687866,3.1879146099090576,0.38127803802490234
2.6438353061676025,3.7665839195251465,0.462177574634552
2.6047592163085938,3.773130178451538,0.47440144419670105
2.518725872039795,3.7033801078796387,0.47556930780410767
2.3246285915374756,3.4720816612243652,0.4549841582775116
2.286472797393799,3.4726479053497314,0.4639110863208771
2.2691574096679688,3.501108407974243,0.4760271906852722
1.6385843753814697,2.5674755573272705,0.3549027144908905
1.6309174299240112,2.598869800567627,0.36485350131988525
1.5602656602859497,2.527658700942993,0.360138475894928
2.997840404510498,4.933136940002441,0.7125284075737
2.990543842315674,5.003585338592529,0.7323997616767883
2.9597551822662354,5.038033962249756,0.7466742396354675
2.9417662620544434,5.091582298278809,0.7635419368743896
2.934264898300171,5.161114692687988,0.7826246619224548
2.9039862155914307,5.194230079650879,0.7960734963417053
2.8767166137695312,5.238562107086182,0.8111402988433838
2.8597469329833984,5.298964023590088,0.8285111784934998
2.829388380050659,5.331108093261719,0.8412124514579773
2.8055741786956787,5.37693977355957,0.8560971021652222
2.7772817611694336,5.420410633087158,0.8701627850532532
2.7651631832122803,5.498589038848877,0.8900807499885559
2.742976427078247,5.551244735717773,0.9055270552635193
1.2336766719818115,2.541123628616333,0.41765496134757996
1.211786150932312,2.542362689971924,0.42084625363349915
1.18619704246521,2.5366578102111816,0.4227335453033447
1.167311668395996,2.5447075366973877,0.4269040524959564
1.1585383415222168,2.5734617710113525,0.4344949722290039
1.1403740644454956,2.580887794494629,0.4384814202785492
2.5638976097106934,5.916957855224609,1.0110634565353394
2.5351266860961914,5.969822883605957,1.0256913900375366
2.5103228092193604,6.033174991607666,1.0422325134277344
2.4815456867218018,6.085289001464844,1.0568122863769531
2.451460123062134,6.133418560028076,1.0707205533981323
2.4270148277282715,6.199726104736328,1.0875556468963623
2.3965580463409424,6.2556281089782715,1.1022686958312988
2.363992691040039,6.307802200317383,1.1164506673812866
2.3329806327819824,6.363134860992432,1.1312174797058105
2.3038415908813477,6.421534538269043,1.1465166807174683
2.2725677490234375,6.476233959197998,1.1612398624420166
2.235273599624634,6.520536422729492,1.1733882427215576
2.2083840370178223,6.597500801086426,1.1915416717529297
2.179020404815674,6.670807838439941,1.209201693534851
2.118133068084717,6.640696048736572,1.2079920768737793
2.0544087886810303,6.599027633666992,1.2046699523925781
1.9941189289093018,6.568094730377197,1.2029550075531006
1.9344992637634277,6.540703773498535,1.2013940811157227
1.8765124082565308,6.516483306884766,1.2004321813583374
1.8178707361221313,6.4880900382995605,1.1987273693084717
1.7622334957122803,6.462538719177246,1.1974542140960693
1.7061245441436768,6.432803153991699,1.1954174041748047
0.8373546004295349,3.2498340606689453,0.6054599285125732
1.5906457901000977,6.361493110656738,1.18784761428833
0.8055168390274048,3.324235439300537,0.6221652030944824
1.4901200532913208,6.344575881958008,1.1901805400848389
1.4347684383392334,6.305261135101318,1.185524821281433
1.371706485748291,6.227992057800293,1.173735499382019
1.3284951448440552,6.240523338317871,1.178458571434021
1.2731245756149292,6.20039176940918,1.1729029417037964
1.224368929862976,6.186032772064209,1.172225832939148
