X,Y,Z
-0.214400053024292,4.13026237487793,-0.41155439615249634
-0.1857108175754547,4.131592273712158,-0.4121515452861786
-0.15651094913482666,4.121088981628418,-0.41142380237579346
-0.12731501460075378,4.106515884399414,-0.41010400652885437
-0.09765486419200897,4.083976745605469,-0.4080100655555725
-0.0696311667561531,4.107851982116699,-0.4105703830718994
-0.04100426286458969,4.100440502166748,-0.41002383828163147
-0.012416102923452854,4.085076332092285,-0.4084973633289337
0.015933020040392876,4.061756134033203,-0.40603309869766235
0.044397011399269104,4.034348011016846,-0.40317967534065247
0.07213529199361801,4.018410682678223,-0.40149545669555664
0.09965433180332184,4.002283096313477,-0.3998122811317444
0.12791509926319122,4.0170722007751465,-0.4009917974472046
0.15633724629878998,4.031675815582275,-0.40204325318336487
0.18393707275390625,4.022778511047363,-0.40076908469200134
0.21282312273979187,4.0291900634765625,-0.40103188157081604
0.2816629707813263,4.710580825805664,-0.46844282746315
0.3154054582118988,4.724113941192627,-0.4690939784049988
0.34818243980407715,4.721909046173096,-0.468107134103775
0.37371116876602173,4.630359649658203,-0.4583006799221039
0.409148633480072,4.6586809158325195,-0.46037617325782776
0.44554799795150757,4.698393821716309,-0.46360090374946594
0.47213977575302124,4.6373162269592285,-0.4565469026565552
0.505037784576416,4.641805171966553,-0.45593154430389404
0.535376250743866,4.622884273529053,-0.4530390202999115
0.5671665072441101,4.61139440536499,-0.4508785009384155
0.5972306728363037,4.592049598693848,-0.44798970222473145
0.6289898753166199,4.587979793548584,-0.4462246596813202
0.6573541760444641,4.560603141784668,-0.442222535610199
0.6877719759941101,4.548420429229736,-0.43972069025039673
0.7199942469596863,4.543604373931885,-0.43792468309402466
0.7471126317977905,4.511809825897217,-0.43351319432258606
0.7755874991416931,4.491419792175293,-0.4299297034740448
0.8065691590309143,4.486161708831787,-0.42782068252563477
0.7032635807991028,3.7619259357452393,-0.35741692781448364
0.7279819250106812,3.74946665763855,-0.3549061417579651
0.7574936747550964,3.7596704959869385,-0.35442182421684265
0.8104019165039062,3.8840224742889404,-0.3645016849040985
0.9479173421859741,4.391889572143555,-0.41032230854034424
0.9801151156425476,4.393016815185547,-0.40858304500579834
1.0115728378295898,4.390100002288818,-0.40647831559181213
1.0379118919372559,4.364203453063965,-0.4020403027534485
1.0697726011276245,4.364768981933594,-0.3999837338924408
1.099785566329956,4.357554912567139,-0.3972296118736267
1.1261893510818481,4.33497953414917,-0.3930768072605133
1.152331829071045,4.312244892120361,-0.3889431059360504
1.182413935661316,4.304372310638428,-0.3858484923839569
1.2161235809326172,4.311420917510986,-0.3841245770454407
1.2350040674209595,4.265819072723389,-0.3777264654636383
1.266884446144104,4.264854907989502,-0.3752937316894531
1.2918645143508911,4.241359710693359,-0.37081465125083923
1.3236634731292725,4.239996433258057,-0.3680676221847534
1.3526341915130615,4.231132507324219,-0.3647269010543823
1.3771315813064575,4.2071309089660645,-0.36006930470466614
1.4027948379516602,4.18661642074585,-0.35572606325149536
1.4315065145492554,4.177187442779541,-0.3521692454814911
1.457439661026001,4.160262107849121,-0.34794944524765015
1.4838769435882568,4.142940521240234,-0.3436572253704071
1.5127243995666504,4.132798194885254,-0.33999156951904297
1.541297435760498,4.122533798217773,-0.3362565338611603
1.5637379884719849,4.097715854644775,-0.331216961145401
1.5887688398361206,4.080026626586914,-0.3267817497253418
1.611818790435791,4.054530143737793,-0.3216373920440674
1.640081524848938,4.043490886688232,-0.317706435918808
1.6704679727554321,4.0397868156433105,-0.31417614221572876
1.6978390216827393,4.028677463531494,-0.31007564067840576
1.9793351888656616,4.607959747314453,-0.3508952856063843
2.029193162918091,4.633431911468506,-0.34893062710762024
2.0606882572174072,4.619884967803955,-0.3439379632472992
2.090257406234741,4.602675437927246,-0.33864063024520874
2.1217105388641357,4.588634014129639,-0.33354485034942627
2.1537134647369385,4.574077129364014,-0.3283434510231018
2.1753058433532715,4.538306713104248,-0.3214804530143738
2.209230422973633,4.530939102172852,-0.316672682762146
2.2435827255249023,4.523108005523682,-0.31177282333374023
2.2803614139556885,4.518161773681641,-0.3069741129875183
2.3110077381134033,4.502940654754639,-0.30139482021331787
2.341120719909668,4.487730979919434,-0.29578879475593567
1.7289421558380127,3.2590537071228027,-0.2113335281610489
1.7405365705490112,3.22658634185791,-0.2057625949382782
1.7227693796157837,3.1432840824127197,-0.19699814915657043
1.7322790622711182,3.111553430557251,-0.19156599044799805
1.7748231887817383,3.137143611907959,-0.18952862918376923
1.3320505619049072,2.3165979385375977,-0.13718657195568085
1.2824465036392212,2.1967382431030273,-0.1274551898241043
0.9529409408569336,1.6076555252075195,-0.09131792932748795
0.9621342420578003,1.5977537631988525,-0.08871113508939743
0.9728107452392578,1.5914087295532227,-0.08629400283098221
0.985502302646637,1.5883071422576904,-0.08400880545377731
0.9964842796325684,1.5815738439559937,-0.08145683258771896
1.0198324918746948,1.5946195125579834,-0.07987134158611298
1.0174940824508667,1.568398356437683,-0.07631620019674301
1.0324598550796509,1.5680711269378662,-0.0739462673664093
1.0367772579193115,1.5512843132019043,-0.07070637494325638
1.048980951309204,1.547898530960083,-0.06812592595815659
2.554720640182495,3.715407371520996,-0.15734834969043732
2.575044631958008,3.6921277046203613,-0.1500299870967865
2.6030590534210205,3.682276964187622,-0.14326515793800354
2.624432325363159,3.6577630043029785,-0.13525791466236115
2.620310068130493,3.6032137870788574,-0.12630702555179596
2.657888174057007,3.605004072189331,-0.119068942964077
2.628228187561035,3.7148537635803223,0.1935289353132248
2.5870394706726074,3.71475887298584,0.2000558227300644
2.5601308345794678,3.732969045639038,0.2071186602115631
1.0711196660995483,1.5884203910827637,0.09070495516061783
1.051033616065979,1.5829229354858398,0.09270665794610977
1.02665376663208,1.5707954168319702,0.0941922515630722
1.014589548110962,1.5784566402435303,0.09680614620447159
1.0157264471054077,1.6053386926651,0.10049749910831451
0.9957334399223328,1.5993114709854126,0.10210544615983963
0.9754312038421631,1.5933582782745361,0.10361079126596451
0.9677364826202393,1.6070061922073364,0.1063275933265686
0.9564660787582397,1.6135947704315186,0.10850585997104645
1.337120532989502,2.2943403720855713,0.1566597819328308
1.869802713394165,3.2652664184570312,0.2263617366552353
1.7796825170516968,3.1592330932617188,0.22204260528087616
1.7497563362121582,3.157818555831909,0.2249007374048233
1.7802141904830933,3.2698071002960205,0.23578721284866333
1.7557772397994995,3.282715320587158,0.23963016271591187
2.3871803283691406,4.5403733253479,0.33527252078056335
2.351407527923584,4.549862861633301,0.33969372510910034
2.32472562789917,4.58068323135376,0.34554940462112427
2.287250280380249,4.590437889099121,0.34984397888183594
2.2514069080352783,4.599096775054932,0.3538905084133148
2.218613862991333,4.614648818969727,0.3585130572319031
2.1912379264831543,4.64461088180542,0.36397096514701843
2.1570000648498535,4.6602678298950195,0.36832913756370544
2.1235511302948,4.675267696380615,0.37257274985313416
2.0941123962402344,4.696730613708496,0.37726864218711853
2.0574052333831787,4.704099178314209,0.38071513175964355
2.0009219646453857,4.66880464553833,0.3806065022945404
1.730014443397522,4.119135856628418,0.3381805121898651
1.704075813293457,4.138091564178467,0.3420408368110657
1.6692780256271362,4.135185718536377,0.34410133957862854
1.6451045274734497,4.161360740661621,0.3483896851539612
1.6142452955245972,4.173168659210205,0.35149243474006653
1.5839977264404297,4.1844868659973145,0.35452523827552795
1.5574442148208618,4.202500343322754,0.35807350277900696
1.5280604362487793,4.213023662567139,0.36100444197654724
1.5002118349075317,4.23105001449585,0.3643512725830078
1.4715577363967896,4.249104976654053,0.3677370250225067
1.4383878707885742,4.25199556350708,0.36979132890701294
1.4135888814926147,4.276480674743652,0.3736860454082489
1.3873217105865479,4.297118663787842,0.3772733807563782
1.3565202951431274,4.306730270385742,0.3796805143356323
1.3226392269134521,4.308900833129883,0.38142967224121094
1.3005187511444092,4.34792947769165,0.3864416182041168
1.2657383680343628,4.341763019561768,0.3874165713787079
1.2376091480255127,4.357751846313477,0.3903786242008209
1.2088085412979126,4.373711109161377,0.39320653676986694
1.1835576295852661,4.4046101570129395,0.39728134870529175
1.149510383605957,4.405386924743652,0.3986871540546417
1.1240952014923096,4.435845851898193,0.40276506543159485
1.0913007259368896,4.435831546783447,0.40408217906951904
1.0638877153396606,4.458308696746826,0.40743181109428406
1.030282974243164,4.45805025100708,0.4084685444831848
1.0021486282348633,4.4842329025268555,0.41196972131729126
0.9718020558357239,4.498708248138428,0.41440364718437195
0.9404661059379578,4.505207061767578,0.4160989820957184
0.7676525712013245,3.8097925186157227,0.3528139293193817
0.743807315826416,3.8302533626556396,0.35551565885543823
0.8461247682571411,4.5313615798950195,0.42143452167510986
0.8208017349243164,4.575413703918457,0.42638957500457764
0.7898945808410645,4.588615417480469,0.4284922778606415
0.7617446184158325,4.616899013519287,0.4320201575756073
0.7325859665870667,4.641176223754883,0.435203492641449
0.6981343030929565,4.638510704040527,0.43561580777168274
0.6664214730262756,4.650930404663086,0.43741464614868164
0.6367132663726807,4.678541660308838,0.44066736102104187
0.6059408783912659,4.698211669921875,0.44319361448287964
0.5742232203483582,4.7099289894104,0.4449895918369293
0.542344868183136,4.721436977386475,0.4467650353908539
0.5093649625778198,4.732860088348389,0.4482611119747162
0.47882935404777527,4.763336658477783,0.45157957077026367
0.44675591588020325,4.782003402709961,0.4538053274154663
0.4140706956386566,4.792679786682129,0.455293208360672
0.38135722279548645,4.80312442779541,0.456781268119812
0.34894460439682007,4.828916549682617,0.459687203168869
0.31615200638771057,4.846722602844238,0.46158039569854736
0.2826249301433563,4.856544017791748,0.4627370536327362
0.2495717704296112,4.87778377532959,0.4650057256221771
0.21592296659946442,4.887134075164795,0.46616366505622864
0.18246228992938995,4.9195876121521,0.4695550203323364
0.1483858823776245,4.928483963012695,0.4706135392189026
0.11430688947439194,4.944942474365234,0.47217825055122375
0.07993124425411224,4.953388214111328,0.47300079464912415
0.04549843445420265,4.973260402679443,0.47493767738342285
0.010316591709852219,4.989003658294678,0.4765048921108246
-0.024409493431448936,5.0045013427734375,0.47807103395462036
-0.05948283523321152,5.02754545211792,0.48025083541870117
-0.094710573554039,5.0425896644592285,0.48145124316215515
-0.12979774177074432,5.045725345611572,0.4815373718738556
-0.16536644101142883,5.060274600982666,0.48273488879203796
-0.2014671415090561,5.066777229309082,0.48318445682525635
-0.2381247580051422,5.096357822418213,0.4858601689338684
-0.27513208985328674,5.125689506530762,0.4883899688720703
-0.30727139115333557,5.0693840980529785,0.48256444931030273
-0.2909414768218994,4.306732177734375,0.40959402918815613
-0.3192206621170044,4.27748441696167,0.406455934047699
-0.3508642613887787,4.298468589782715,0.40811535716056824
-0.38071075081825256,4.295979976654053,0.40756461024284363
-0.4045506715774536,4.2313618659973145,0.4010145664215088
-0.4277762770652771,4.170517921447754,0.394695520401001
-0.4536128640174866,4.136566638946533,0.39094361662864685
-0.47718024253845215,4.090922832489014,0.3861232399940491
-0.5008244514465332,4.048985481262207,0.3816774785518646
-0.5234047174453735,4.003061294555664,0.376883864402771
-0.5435507893562317,3.9455039501190186,0.3708791136741638
-0.5671846866607666,3.914767026901245,0.3672865033149719
-0.5881920456886292,3.8724253177642822,0.36264631152153015
-0.6087228059768677,3.829967498779297,0.3580235242843628
-0.6296411156654358,3.7911970615386963,0.35376739501953125
-0.6493852734565735,3.748488187789917,0.3491728603839874
-0.6696544885635376,3.7134130001068115,0.3451392352581024
-0.6904982924461365,3.6820101737976074,0.3413814306259155
-0.7067849040031433,3.631486177444458,0.3358975648880005
-0.7279771566390991,3.607569932937622,0.3328991234302521
-0.7434438467025757,3.556847095489502,0.32745251059532166
-0.761566698551178,3.5212857723236084,0.32343268394470215
-0.7800599336624146,3.4894654750823975,0.31955379247665405
-0.7968006134033203,3.453874111175537,0.31536170840263367
-0.8112587928771973,3.410651445388794,0.3105070888996124
-0.8338995575904846,3.4013094902038574,0.3087471127510071
-0.8537566661834717,3.3804571628570557,0.3059558570384979
-0.8696744441986084,3.3443756103515625,0.3017365634441376
-0.8863170146942139,3.3159844875335693,0.2981052100658417
-0.9047066569328308,3.2950174808502197,0.2951655983924866
-0.9197465777397156,3.262697219848633,0.2912328541278839
-0.9380955100059509,3.241408586502075,0.2882901430130005
-0.9521267414093018,3.2049901485443115,0.28401345014572144
-0.9693844318389893,3.1836931705474854,0.28097379207611084
-0.9850847721099854,3.158643960952759,0.27758097648620605
-0.9969387650489807,3.122400999069214,0.27323511242866516
-1.0087759494781494,3.086002826690674,0.268886923789978
-1.0219582319259644,3.0530943870544434,0.26484593749046326
-1.0429341793060303,3.0461502075195312,0.2630300223827362
-1.0582869052886963,3.0245211124420166,0.25984692573547363
-1.0786380767822266,3.0174872875213623,0.25793588161468506
-1.0911709070205688,2.9882829189300537,0.2541355788707733
-1.1038055419921875,2.958881378173828,0.2503208816051483
-1.10659921169281,2.903892993927002,0.24433808028697968
-1.1147665977478027,2.8675382137298584,0.2398553043603897
-1.1253666877746582,2.838442087173462,0.23601564764976501
-1.1445797681808472,2.830918312072754,0.2339768409729004
-1.1509593725204468,2.790620803833008,0.2292139232158661
-1.1615941524505615,2.7610466480255127,0.22532717883586884
-1.147793173789978,2.678210973739624,0.21704956889152527
-1.1469849348068237,2.6277995109558105,0.21147453784942627
-1.1648000478744507,2.620121717453003,0.20935049653053284
-1.1830158233642578,2.612121343612671,0.20717214047908783
-1.2110592126846313,2.6251847743988037,0.20659132301807404
-1.2384012937545776,2.6384286880493164,0.20593607425689697
-1.2626136541366577,2.644392490386963,0.20469897985458374
-1.2772818803787231,2.6288623809814453,0.2017505168914795
-1.292124629020691,2.613093614578247,0.19877071678638458
-1.3029719591140747,2.5904552936553955,0.1951785832643509
-1.2934449911117554,2.5299224853515625,0.18877755105495453
-1.3030749559402466,2.5076026916503906,0.1852698028087616
-1.3095988035202026,2.477968454360962,0.18116973340511322
-1.322900414466858,2.462233781814575,0.17808406054973602
-1.3352999687194824,2.4468419551849365,0.1749638020992279
-1.3459528684616089,2.427823543548584,0.1715695858001709
-1.3589321374893188,2.411829710006714,0.16833463311195374
-1.3640148639678955,2.3822295665740967,0.16415123641490936
-1.3913277387619019,2.3936755657196045,0.1627272516489029
-1.4029934406280518,2.3779962062835693,0.1594536304473877
-1.4197163581848145,2.3682525157928467,0.15642079710960388
-1.4237691164016724,2.3386616706848145,0.1521032750606537
-1.4266037940979004,2.3096659183502197,0.14780698716640472
-1.449987769126892,2.313685178756714,0.14561165869235992
-1.4494209289550781,2.2773358821868896,0.14072470366954803
-1.4605951309204102,2.2611048221588135,0.13702479004859924
-1.479407787322998,2.2583703994750977,0.13416552543640137
-1.479622721672058,2.225708246231079,0.1294027715921402
-1.499113917350769,2.222248077392578,0.126275435090065
-1.4647737741470337,2.1419930458068848,0.11883676052093506
-1.5103691816329956,2.1771240234375,0.1176556870341301
-1.486969232559204,2.1127398014068604,0.11101740598678589
-1.5001609325408936,2.1035852432250977,0.10732607543468475
-1.5141844749450684,2.093712091445923,0.103383369743824
-1.3596348762512207,1.8539659976959229,0.08830215036869049
-1.5271251201629639,2.0555803775787354,0.09425535798072815
-1.5150198936462402,2.1375350952148438,-0.07610378414392471
-1.4850785732269287,2.129784345626831,-0.07987051457166672
-1.4920051097869873,2.1723124980926514,-0.08522840589284897
-1.4929747581481934,2.209275722503662,-0.09046761691570282
-1.485123872756958,2.233168601989746,-0.09508612006902695
-1.4737412929534912,2.2498695850372314,-0.09920484572649002
-1.458891749382019,2.2639987468719482,-0.10322010517120361
-1.4402520656585693,2.2711079120635986,-0.10681799799203873
-1.4342607259750366,2.2977590560913086,-0.11127549409866333
-1.417067050933838,2.308225154876709,-0.11488959193229675
-1.4123358726501465,2.3383431434631348,-0.11943625658750534
-1.3999227285385132,2.354703664779663,-0.12320422381162643
-1.3981791734695435,2.3917880058288574,-0.12806348502635956
-1.3647000789642334,2.374925374984741,-0.1300612986087799
-1.3634716272354126,2.4113755226135254,-0.13478735089302063
-1.3422608375549316,2.4141411781311035,-0.1376206874847412
-1.3245134353637695,2.4237399101257324,-0.14082194864749908
-1.3164840936660767,2.4500935077667236,-0.14493966102600098
-1.3025413751602173,2.4661741256713867,-0.14847804605960846
-1.2952015399932861,2.4962472915649414,-0.15279436111450195
-1.2805050611495972,2.512388229370117,-0.15628015995025635
-1.273417592048645,2.542003870010376,-0.16053198277950287
-1.2846060991287231,2.610281229019165,-0.16727331280708313
-1.2907185554504395,2.6721816062927246,-0.17371071875095367
-1.2280478477478027,2.589585542678833,-0.17066118121147156
-1.2099167108535767,2.5979201793670654,-0.17346855998039246
-1.1848933696746826,2.5921056270599365,-0.17526550590991974
-1.1900420188903809,2.653784990310669,-0.181621253490448
-1.1914328336715698,2.70843243598938,-0.18756286799907684
-1.1459276676177979,2.6557810306549072,-0.18605439364910126
-1.1422274112701416,2.699568033218384,-0.1911918818950653
-1.1481341123580933,2.768749475479126,-0.1981610655784607
-1.1371086835861206,2.7983648777008057,-0.2023554891347885
-1.1277035474777222,2.831367254257202,-0.20678338408470154
-1.13286292552948,2.9045417308807373,-0.21420514583587646
-1.1120562553405762,2.912383556365967,-0.21674363315105438
-1.1007202863693237,2.9456334114074707,-0.22120343148708344
-1.08812415599823,2.9750261306762695,-0.2253698855638504
-1.077717661857605,3.011746883392334,-0.23012056946754456
-1.0608835220336914,3.0340452194213867,-0.23368945717811584
-1.0365809202194214,3.03401517868042,-0.23552542924880981
-1.0238605737686157,3.0669097900390625,-0.23990404605865479
-1.0072978734970093,3.0885977745056152,-0.24342572689056396
-0.9925039410591125,3.117741107940674,-0.24744383990764618
-0.9745023250579834,3.1395514011383057,-0.2508942484855652
-0.9624058604240417,3.179743528366089,-0.2558129131793976
-0.9446614384651184,3.201127767562866,-0.2592281401157379
-0.9265508055686951,3.2224514484405518,-0.2626231014728546
-0.9141905903816223,3.266270399093628,-0.2677242159843445
-0.8961399793624878,3.291283130645752,-0.27132365107536316
-0.8726115226745605,3.2974276542663574,-0.273402601480484
-0.8573619723320007,3.3334288597106934,-0.2779473066329956
-0.8451576232910156,3.384559154510498,-0.2836688160896301
-0.8247978687286377,3.4054462909698486,-0.2868154048919678
-0.8050734996795654,3.430001974105835,-0.29029935598373413
-0.7790595293045044,3.4278600215911865,-0.2915396988391876
-0.7719386219978333,3.5090715885162354,-0.2998867630958557
-0.7480056285858154,3.5180892944335938,-0.3018694519996643
-0.7326101064682007,3.5688817501068115,-0.3074570894241333
-0.7120608687400818,3.5967047214508057,-0.31110188364982605
-0.694528341293335,3.643578290939331,-0.3164461851119995
-0.6760625839233398,3.686483860015869,-0.3214082419872284
-0.6527553796768188,3.706364631652832,-0.3241874873638153
-0.6337370872497559,3.7529590129852295,-0.3293358385562897
-0.613664984703064,3.7955923080444336,-0.3341681957244873
-0.5897657871246338,3.8189377784729004,-0.33734753727912903
-0.569957435131073,3.869032144546509,-0.34277814626693726
-0.5471497774124146,3.9036548137664795,-0.3467029631137848
-0.5274762511253357,3.965144157409668,-0.3530506491661072
-0.5056116580963135,4.014948844909668,-0.35839542746543884
-0.4818027913570404,4.053033828735352,-0.36272650957107544
-0.4564240574836731,4.08719539642334,-0.3665769696235657
-0.43463292717933655,4.1559953689575195,-0.37341755628585815
-0.409256249666214,4.197579383850098,-0.3778480589389801
-0.37301796674728394,4.122745513916016,-0.3718058466911316
-0.35078561305999756,4.202698707580566,-0.37974125146865845
-0.3209315240383148,4.205018043518066,-0.3804742395877838
-0.28994762897491455,4.183814525604248,-0.37897634506225586
-0.2556476891040802,4.104142665863037,-0.3721899092197418
-0.22705495357513428,4.105769634246826,-0.37278464436531067
-0.19920295476913452,4.122740745544434,-0.37479233741760254
-0.169325053691864,4.1084699630737305,-0.37372609972953796
-0.14116521179676056,4.12507963180542,-0.37540289759635925
-0.13410966098308563,4.923129558563232,-0.44824880361557007
-0.10001552104949951,4.9316935539245605,-0.44926947355270386
-0.06564389169216156,4.924461364746094,-0.44887253642082214
-0.030711892992258072,4.909243583679199,-0.4474424719810486
0.003420847002416849,4.9015655517578125,-0.44665440917015076
0.03736834228038788,4.878089904785156,-0.4444487988948822
0.0711326152086258,4.869940280914307,-0.4436616003513336
0.10491131246089935,4.865445613861084,-0.4432288408279419
0.1377723515033722,4.833531379699707,-0.43996456265449524
0.17108729481697083,4.809154987335205,-0.437355637550354
0.20414882898330688,4.800120830535889,-0.43617233633995056
0.23636513948440552,4.77531623840332,-0.4335787892341614
0.2689044177532196,4.7619476318359375,-0.43204715847969055
0.3009304702281952,4.744513034820557,-0.4298160970211029
0.3349723219871521,4.750109672546387,-0.429656445980072
0.3687959909439087,4.75938606262207,-0.42986005544662476
0.39564087986946106,4.683126926422119,-0.4223652780056
0.43101388216018677,4.711335182189941,-0.4243179261684418
0.4635504186153412,4.708354473114014,-0.4231049120426178
0.49176838994026184,4.658655643463135,-0.41770607233047485
0.5218443870544434,4.635913372039795,-0.41477230191230774
0.553173303604126,4.624549865722656,-0.41287732124328613
0.583371639251709,4.605259418487549,-0.41026824712753296
0.6141519546508789,4.593542575836182,-0.4080316424369812
0.6453428268432617,4.581544876098633,-0.4057736098766327
0.673651933670044,4.554003715515137,-0.40218374133110046
0.7023605108261108,4.530112266540527,-0.3989405632019043
0.7325801849365234,4.517580032348633,-0.396656334400177
0.7663704752922058,4.527923583984375,-0.39613306522369385
0.7935407757759094,4.499694347381592,-0.3922581076622009
0.8210353851318359,4.471183776855469,-0.38836148381233215
0.7164342999458313,3.754403829574585,-0.32494646310806274
0.7424073815345764,3.749497890472412,-0.3232855796813965
0.7877452373504639,3.839785575866699,-0.3296433389186859
0.9362292289733887,4.409409523010254,-0.37692007422447205
0.9664824604988098,4.399080753326416,-0.37438836693763733
1.0014421939849854,4.411401271820068,-0.3738165497779846
1.02834951877594,4.389412879943848,-0.3701936602592468
1.058512806892395,4.382442951202393,-0.36773642897605896
1.0857723951339722,4.363938808441162,-0.3643357455730438
1.1166194677352905,4.356358051300049,-0.3618144989013672
1.144963026046753,4.341147422790527,-0.3587089478969574
1.1706666946411133,4.3183722496032715,-0.35477975010871887
1.1981221437454224,4.302974700927734,-0.3514402508735657
1.2277005910873413,4.294852256774902,-0.3487052619457245
1.2559295892715454,4.2787933349609375,-0.3452836573123932
1.2811305522918701,4.255274295806885,-0.34127870202064514
1.3101619482040405,4.2466654777526855,-0.33828359842300415
1.339168906211853,4.2378458976745605,-0.335284948348999
1.3660517930984497,4.22130823135376,-0.3316689729690552
1.3959870338439941,4.211747169494629,-0.3285607695579529
1.413676381111145,4.169083118438721,-0.32281941175460815
1.444627285003662,4.166956424713135,-0.32016128301620483
1.4730437994003296,4.157243728637695,-0.31692802906036377
1.4966973066329956,4.13246488571167,-0.31251662969589233
1.5254154205322266,4.1222004890441895,-0.30920737981796265
1.5483604669570923,4.0972418785095215,-0.30459263920783997
1.5733757019042969,4.079604625701904,-0.30059605836868286
1.6043609380722046,4.076154708862305,-0.2976170480251312
1.6298387050628662,4.057893753051758,-0.293544203042984
1.6545590162277222,4.039717197418213,-0.2893809974193573
1.6793506145477295,4.021295070648193,-0.2851264476776123
1.7678189277648926,4.153472423553467,-0.2914930582046509
2.0139527320861816,4.641999244689941,-0.3223430812358856
2.0457887649536133,4.628365516662598,-0.3178859055042267
2.0753583908081055,4.6112165451049805,-0.3131077289581299
2.1070327758789062,4.597143173217773,-0.3084835112094879
2.1357662677764893,4.575572967529297,-0.30332377552986145
2.1639275550842285,4.554000377655029,-0.298143208026886
2.2012908458709717,4.553701400756836,-0.2942645251750946
2.231862783432007,4.53910493850708,-0.28946319222450256
2.2605464458465576,4.516488552093506,-0.283954381942749
2.295114517211914,4.508089065551758,-0.2793777883052826
2.3270175457000732,4.496409893035889,-0.2745087742805481
2.368121385574341,4.501671314239502,-0.27063944935798645
1.7333887815475464,3.2401747703552246,-0.19165481626987457
1.7517637014389038,3.2216265201568604,-0.18738286197185516
1.7301644086837769,3.1313669681549072,-0.17894648015499115
1.7360889911651611,3.0925583839416504,-0.17356371879577637
1.802117943763733,3.1585237979888916,-0.17392124235630035
1.347827672958374,2.3262112140655518,-0.12557949125766754
0.9516637325286865,1.6178076267242432,-0.08557558804750443
0.959004282951355,1.6044976711273193,-0.08300648629665375
0.9699380993843079,1.5980242490768433,-0.08081324398517609
0.9783492684364319,1.5884162187576294,-0.07845866680145264
0.9910860657691956,1.5852152109146118,-0.07637450098991394
1.0062834024429321,1.584977626800537,-0.07435338944196701
1.0252156257629395,1.5915131568908691,-0.07257608324289322
1.0207774639129639,1.5619275569915771,-0.06916927546262741
1.031641960144043,1.5548818111419678,-0.06668362021446228
1.041703224182129,1.548263669013977,-0.06421006470918655
1.0584716796875,1.5511521100997925,-0.06207452341914177
2.5590014457702637,3.694077730178833,-0.1419880986213684
2.5870485305786133,3.6842777729034424,-0.1358281522989273
2.6116249561309814,3.6671395301818848,-0.1291249394416809
2.6132895946502686,3.6181328296661377,-0.1210893839597702
2.636049270629883,3.601809501647949,-0.1142013818025589
2.6750690937042236,3.6023874282836914,-0.10714108496904373
2.6250791549682617,3.679959535598755,0.168354794383049
2.614067792892456,3.725663423538208,0.17680451273918152
2.596766948699951,3.7564241886138916,0.18394333124160767
1.0601662397384644,1.558708667755127,0.07862819731235504
1.061406135559082,1.5859848260879517,0.08225646615028381
1.0416953563690186,1.580208659172058,0.08402270823717117
1.0336281061172485,1.5946730375289917,0.08684682101011276
1.0301005840301514,1.6153655052185059,0.08995065093040466
1.0021828413009644,1.5959676504135132,0.09068963676691055
0.9901962280273438,1.6033071279525757,0.09287295490503311
0.9780251383781433,1.6106332540512085,0.09505276381969452
0.9665440320968628,1.6174275875091553,0.09709979593753815
0.9706230163574219,1.65116548538208,0.10073617845773697
1.3504528999328613,2.3371336460113525,0.14480139315128326
1.815139889717102,3.194531202316284,0.20084208250045776
1.758517861366272,3.1456310749053955,0.20051629841327667
1.7461748123168945,3.1789987087249756,0.20535022020339966
1.7650150060653687,3.270643711090088,0.21396906673908234
1.7488913536071777,3.2967379093170166,0.21827584505081177
2.36954927444458,4.542951583862305,0.3042835593223572
2.3325304985046387,4.553009033203125,0.30827876925468445
2.3016674518585205,4.57711124420166,0.3132741451263428
2.268822193145752,4.593185901641846,0.31757691502571106
2.2332944869995117,4.601608753204346,0.3212807774543762
2.2065889835357666,4.631468296051025,0.326334148645401
2.1691787242889404,4.640218257904053,0.3298453092575073
2.138702869415283,4.662640571594238,0.3343082666397095
2.1023967266082764,4.670297145843506,0.33766376972198486
2.0788462162017822,4.706132888793945,0.3429642617702484
2.028958559036255,4.6851487159729,0.34396862983703613
1.746517300605774,4.114809989929199,0.30432361364364624
1.711417317390442,4.112427234649658,0.3063048720359802
1.6850965023040771,4.131472110748291,0.3099065124988556
1.6583259105682373,4.150466442108154,0.3133448660373688
1.6280959844589233,4.162203311920166,0.316175639629364
1.600568175315857,4.180996417999268,0.31956255435943604
1.5713201761245728,4.191867351531982,0.32228630781173706
1.544206976890564,4.210018634796143,0.32561978697776794
1.513935923576355,4.220800876617432,0.32817262411117554
1.4859509468078613,4.238796234130859,0.3312569260597229
1.4552981853485107,4.249220371246338,0.333767831325531
1.4256062507629395,4.259083271026611,0.33619412779808044
1.397768497467041,4.276302337646484,0.3392484486103058
1.3695223331451416,4.293430328369141,0.34209707379341125
1.34438157081604,4.321591854095459,0.3457888960838318
1.3109543323516846,4.323532581329346,0.34740620851516724
1.280700445175171,4.332417964935303,0.3495529592037201
1.2526628971099854,4.348541259765625,0.35229751467704773
1.22348153591156,4.36476469039917,0.3549584448337555
1.1942775249481201,4.380763053894043,0.35748156905174255
1.1649070978164673,4.3965654373168945,0.3600112199783325
1.1357921361923218,4.412064075469971,0.3625217378139496
1.1050071716308594,4.4197211265563965,0.3643927276134491
1.0790058374404907,4.4500298500061035,0.36813119053840637
1.0454542636871338,4.449898719787598,0.3691202402114868
1.0188671350479126,4.479887962341309,0.3726300895214081
0.9877669811248779,4.49069881439209,0.37456831336021423
0.9597407579421997,4.512562274932861,0.3774269223213196
0.8063996434211731,3.928004741668701,0.3294660449028015
0.7552749514579773,3.8150978088378906,0.3207396864891052
0.7238357067108154,3.797318696975708,0.3199167847633362
0.8358104228973389,4.5604248046875,0.38503217697143555
0.8064318895339966,4.581411838531494,0.3876420557498932
0.776570737361908,4.6022467613220215,0.39027002453804016
0.7469972968101501,4.622801780700684,0.392878919839859
0.7149149179458618,4.631723880767822,0.39422449469566345
0.6843965649604797,4.65198278427124,0.3965580463409424
0.6525957584381104,4.664323806762695,0.3982385993003845
0.6214897632598877,4.6841888427734375,0.40058839321136475
0.5898759961128235,4.696033477783203,0.40226125717163086
0.5588921308517456,4.715419769287109,0.40452075004577637
0.5265898704528809,4.7269062995910645,0.40591657161712646
0.49410533905029297,4.738175392150879,0.40731582045555115
0.4619131088256836,4.753089427947998,0.40904977917671204
0.43103742599487305,4.787187576293945,0.41246259212493896
0.3977157771587372,4.790008068084717,0.4131954610347748
0.3654397428035736,4.808140277862549,0.4151206314563751
0.3333355188369751,4.833842754364014,0.4175548255443573
0.2999267578125,4.843792915344238,0.41865023970603943
0.26648473739624023,4.865198612213135,0.4207620620727539
0.23337063193321228,4.882447719573975,0.4225308895111084
0.200346902012825,4.907247543334961,0.4249759316444397
0.16665472090244293,4.924062252044678,0.426560640335083
0.13248249888420105,4.932876110076904,0.42734941840171814
0.09763479232788086,4.941463947296143,0.4281403422355652
0.06333279609680176,4.957580089569092,0.4296042025089264
0.028941716998815536,4.969565391540527,0.4307309687137604
-0.005686407908797264,5.00076961517334,0.43354541063308716
-0.040546517819166183,5.008401870727539,0.43410524725914
-0.07619495689868927,5.023573875427246,0.4352395534515381
-0.11166087538003922,5.0462846755981445,0.43704986572265625
-0.1467675268650055,5.045403957366943,0.43683740496635437
-0.1827966272830963,5.071505069732666,0.4389817416667938
-0.21841175854206085,5.077905654907227,0.439441055059433
-0.25439929962158203,5.091857433319092,0.4403145909309387
-0.29268890619277954,5.132727146148682,0.4434598982334137
-0.2783035933971405,4.349959850311279,0.37552371621131897
-0.3032516837120056,4.274203777313232,0.3686998188495636
-0.33416038751602173,4.287552356719971,0.3695836365222931
-0.3652693033218384,4.300678253173828,0.3704642057418823
-0.392605185508728,4.267064094543457,0.3670791983604431
-0.416261225938797,4.206221580505371,0.36135920882225037
-0.441967248916626,4.17234992980957,0.35798361897468567
-0.46564748883247375,4.122835636138916,0.35328876972198486
-0.4882817566394806,4.069320201873779,0.3482770621776581
-0.5096886157989502,4.007909297943115,0.342599481344223
-0.532049298286438,3.965813398361206,0.3383665084838867
-0.5549436211585999,3.9313082695007324,0.3348081111907959
-0.5756772756576538,3.8851242065429688,0.33028218150138855
-0.5978260040283203,3.8503456115722656,0.3267475366592407
-0.6168975830078125,3.7961556911468506,0.3215829133987427
-0.6366409659385681,3.75349760055542,0.31738072633743286
-0.6568705439567566,3.7184839248657227,0.3136773407459259
-0.6801683306694031,3.702512741088867,0.3116034269332886
-0.6981714963912964,3.65962815284729,0.30728864669799805
-0.7152943015098572,3.612766981124878,0.30265793204307556
-0.7345726490020752,3.577200174331665,0.2989904582500458
-0.7494843602180481,3.5264556407928467,0.293987512588501
-0.7718450427055359,3.513763904571533,0.2920732796192169
-0.791449785232544,3.489546775817871,0.28922218084335327
-0.8082672953605652,3.4538121223449707,0.28543588519096375
-0.8235676884651184,3.41025972366333,0.28100714087486267
-0.8425685167312622,3.38565993309021,0.2781822681427002
-0.8598310947418213,3.35732102394104,0.27490583062171936
-0.876672625541687,3.3289244174957275,0.2716237008571625
-0.8911336064338684,3.2929346561431885,0.2677496671676636
-0.9131935238838196,3.2829620838165283,0.2659822106361389
-0.9295602440834045,3.254187822341919,0.2627222239971161
-0.9409757256507874,3.210460662841797,0.25822001695632935
-0.958162784576416,3.189237117767334,0.2554343640804291
-0.9762810468673706,3.171640396118164,0.252958208322525
-0.9888707399368286,3.1352081298828125,0.24897949397563934
-1.0010881423950195,3.098724126815796,0.24502478539943695
-1.022660493850708,3.0917978286743164,0.24342785775661469
-1.0385041236877441,3.070204257965088,0.2405308336019516
-1.047746181488037,3.0301244258880615,0.2362089306116104
-1.075935959815979,3.045166254043579,0.23620069026947021
-1.0895287990570068,3.0156266689300537,0.23268672823905945
-1.0889167785644531,2.9496209621429443,0.22642265260219574
-1.1116249561309814,2.949608325958252,0.2251424342393875
-1.124390959739685,2.924044132232666,0.22189298272132874
-1.13546621799469,2.8948023319244385,0.21839047968387604
-1.1327024698257446,2.82897686958313,0.21210916340351105
-1.1509333848953247,2.817540407180786,0.2099609524011612
-1.1609646081924438,2.7882559299468994,0.2063988894224167
-1.1476269960403442,2.7052295207977295,0.1988745629787445
-1.1471456289291382,2.654700517654419,0.19380855560302734
-1.1596221923828125,2.6323931217193604,0.19076313078403473
-1.1747736930847168,2.6172661781311035,0.18827886879444122
-1.1987377405166626,2.6236767768859863,0.18724311888217926
-1.216190218925476,2.6157801151275635,0.1851707100868225
-1.2437578439712524,2.628833055496216,0.18456298112869263
-1.275877833366394,2.6482138633728027,0.1842978149652481
-1.2974846363067627,2.646536111831665,0.1825537234544754
-1.2975584268569946,2.603163957595825,0.17787626385688782
-1.2882845401763916,2.542520761489868,0.17208482325077057
-1.2950122356414795,2.5129642486572266,0.1683858335018158
-1.3052754402160645,2.490206003189087,0.165148064494133
-1.3111083507537842,2.460817813873291,0.16138407588005066
-1.327291488647461,2.4522814750671387,0.1590222865343094
-1.3400561809539795,2.436587333679199,0.1561640501022339
-1.3475406169891357,2.410297393798828,0.15258699655532837
-1.3598016500473022,2.394592761993408,0.14965106546878815
-1.3757452964782715,2.3856279850006104,0.14708025753498077
-1.3798797130584717,2.3563132286071777,0.14326852560043335
-1.3842835426330566,2.3266947269439697,0.13940270245075226
-1.4157694578170776,2.344367027282715,0.13831835985183716
-1.4227774143218994,2.321995973587036,0.13484559953212738
-1.442885160446167,2.3189151287078857,0.13236533105373383
-1.4464665651321411,2.289201021194458,0.12835118174552917
-1.4295969009399414,2.2307212352752686,0.12273205071687698
-1.4355008602142334,2.208488702774048,0.11916571110486984
-1.4810222387313843,2.244147777557373,0.11849786341190338
-1.4873822927474976,2.221342086791992,0.11462430655956268
-1.4708651304244995,2.1667397022247314,0.10921147465705872
-1.5078588724136353,2.188889980316162,0.10749029368162155
-1.513327717781067,2.1662583351135254,0.1034879982471466
-1.493084192276001,2.109072685241699,0.09790165722370148
-1.5078157186508179,2.098734140396118,0.09423257410526276
-1.512108325958252,2.0765178203582764,0.0900421142578125
-1.5206583738327026,2.0607268810272217,0.08607684075832367
-1.5024105310440063,2.103652238845825,-0.06695085018873215
-1.5153297185897827,2.156574010848999,-0.07245559245347977
-1.4757553339004517,2.1316795349121094,-0.07501436024904251
-1.5013151168823242,2.203984260559082,-0.08101733773946762
-1.4938106536865234,2.227766513824463,-0.08521407842636108
-1.4735660552978516,2.231720209121704,-0.08850707113742828
-1.464878797531128,2.2559280395507812,-0.0926584005355835
-1.440324306488037,2.2530324459075928,-0.09547755867242813
-1.4324170351028442,2.2763965129852295,-0.09933722019195557
-1.4297420978546143,2.3101277351379395,-0.10368184745311737
-1.4132283926010132,2.320122241973877,-0.10686445981264114
-1.404353380203247,2.343576192855835,-0.11066869646310806
-1.3948229551315308,2.3672499656677246,-0.1144423633813858
-1.3855851888656616,2.390580654144287,-0.11815033853054047
-1.3572272062301636,2.379728078842163,-0.12008953839540482
-1.3472989797592163,2.403125047683716,-0.12371133267879486
-1.336915135383606,2.4265992641448975,-0.12739652395248413
-1.325534462928772,2.4460089206695557,-0.13074424862861633
-1.307968258857727,2.4552972316741943,-0.13353167474269867
-1.3261513710021973,2.533785104751587,-0.1401253640651703
-1.286614179611206,2.501401662826538,-0.14056450128555298
-1.2934596538543701,2.559063673019409,-0.14606454968452454
-1.2939518690109253,2.606656551361084,-0.15096443891525269
-1.27494215965271,2.615849256515503,-0.15367260575294495
-1.2396187782287598,2.5894384384155273,-0.15420110523700714
-1.2198059558868408,2.5943679809570312,-0.15654772520065308
-1.2123857736587524,2.6277902126312256,-0.16055741906166077
-1.1929470300674438,2.636514663696289,-0.16312068700790405
-1.1602003574371338,2.6125786304473877,-0.16354438662528992
-1.1746575832366943,2.695535898208618,-0.1706799566745758
-1.1628849506378174,2.721700429916382,-0.17419177293777466
-1.1613599061965942,2.7729990482330322,-0.1793607771396637
-1.147374153137207,2.795524835586548,-0.18271124362945557
-1.1336026191711426,2.8177998065948486,-0.18602897226810455
-1.123331069946289,2.8511133193969727,-0.18999725580215454
-1.1196073293685913,2.9026238918304443,-0.19522160291671753
-1.104540228843689,2.9249110221862793,-0.19849587976932526
-1.090541958808899,2.9507908821105957,-0.20204579830169678
-1.0801914930343628,2.987626552581787,-0.20626047253608704
-1.0588147640228271,2.995119333267212,-0.20842500030994415
-1.0527551174163818,3.046633720397949,-0.21368052065372467
-1.0339773893356323,3.0611355304718018,-0.21634593605995178
-1.0230803489685059,3.1015992164611816,-0.22086717188358307
-0.9961503744125366,3.0938353538513184,-0.2218293845653534
-0.990405797958374,3.15276837348938,-0.22760334610939026
-0.9705778360366821,3.166935682296753,-0.23015837371349335
-0.9563058018684387,3.1996076107025146,-0.23407694697380066
-0.9380571842193604,3.2211031913757324,-0.23707203567028046
-0.9211412072181702,3.250147581100464,-0.24062921106815338
-0.9022887945175171,3.271462917327881,-0.24361225962638855
-0.8845117688179016,3.2963500022888184,-0.24686826765537262
-0.8693538308143616,3.332463026046753,-0.25097012519836426
-0.8514401316642761,3.3610758781433105,-0.2543755769729614
-0.8327711224555969,3.3896923065185547,-0.257831871509552
-0.8125781416893005,3.410480499267578,-0.26068589091300964
-0.7897316813468933,3.4197123050689697,-0.26266422867774963
-0.7725672721862793,3.4554460048675537,-0.26660671830177307
-0.7597174048423767,3.5139904022216797,-0.2722245156764984
-0.7352854609489441,3.523043394088745,-0.2740596830844879
-0.722920835018158,3.589075803756714,-0.2803336977958679
-0.7023351192474365,3.616849422454834,-0.2836556136608124
-0.683332622051239,3.656043529510498,-0.2877502143383026
-0.6644004583358765,3.6990017890930176,-0.29210156202316284
-0.6437580585479736,3.738112688064575,-0.2962009310722351
-0.6215508580207825,3.7654476165771484,-0.29936492443084717
-0.6014244556427002,3.808037519454956,-0.3037726879119873
-0.5811028480529785,3.8544256687164307,-0.30829164385795593
-0.5584623217582703,3.8891568183898926,-0.31186917424201965
-0.5375553369522095,3.943105936050415,-0.31703314185142517
-0.5160245895385742,3.9930102825164795,-0.32188987731933594
-0.4924415647983551,4.03120231628418,-0.3258342742919922
-0.4677068293094635,4.065433025360107,-0.32920902967453003
-0.4445990025997162,4.118869304656982,-0.33415892720222473
-0.42119067907333374,4.176047325134277,-0.33944401144981384
-0.3909336030483246,4.1710944175720215,-0.339708536863327
-0.36328211426734924,4.189155578613281,-0.341839462518692
-0.3340177536010742,4.191543102264404,-0.3424217700958252
-0.3066762685775757,4.220909595489502,-0.3452279269695282
-0.27544355392456055,4.195703983306885,-0.3435863256454468
-0.23871788382530212,4.077014446258545,-0.33429667353630066
-0.21114206314086914,4.094084739685059,-0.33611130714416504
-0.18260683119297028,4.095434665679932,-0.3363820016384125
-0.15431994199752808,4.104367733001709,-0.33729252219200134
-0.1521684229373932,4.969189167022705,-0.40859612822532654
-0.11655987054109573,4.950654029846191,-0.40732821822166443
-0.08226883411407471,4.959105968475342,-0.4082567095756531
-0.047448866069316864,4.928418159484863,-0.4056605398654938
-0.013080883771181107,4.905272960662842,-0.4037055969238281
0.02098679542541504,4.897461891174316,-0.403032511472702
0.05545312911272049,4.881622314453125,-0.40171825885772705
0.08934169262647629,4.881125450134277,-0.4016464352607727
0.12215717881917953,4.8376078605651855,-0.39774632453918457
0.15570881962776184,4.836675643920898,-0.3973698616027832
0.18838174641132355,4.812167167663574,-0.3950766623020172
0.22116386890411377,4.79521369934082,-0.39342430233955383
0.25387540459632874,4.770235538482666,-0.39108845591545105
0.28675010800361633,4.764530181884766,-0.39005547761917114
0.3187752664089203,4.746945381164551,-0.3880709409713745
0.3511868715286255,4.736907482147217,-0.38672417402267456
0.3822149634361267,4.711126327514648,-0.3841140866279602
0.4141313135623932,4.6928558349609375,-0.3820834457874298
0.44731152057647705,4.697716236114502,-0.38168102502822876
0.4789952337741852,4.686847686767578,-0.380018949508667
0.5076717734336853,4.648662567138672,-0.3761651813983917
0.5399680733680725,4.645105361938477,-0.3751354515552521
0.5708924531936646,4.625802040100098,-0.37278318405151367
0.6007927656173706,4.606414794921875,-0.3701970875263214
0.6304919719696045,4.586829662322998,-0.36761823296546936
0.6600275039672852,4.567042827606201,-0.36504507064819336
0.6905646324157715,4.554754734039307,-0.36309146881103516
0.7208641767501831,4.53834342956543,-0.36074137687683105
0.7508403062820435,4.525713920593262,-0.35851001739501953
0.7806764841079712,4.5128865242004395,-0.35628411173820496
0.8077626824378967,4.484503269195557,-0.3528493642807007
0.7027398943901062,3.7515532970428467,-0.2941863238811493
0.7287567257881165,3.746699333190918,-0.2927432954311371
0.754977822303772,3.741630792617798,-0.29111480712890625
0.9153593182563782,4.380817890167236,-0.33943992853164673
0.9547784328460693,4.416388988494873,-0.3407803177833557
0.9855014085769653,4.409782886505127,-0.3388640582561493
1.0142134428024292,4.395430088043213,-0.3362346589565277
1.0448741912841797,4.388411521911621,-0.33402019739151
1.0721930265426636,4.3699493408203125,-0.3309827744960785
1.100622534751892,4.355005741119385,-0.3282150328159332
1.1289317607879639,4.339868068695068,-0.32545220851898193
1.156753420829773,4.324645519256592,-0.3225359320640564
1.1847686767578125,4.3091559410095215,-0.3195262849330902
1.2142868041992188,4.301109790802002,-0.3171151876449585
1.2355611324310303,4.262780666351318,-0.3124692142009735
1.267458438873291,4.261715412139893,-0.31057554483413696
1.2988348007202148,4.260599613189697,-0.30845919251441956
1.3237916231155396,4.236778736114502,-0.304681658744812
1.346988320350647,4.209197521209717,-0.3006856441497803
1.3762704133987427,4.199906349182129,-0.2979961931705475
1.4051926136016846,4.190513610839844,-0.29523611068725586
1.4311599731445312,4.173677921295166,-0.2918459177017212
1.4569625854492188,4.156680583953857,-0.28846579790115356
1.4836660623550415,4.139149188995361,-0.2849873900413513
1.5071262121200562,4.114263534545898,-0.2810586094856262
1.5378611087799072,4.11140775680542,-0.2784968614578247
1.5629723072052002,4.093790531158447,-0.27492600679397583
1.5909932851791382,4.083189964294434,-0.27182215452194214
1.614137053489685,4.057529926300049,-0.2676554322242737
1.6361254453659058,4.032097816467285,-0.2635017931461334
1.6633628606796265,4.021151065826416,-0.2602292001247406
1.702644944190979,4.038763523101807,-0.2587984800338745
1.9817506074905396,4.611001014709473,-0.29243916273117065
2.031428337097168,4.6364569664001465,-0.29092592000961304
2.0610501766204834,4.619348526000977,-0.2866455316543579
2.0921454429626465,4.6055989265441895,-0.2825890779495239
2.1256048679351807,4.594804763793945,-0.27863964438438416
2.1525940895080566,4.569544792175293,-0.2738077640533447
2.1804072856903076,4.547949314117432,-0.2690213620662689
2.21771502494812,4.5474934577941895,-0.26555487513542175
2.2455837726593018,4.5253448486328125,-0.26072996854782104
2.2735605239868164,4.502870559692383,-0.2558745741844177
2.307199001312256,4.49475622177124,-0.25173017382621765
2.3462181091308594,4.496780872344971,-0.24814273416996002
1.735743522644043,3.2707362174987793,-0.17764845490455627
1.7454067468643188,3.234774589538574,-0.17288504540920258
1.719963550567627,3.1377508640289307,-0.1649007797241211
1.729377269744873,3.10597825050354,-0.1604478657245636
1.775965929031372,3.1381850242614746,-0.1591469794511795
1.3326902389526367,2.3174245357513428,-0.11526794731616974
1.2908886671066284,2.2109694480895996,-0.10782884806394577
0.9514861702919006,1.6047388315200806,-0.07666022330522537
0.9626730680465698,1.5981463193893433,-0.07468611747026443
0.9752394556999207,1.595177412033081,-0.07286115735769272
0.9858970642089844,1.588703989982605,-0.07084254920482635
0.9969438910484314,1.58188796043396,-0.06874120980501175
1.01589834690094,1.588440179824829,-0.06720045208930969
1.0155829191207886,1.5655131340026855,-0.06441428512334824
1.0284816026687622,1.5618361234664917,-0.06233133375644684
