X,Y,Z
1.966587781906128,4.371608257293701,-0.379667729139328
1.990216612815857,4.344283580780029,-0.3725419044494629
2.0498108863830566,4.394471168518066,-0.37202179431915283
2.1340200901031494,4.493107318878174,-0.375357061624527
2.191669225692749,4.53512716293335,-0.37363314628601074
2.230888605117798,4.538208961486816,-0.3686003088951111
2.2609219551086426,4.51950740814209,-0.3616037368774414
2.2924749851226807,4.504117012023926,-0.3549099564552307
2.3246004581451416,4.49254035949707,-0.3483923077583313
2.361997604370117,4.491137981414795,-0.3426436185836792
1.7405511140823364,3.2550132274627686,-0.24410797655582428
1.750150203704834,3.2192223072052,-0.23716752231121063
1.7362072467803955,3.1427838802337646,-0.22721128165721893
1.741966962814331,3.1042418479919434,-0.22019894421100616
1.7848812341690063,3.1296117305755615,-0.21753008663654327
1.3351125717163086,2.3045458793640137,-0.15684232115745544
1.2970136404037476,2.2051305770874023,-0.1468367725610733
0.9562072157859802,1.6003813743591309,-0.10409779101610184
0.9693762063980103,1.5971916913986206,-0.10139095038175583
0.9798949956893921,1.5909438133239746,-0.09846507012844086
0.9883914589881897,1.5812610387802124,-0.0953148752450943
1.0057052373886108,1.5843720436096191,-0.09279610216617584
1.0164265632629395,1.5776984691619873,-0.08962932974100113
1.0224820375442505,1.5646404027938843,-0.08615615218877792
1.0333843231201172,1.5576404333114624,-0.08285347372293472
1.0437333583831787,1.5508975982666016,-0.07955559343099594
1.0471789836883545,1.5345839262008667,-0.07578590512275696
2.562925100326538,3.6994597911834717,-0.17488834261894226
2.582564115524292,3.676633834838867,-0.16609469056129456
2.6021058559417725,3.653630495071411,-0.15715822577476501
2.6317694187164307,3.6423447132110596,-0.14822706580162048
2.6178395748138428,3.575592517852783,-0.13714300096035004
2.674715042114258,3.6019341945648193,-0.12899106740951538
2.6386334896087646,3.7037413120269775,0.25513383746147156
2.6014254093170166,3.71026873588562,0.2637765407562256
2.5880661010742188,3.747432231903076,0.27399420738220215
1.0668556690216064,1.5706126689910889,0.11792471259832382
1.063941478729248,1.5911173820495605,0.12238669395446777
1.0396099090576172,1.5789357423782349,0.12418224662542343
1.031438946723938,1.5933139324188232,0.1280466467142105
1.028072476387024,1.6137460470199585,0.132268026471138
1.0042115449905396,1.6009204387664795,0.13364630937576294
0.9960461258888245,1.6149266958236694,0.13716913759708405
0.9838396310806274,1.6221412420272827,0.14010295271873474
0.9562686085700989,1.6021214723587036,0.140531525015831
0.9898769855499268,1.6860902309417725,0.15006352961063385
1.3372315168380737,2.3172712326049805,0.20914706587791443
1.8200175762176514,3.207134962081909,0.29333004355430603
1.7481017112731934,3.131002187728882,0.2899956703186035
1.7525756359100342,3.1948304176330566,0.29950249195098877
1.7673536539077759,3.2794032096862793,0.3110003173351288
1.7436405420303345,3.291635036468506,0.3155990242958069
2.369575262069702,4.549420356750488,0.4407939910888672
2.336250066757202,4.566040992736816,0.4467826187610626
2.3051624298095703,4.589931488037109,0.4535067081451416
2.2682981491088867,4.599009990692139,0.4586242139339447
2.2393627166748047,4.621255874633789,0.4649323523044586
2.2078635692596436,4.640140533447266,0.4707944095134735
2.1718876361846924,4.652249813079834,0.47580257058143616
2.1374711990356445,4.6676130294799805,0.4811665713787079
2.1087307929992676,4.692922115325928,0.48747947812080383
2.0758464336395264,4.707030296325684,0.49257200956344604
2.0368475914001465,4.710821628570557,0.49631425738334656
1.7807598114013672,4.202507019042969,0.44570493698120117
1.7188546657562256,4.139496803283691,0.44190168380737305
1.6922941207885742,4.158383846282959,0.4467548727989197
1.6602730751037598,4.162473678588867,0.4499736428260803
1.632723331451416,4.1812968254089355,0.45451298356056213
1.6049859523773193,4.1999335289001465,0.4590649902820587
1.571960687637329,4.203702449798584,0.46198779344558716
1.542051076889038,4.214362144470215,0.46565261483192444
1.5164680480957031,4.235619068145752,0.4704689681529999
1.4882920980453491,4.253465175628662,0.4745999574661255
1.4549108743667603,4.256418704986572,0.4770941734313965
1.429062843322754,4.281178951263428,0.4820529520511627
1.3962335586547852,4.283462047576904,0.4844724237918854
1.3780986070632935,4.329741954803467,0.4918697476387024
1.3470911979675293,4.339150905609131,0.4948442280292511
1.3113154172897339,4.3335394859313965,0.4960518181324005
1.2800816297531128,4.342535495758057,0.49895089864730835
1.2559292316436768,4.37349796295166,0.5043658018112183
1.2269257307052612,4.389453887939453,0.508105993270874
1.1959148645401,4.397690296173096,0.5108135938644409
1.1683300733566284,4.420870780944824,0.5150578618049622
1.136614441871643,4.428838729858398,0.5175616145133972
1.1078343391418457,4.4478349685668945,0.521375834941864
1.0781066417694092,4.462828636169434,0.524744987487793
1.0487096309661865,4.477510929107666,0.5280841588973999
1.018629550933838,4.492154121398926,0.5311343669891357
0.9915686845779419,4.521796703338623,0.5359121561050415
0.9512251615524292,4.4905524253845215,0.5334983468055725
0.8017867803573608,3.9229862689971924,0.4672173261642456
0.7526806592941284,3.817878007888794,0.45580753684043884
0.7260400056838989,3.8228304386138916,0.4575066566467285
0.8382679224014282,4.590970039367676,0.550418496131897
0.8064001798629761,4.6004109382629395,0.5525591373443604
0.7757481932640076,4.621206760406494,0.556115448474884
0.7446613907814026,4.633974552154541,0.5587053298950195
0.7099973559379578,4.6235151290893555,0.5585169792175293
0.6832847595214844,4.666550636291504,0.5647361874580383
0.652475118637085,4.68646764755249,0.5678706765174866
0.619763195514679,4.698571681976318,0.5701051354408264
0.588462769985199,4.718072891235352,0.5732561349868774
0.556053876876831,4.725752353668213,0.5749905705451965
0.5240424871444702,4.737058639526367,0.5771947503089905
0.49420931935310364,4.771312713623047,0.5821182727813721
0.46292221546173096,4.797720432281494,0.5858008861541748
0.4279176592826843,4.7930755615234375,0.585731565952301
0.39615246653556824,4.819045543670654,0.5894253253936768
0.3637181520462036,4.837050437927246,0.5921741127967834
0.3303631544113159,4.84322452545166,0.5935035943984985
0.29707860946655273,4.85305643081665,0.5952138304710388
0.2642004191875458,4.885966777801514,0.5994558930397034
0.23040297627449036,4.895386695861816,0.6008434295654297
0.19767585396766663,4.935566425323486,0.6060385704040527
0.16301828622817993,4.929020404815674,0.6055262088775635
0.12922225892543793,4.949359893798828,0.6083464026451111
0.09443171322345734,4.965610980987549,0.6106283664703369
0.05999724566936493,4.981655120849609,0.6125378608703613
0.025304317474365234,4.989706039428711,0.6134940385818481
-0.009542165324091911,5.020777702331543,0.6173103451728821
-0.04459501802921295,5.032219886779785,0.6187432408332825
-0.08058443665504456,5.055037498474121,0.6216062903404236
-0.11576642096042633,5.054357051849365,0.6215815544128418
-0.1515696495771408,5.076736927032471,0.624002993106842
-0.18677964806556702,5.075616836547852,0.6235650777816772
-0.22373028099536896,5.112985134124756,0.6278831362724304
-0.25983425974845886,5.122979164123535,0.6288671493530273
-0.2969669699668884,5.136551380157471,0.6303160786628723
-0.2833082377910614,4.3721842765808105,0.536363422870636
-0.30655795335769653,4.273529052734375,0.5237678289413452
-0.33549076318740845,4.263668060302734,0.5220741033554077
-0.36992689967155457,4.319288730621338,0.5284181237220764
-0.395721971988678,4.266472816467285,0.5215117931365967
-0.4215446412563324,4.225123405456543,0.5160473585128784
-0.44392862915992737,4.1566290855407715,0.5073024034500122
-0.46906882524490356,4.122772216796875,0.5025007724761963
-0.4904710352420807,4.061826229095459,0.4943888187408447
-0.5139762163162231,4.019956588745117,0.48862752318382263
-0.5360678434371948,3.974156141281128,0.4824329614639282
-0.5582603812217712,3.932058334350586,0.4767199754714966
-0.5804242491722107,3.8936855792999268,0.47149351239204407
-0.602359414100647,3.8591091632843018,0.4664737284183502
-0.6217581629753113,3.8090436458587646,0.4595486521720886
-0.6393717527389526,3.755145311355591,0.4522199332714081
-0.6598545908927917,3.720247507095337,0.4472121298313141
-0.6807804703712463,3.6890246868133545,0.4426739811897278
-0.7005736231803894,3.653879404067993,0.4376985430717468
-0.7195030450820923,3.6187474727630615,0.4324871003627777
-0.7375757098197937,3.5796563625335693,0.42678162455558777
-0.7522832155227661,3.5291898250579834,0.4197806715965271
-0.7732635140419006,3.50894832611084,0.41640138626098633
-0.7882176637649536,3.4620437622070312,0.4098837971687317
-0.8087348341941833,3.4415509700775146,0.4065295159816742
-0.8270778059959412,3.413454532623291,0.40199440717697144
-0.8418161869049072,3.3740742206573486,0.3961915969848633
-0.8608828186988831,3.353445053100586,0.39262574911117554
-0.8761393427848816,3.3175981044769287,0.38729220628738403
-0.8931052684783936,3.2891552448272705,0.3828531801700592
-0.9130675196647644,3.2718021869659424,0.3796422481536865
-0.9287900924682617,3.2433879375457764,0.3750007748603821
-0.9463577270507812,3.222357749938965,0.37124574184417725
-0.9592365622520447,3.1863551139831543,0.36579909920692444
-0.9768584370613098,3.164982557296753,0.36203089356422424
-0.9910776019096375,3.1322975158691406,0.35698202252388
-1.0028382539749146,3.0961594581604004,0.35143235325813293
-1.021288514137268,3.082195997238159,0.3483473062515259
-1.0395665168762207,3.0681309700012207,0.3452759087085724
-1.0517412424087524,3.0354721546173096,0.3401155471801758
-1.0650931596755981,3.006352186203003,0.33537131547927856
-1.086213231086731,2.999049186706543,0.33300748467445374
-1.106345534324646,2.9919559955596924,0.3305293023586273
-1.1181719303131104,2.9629223346710205,0.3256567120552063
-1.1270498037338257,2.9265382289886475,0.3200041651725769
-1.1261048316955566,2.864628791809082,0.3115752637386322
-1.134837031364441,2.8279778957366943,0.3059276342391968
-1.1508049964904785,2.813404083251953,0.3025239408016205
-1.153152585029602,2.766453266143799,0.2956787049770355
-1.1397732496261597,2.6837854385375977,0.2850992679595947
-1.1399803161621094,2.6332108974456787,0.2779463827610016
-1.1555484533309937,2.6181955337524414,0.2745639383792877
-1.1730291843414307,2.610694408416748,0.27184924483299255
-1.2033666372299194,2.631385087966919,0.2720468044281006
-1.2341399192810059,2.651740789413452,0.2721676528453827
-1.2426886558532715,2.6222405433654785,0.26709431409835815
-1.2781487703323364,2.648705005645752,0.2676655054092407
-1.2682923078536987,2.5845842361450195,0.2589801251888275
-1.276747703552246,2.5589959621429443,0.25422993302345276
-1.31350576877594,2.588721752166748,0.25491392612457275
-1.2941168546676636,2.507154941558838,0.2446177899837494
-1.3111286163330078,2.4986095428466797,0.24143876135349274
-1.3168984651565552,2.4694530963897705,0.23617514967918396
-1.329481601715088,2.4541566371917725,0.2323150336742401
-1.3390963077545166,2.4314794540405273,0.22764870524406433
-1.3501876592636108,2.41227650642395,0.22331684827804565
-1.3582547903060913,2.3901612758636475,0.218641459941864
-1.3702751398086548,2.3746187686920166,0.21454952657222748
-1.3827483654022217,2.3586764335632324,0.21034447848796844
-1.3871831893920898,2.329233407974243,0.2049281895160675
-1.3982924222946167,2.3138043880462646,0.2006719559431076
-1.4337100982666016,2.338170289993286,0.19983923435211182
-1.4296334981918335,2.295229196548462,0.19301119446754456
-1.4494935274124146,2.292297601699829,0.18958230316638947
-1.4516526460647583,2.263530731201172,0.18396402895450592
-1.4644416570663452,2.250957489013672,0.17963165044784546
-1.4759401082992554,2.234440565109253,0.1747913509607315
-1.501627802848816,2.2411041259765625,0.17161555588245392
-1.4962430000305176,2.2027409076690674,0.16506285965442657
-1.4805587530136108,2.1476757526397705,0.1570807844400406
-1.5126208066940308,2.1637303829193115,0.1542535126209259
-1.4992144107818604,2.116269826889038,0.14688777923583984
-1.5072683095932007,2.0964996814727783,0.14108042418956757
-1.5117225646972656,2.0743539333343506,0.13512036204338074
-1.5248264074325562,2.065072536468506,0.129950612783432
-1.522421956062317,2.131420135498047,-0.0970197543501854
-1.5103955268859863,2.1492183208465576,-0.10350638628005981
-1.5039539337158203,2.172463893890381,-0.10985879600048065
-1.4876703023910522,2.1833531856536865,-0.11554566770792007
-1.4844173192977905,2.2135119438171387,-0.12217550724744797
-1.4514925479888916,2.1976311206817627,-0.125982865691185
-1.460032343864441,2.247689962387085,-0.13368329405784607
-1.4499703645706177,2.2677855491638184,-0.13944020867347717
-1.4275740385055542,2.267824649810791,-0.14380091428756714
-1.4167499542236328,2.288055896759033,-0.14943161606788635
-1.4082709550857544,2.3112502098083496,-0.1551704853773117
-1.3995376825332642,2.334425687789917,-0.1609155535697937
-1.3900383710861206,2.357884645462036,-0.16663114726543427
-1.3806439638137817,2.38110613822937,-0.17229719460010529
-1.3677589893341064,2.397179126739502,-0.17734138667583466
-1.3424988985061646,2.393217086791992,-0.18085576593875885
-1.3282688856124878,2.409698009490967,-0.18597312271595
-1.3243765830993652,2.4425806999206543,-0.192152738571167
-1.3105727434158325,2.4585070610046387,-0.19702057540416718
-1.2961848974227905,2.4745748043060303,-0.20188957452774048
-1.2855193614959717,2.4973223209381104,-0.2072799950838089
-1.2940292358398438,2.558220624923706,-0.21592096984386444
-1.2667990922927856,2.549729824066162,-0.21863049268722534
-1.2174460887908936,2.495535373687744,-0.217311829328537
-1.1846064329147339,2.4721410274505615,-0.21846626698970795
-1.1738603115081787,2.4941422939300537,-0.22358092665672302
-1.1769829988479614,2.5481834411621094,-0.23155266046524048
-1.2015414237976074,2.652162790298462,-0.24430438876152039
-1.1622626781463623,2.6139705181121826,-0.24389232695102692
-1.1795744895935059,2.70379376411438,-0.2554481327533722
-1.1263128519058228,2.633186101913452,-0.2517473101615906
-1.1222747564315796,2.6767916679382324,-0.25893107056617737
-1.1031299829483032,2.684377431869507,-0.2626451253890991
-1.101681113243103,2.7350046634674072,-0.2705538272857666
-1.0948646068572998,2.775052547454834,-0.27736660838127136
-1.083302617073059,2.8042540550231934,-0.2831682860851288
-1.0635602474212646,2.8114407062530518,-0.28672125935554504
-1.040839672088623,2.8112730979919434,-0.2895638048648834
-1.0207220315933228,2.8182921409606934,-0.29292726516723633
-1.005733609199524,2.8398261070251465,-0.29782259464263916
-0.9932912588119507,2.868542194366455,-0.3034864664077759
-0.981935441493988,2.900832176208496,-0.3095618188381195
-0.968292236328125,2.9296305179595947,-0.3152216374874115
-0.9497753381729126,2.943509101867676,-0.31920796632766724
-0.9382014870643616,2.9794750213623047,-0.3256262242794037
-0.9253482222557068,3.0116052627563477,-0.3316497206687927
-0.9130619764328003,3.0474634170532227,-0.33806103467941284
-0.8957365155220032,3.0684566497802734,-0.3427111506462097
-0.8831017017364502,3.1081268787384033,-0.3495405316352844
-0.8654536604881287,3.12886905670166,-0.3542231321334839
-0.8496496677398682,3.1569900512695312,-0.35977861285209656
-0.8371055126190186,3.200169324874878,-0.36686068773269653
-0.8210988640785217,3.2320382595062256,-0.3726862967014313
-0.8053772449493408,3.267655611038208,-0.3790231943130493
-0.792550802230835,3.314380407333374,-0.3866536319255829
-0.7728390097618103,3.3346545696258545,-0.3911243677139282
-0.7544256448745728,3.3624377250671387,-0.39633482694625854
-0.7373314499855042,3.3976986408233643,-0.402474969625473
-0.7163183689117432,3.417741060256958,-0.40688201785087585
-0.7039895057678223,3.479390859603882,-0.4162660539150238
-0.69059818983078,3.5411012172698975,-0.42544373869895935
-0.6921120882034302,3.68666410446167,-0.4447639286518097
-0.680677592754364,3.77130389213562,-0.4568600058555603
-0.7247593998908997,4.1846442222595215,-0.509063720703125
-0.707614541053772,4.26197624206543,-0.5205121636390686
-0.6813784837722778,4.289531707763672,-0.5256105065345764
-0.6611515879631042,4.359100341796875,-0.5359208583831787
-0.637352705001831,4.4093756675720215,-0.5439227819442749
-0.6139559149742126,4.471111297607422,-0.5534387826919556
-0.5906919240951538,4.536549091339111,-0.5631536245346069
-0.5650423169136047,4.59036111831665,-0.5712863206863403
-0.5377357602119446,4.636330604553223,-0.5785022974014282
-0.5105007290840149,4.6859612464904785,-0.5862197279930115
-0.4770987927913666,4.681443214416504,-0.587203860282898
-0.40027666091918945,4.225339412689209,-0.5309978723526001
-0.3693939447402954,4.212427139282227,-0.5303319692611694
-0.3384341299533844,4.195425510406494,-0.529167890548706
-0.31061115860939026,4.216848850250244,-0.5328749418258667
-0.2827827036380768,4.241961479187012,-0.536992073059082
-0.30353251099586487,5.0987043380737305,-0.6461383104324341
-0.26427337527275085,5.030919551849365,-0.6382488012313843
-0.22958426177501678,5.040261745452881,-0.6401646137237549
-0.19317619502544403,5.006768703460693,-0.6366658806800842
-0.1576361209154129,4.984667778015137,-0.634367823600769
-0.1221550926566124,4.977867603302002,-0.6337248682975769
-0.08762675523757935,4.986302852630615,-0.6350489258766174
-0.05241113156080246,4.936378002166748,-0.6289681792259216
-0.018021922558546066,4.921080589294434,-0.6273263692855835
0.016132159158587456,4.8978471755981445,-0.6242920160293579
0.050570107996463776,4.874392032623291,-0.6210914254188538
0.08400701731443405,4.846831321716309,-0.6174036264419556
0.11777558922767639,4.850034236907959,-0.6176655888557434
0.15143157541751862,4.8491291999816895,-0.6174342036247253
0.18404938280582428,4.820955276489258,-0.6132065653800964
0.21676640212535858,4.8041791915893555,-0.6104434728622437
0.2502973973751068,4.794890880584717,-0.6086529493331909
0.28231704235076904,4.769920349121094,-0.6049138307571411
0.31551632285118103,4.767955780029297,-0.6040002107620239
0.34435033798217773,4.707844257354736,-0.5953205823898315
0.3810715675354004,4.755729675292969,-0.6003270745277405
0.41034919023513794,4.702890872955322,-0.5926286578178406
0.4401796758174896,4.669216632843018,-0.5874084830284119
0.39020198583602905,3.8525443077087402,-0.48366525769233704
0.41398555040359497,3.8229618072509766,-0.47875213623046875
0.44092991948127747,3.8240408897399902,-0.4777090847492218
0.4679720997810364,3.8210201263427734,-0.476152628660202
0.4870837330818176,3.7601897716522217,-0.46745187044143677
0.5152261853218079,3.7723164558410645,-0.4675343632698059
0.5435260534286499,3.784249782562256,-0.4675097167491913
0.5720154643058777,3.795973062515259,-0.46746930480003357
0.5952657461166382,3.7690865993499756,-0.462665319442749
0.6214485764503479,3.765099287033081,-0.4606992304325104
0.6435110569000244,3.738065481185913,-0.4555724859237671
0.6693055629730225,3.7338151931762695,-0.4532574415206909
0.6923494338989258,3.714111089706421,-0.4490870535373688
0.7182213664054871,3.7094757556915283,-0.44675949215888977
0.7405916452407837,3.6855947971343994,-0.44195619225502014
0.7660294771194458,3.680712938308716,-0.43927258253097534
0.791405200958252,3.675659418106079,-0.4365919232368469
0.8152971863746643,3.662804365158081,-0.4329904615879059
0.8391067385673523,3.6497790813446045,-0.4293937385082245
0.8629581332206726,3.636589288711548,-0.4254991412162781
0.8861997723579407,3.6233575344085693,-0.4215928018093109
0.9112246036529541,3.6174967288970947,-0.41856637597084045
0.9344910979270935,3.603888511657715,-0.41464707255363464
0.9595704674720764,3.5976500511169434,-0.4115293323993683
0.9826815724372864,3.583744525909424,-0.4072583317756653
1.0094342231750488,3.5847511291503906,-0.4047467112541199
1.0300284624099731,3.5631022453308105,-0.3996751308441162
1.052690029144287,3.5487513542175293,-0.3954462707042694
1.0862553119659424,3.571514368057251,-0.39515483379364014
1.1528267860412598,3.697766065597534,-0.4060662090778351
1.321317195892334,4.13799524307251,-0.45104172825813293
1.3707196712493896,4.191926002502441,-0.4534740447998047
1.3936982154846191,4.164343357086182,-0.446989506483078
1.417183756828308,4.14048433303833,-0.4407181441783905
1.4481085538864136,4.138504981994629,-0.43680307269096375
1.48001229763031,4.135972499847412,-0.432714581489563
1.5035316944122314,4.111425876617432,-0.42640405893325806
1.5343959331512451,4.108825206756592,-0.4221651554107666
1.5624483823776245,4.098754405975342,-0.41714003682136536
1.5879157781600952,4.081125259399414,-0.4113292396068573
1.6140563488006592,4.063012599945068,-0.40538355708122253
1.6391133069992065,4.045098781585693,-0.3994119465351105
1.6696572303771973,4.041532516479492,-0.39477601647377014
1.688291072845459,4.0089874267578125,-0.38732051849365234
1.854446530342102,4.319418907165527,-0.4126111567020416
1.9518986940383911,4.460142135620117,-0.421004056930542
1.9267297983169556,4.322930335998535,-0.40310144424438477
1.9400595426559448,4.274822235107422,-0.39369967579841614
1.9552267789840698,4.229909420013428,-0.38455745577812195
1.5699944496154785,3.3361294269561768,-0.299293577671051
2.100917100906372,4.386265754699707,-0.38800016045570374
2.156242609024048,4.424995422363281,-0.38593387603759766
2.220048189163208,4.476686477661133,-0.3846952021121979
2.277205467224121,4.514029502868652,-0.3820226788520813
2.3058457374572754,4.495699405670166,-0.3744818866252899
2.336343765258789,4.48052978515625,-0.36718541383743286
2.380981683731079,4.488491058349609,-0.3614767789840698
1.7384039163589478,3.224212408065796,-0.2550933361053467
1.7600045204162598,3.212905168533325,-0.24958346784114838
1.7383681535720825,3.122880697250366,-0.23799042403697968
1.7774996757507324,3.1415727138519287,-0.2346535325050354
1.8144335746765137,3.1568408012390137,-0.2308308333158493
1.3382723331451416,2.2931478023529053,-0.16411104798316956
0.960495114326477,1.619976282119751,-0.11328598856925964
0.9615121483802795,1.5968716144561768,-0.10901930928230286
0.9741158485412598,1.5939961671829224,-0.10614290088415146
0.9830935597419739,1.5841001272201538,-0.1026802584528923
0.9961675405502319,1.5807335376739502,-0.09961874783039093
1.004440188407898,1.571064829826355,-0.09614703804254532
1.0170632600784302,1.5677762031555176,-0.09301654249429703
1.0280359983444214,1.5608071088790894,-0.08952606469392776
1.0427569150924683,1.5606061220169067,-0.0863434374332428
1.0421751737594604,1.5376721620559692,-0.0819213017821312
1.0683543682098389,1.5530701875686646,-0.07936956733465195
2.5607564449310303,3.6721739768981934,-0.1796298772096634
2.5988097190856934,3.6745083332061768,-0.17131121456623077
2.624220848083496,3.6568522453308105,-0.16146008670330048
2.61077618598938,3.5899198055267334,-0.14971087872982025
2.6494219303131104,3.5910654067993164,-0.14015302062034607
2.614823579788208,3.6995432376861572,0.28136271238327026
2.587383270263672,3.718043327331543,0.2910146713256836
1.0677180290222168,1.5599613189697266,0.12548905611038208
1.0607538223266602,1.573811411857605,0.12973204255104065
1.0532885789871216,1.5878772735595703,0.13388705253601074
1.0409601926803589,1.5956790447235107,0.13750264048576355
1.012739658355713,1.5765339136123657,0.1385190337896347
1.0136545896530151,1.6033782958984375,0.14350588619709015
0.9928911328315735,1.5977094173431396,0.14560022950172424
0.9812115430831909,1.6046282052993774,0.14865930378437042
0.9698725342750549,1.6112322807312012,0.1516101062297821
0.9655455350875854,1.6316747665405273,0.15579091012477875
1.35434889793396,2.328467607498169,0.22552630305290222
1.869226098060608,3.2667288780212402,0.3206263482570648
1.7980281114578247,3.194740056991577,0.3175380527973175
1.7589168548583984,3.1804039478302,0.31990793347358704
1.7815645933151245,3.2784035205841064,0.33364182710647583
1.7621780633926392,3.2971925735473633,0.33920809626579285
2.3929169178009033,4.556030750274658,0.47374558448791504
2.3553013801574707,4.566163063049316,0.4795028865337372
2.3159074783325195,4.572514057159424,0.4848719537258148
2.287102699279785,4.595028877258301,0.49171629548072815
2.254819869995117,4.61030387878418,0.4977971613407135
2.221771717071533,4.62999153137207,0.5041069388389587
2.185786247253418,4.642155647277832,0.5095517039299011
2.1571433544158936,4.667757987976074,0.5163993835449219
2.124351739883423,4.682159423828125,0.5219324827194214
2.0938565731048584,4.703779697418213,0.5281415581703186
2.0591797828674316,4.718472003936768,0.533396303653717
2.0039288997650146,4.6867170333862305,0.5334572792053223
1.7379742860794067,4.144893646240234,0.47483354806900024
1.703026294708252,4.142080307006836,0.4775378406047821
1.6702938079833984,4.146535396575928,0.48085615038871765
1.642849326133728,4.165364742279053,0.4857497811317444
1.6118555068969727,4.176973342895508,0.4898827373981476
1.589340090751648,4.205893516540527,0.49593085050582886
1.5599138736724854,4.216434955596924,0.4998341202735901
1.532291054725647,4.234368801116943,0.5044126510620117
1.5015313625335693,4.2449445724487305,0.5080116391181946
1.4726749658584595,4.262816429138184,0.5125574469566345
1.4425147771835327,4.272693634033203,0.5160689353942871
1.4150397777557373,4.2896246910095215,0.5204371809959412
1.3869370222091675,4.306540489196777,0.5246859192848206
1.3627680540084839,4.338271141052246,0.5305622816085815
1.3285366296768188,4.340365886688232,0.5328871011734009
1.2976150512695312,4.349327087402344,0.5360109806060791
1.2715550661087036,4.372799873352051,0.5409181118011475
1.243157982826233,4.388640403747559,0.544914960861206
1.2116096019744873,4.397117614746094,0.5476314425468445
1.184059500694275,4.420339107513428,0.5522153973579407
1.151759147644043,4.428518772125244,0.554985523223877
1.12357497215271,4.447419166564941,0.5590599775314331
1.0962388515472412,4.469872951507568,0.5636111497879028
1.0629597902297974,4.4696173667907715,0.565162718296051
1.0345125198364258,4.49191427230835,0.569348931312561
1.0001933574676514,4.491444110870361,0.5707046985626221
0.9715155363082886,4.513308525085449,0.5749001502990723
0.9384415149688721,4.512098789215088,0.5761607885360718
0.7650781273841858,3.8114407062530518,0.487907350063324
0.7410882115364075,3.831756353378296,0.49152106046676636
0.845069944858551,4.545507907867432,0.5841841697692871
0.8195528388023376,4.589311599731445,0.5909369587898254
0.7891155481338501,4.606200695037842,0.5942575931549072
0.7583323121070862,4.618987560272217,0.5970658659934998
0.7297657132148743,4.646885395050049,0.6018659472465515
0.6964246034622192,4.651800155639648,0.6033992767333984
0.6668094396591187,4.679435729980469,0.6078050136566162
0.6358489394187927,4.699197292327881,0.6112237572669983
0.6028215289115906,4.703362941741943,0.612643301486969
0.5724428296089172,4.7264862060546875,0.6165562868118286
0.540404736995697,4.7378692626953125,0.6189743876457214
0.5082077980041504,4.756872177124023,0.6220763921737671
0.47625023126602173,4.775619983673096,0.6250801682472229
0.44410479068756104,4.794147968292236,0.6280888319015503
0.41182491183280945,4.812448978424072,0.6311008334159851
0.37951600551605225,4.830516338348389,0.6341131329536438
0.3455795347690582,4.836813926696777,0.6356253623962402
0.3132171034812927,4.862218856811523,0.6393200159072876
0.2804587483406067,4.887424945831299,0.6429039835929871
0.24697281420230865,4.904672622680664,0.6454750299453735
0.21336430311203003,4.921685218811035,0.6480476260185242
0.17877306044101715,4.930742263793945,0.6496114134788513
0.145213320851326,4.958894729614258,0.6537193059921265
0.11066297441720963,4.959754467010498,0.6539628505706787
0.07637780159711838,4.983630657196045,0.6570972204208374
0.041699908673763275,4.999523639678955,0.6592110991477966
0.006255211308598518,5.007429599761963,0.6603052020072937
-0.028665268793702126,5.026705741882324,0.6629301309585571
-0.06390244513750076,5.049610137939453,0.666066586971283
-0.09897480905056,5.0490641593933105,0.6659159660339355
-0.13503897190093994,5.087021350860596,0.6706271767616272
-0.1700790673494339,5.078272342681885,0.6692115664482117
-0.20654408633708954,5.092477798461914,0.6708489060401917
-0.24358953535556793,5.125787734985352,0.6750373244285583
-0.2826386094093323,5.1858954429626465,0.682783842086792
-0.3167094886302948,5.152958393096924,0.678150475025177
-0.2938997745513916,4.296812057495117,0.5649703741073608
-0.3232145607471466,4.283154487609863,0.5626869201660156
-0.3563048839569092,4.323378086090088,0.5675142407417297
-0.3842424154281616,4.2977519035339355,0.5637205839157104
-0.4085412323474884,4.237241744995117,0.5553857088088989
-0.43391525745391846,4.19588565826416,0.5495269298553467
-0.4577575623989105,4.14284086227417,0.5418379902839661
-0.47945624589920044,4.082029819488525,0.533191442489624
-0.501818060874939,4.032642364501953,0.5260785818099976
-0.5241959691047668,3.98695969581604,0.5194844603538513
-0.5476433634757996,3.952660083770752,0.5144080519676208
-0.5710562467575073,3.9181723594665527,0.5092960000038147
-0.5902864933013916,3.8645596504211426,0.5014215111732483
-0.6106427907943726,3.822343587875366,0.495069682598114
-0.6298108696937561,3.776205062866211,0.48825129866600037
-0.6519670486450195,3.7490243911743164,0.4839128851890564
-0.6752742528915405,3.7293224334716797,0.4805676341056824
-0.6894395351409912,3.659893274307251,0.47081494331359863
-0.7114912271499634,3.6400907039642334,0.4671897888183594
-0.7286505103111267,3.5973708629608154,0.46066227555274963
-0.7445003986358643,3.5507824420928955,0.4536823332309723
-0.7641059756278992,3.5230305194854736,0.44913846254348755
-0.7796579599380493,3.4761462211608887,0.4421737790107727
-0.7967416048049927,3.4406559467315674,0.43666815757751465
-0.8128926157951355,3.4052371978759766,0.4309527277946472
-0.8341881632804871,3.392336130142212,0.42811864614486694
-0.8505883812904358,3.360506534576416,0.42292746901512146
-0.8703605532646179,3.3396565914154053,0.4191100597381592
-0.8876069188117981,3.3112692832946777,0.4143940210342407
-0.9042520523071289,3.2828805446624756,0.4096103310585022
-0.9212035536766052,3.2582833766937256,0.4051388204097748
-0.9389751553535461,3.237321138381958,0.4011501669883728
-0.9525175094604492,3.2012667655944824,0.3953019082546234
-0.9680243134498596,3.172550916671753,0.3903917074203491
-0.9820491671562195,3.140058755874634,0.3850545287132263
-0.998753011226654,3.118774652481079,0.38094764947891235
-1.0150052309036255,3.0974819660186768,0.3767915368080139
-1.02642822265625,3.0612783432006836,0.3708356022834778
-1.038659930229187,3.0287296772003174,0.3653678596019745
-1.0661897659301758,3.0400094985961914,0.3651876449584961
-1.0780259370803833,3.007274866104126,0.35969215631484985
-1.0955641269683838,2.992973566055298,0.3562287390232086
-1.1129307746887207,2.978578805923462,0.35278117656707764
-1.1251298189163208,2.9493837356567383,0.34756964445114136
-1.135862112045288,2.916428804397583,0.34193453192710876
-1.1304341554641724,2.843754768371582,0.33171120285987854
-1.1408323049545288,2.8147921562194824,0.3264382481575012
-1.1582207679748535,2.803800344467163,0.323255717754364
-1.139649510383606,2.7066454887390137,0.3101861774921417
-1.1401383876800537,2.656097412109375,0.3025217652320862
-1.1446484327316284,2.6163432598114014,0.29615432024002075
-1.1559298038482666,2.5946922302246094,0.29171982407569885
-1.1940897703170776,2.633249282836914,0.2940022051334381
-1.2119271755218506,2.6254165172576904,0.29104921221733093
-1.240156650543213,2.6383304595947266,0.29033151268959045
-1.2518213987350464,2.6159236431121826,0.28573790192604065
-1.2623803615570068,2.593905448913574,0.28105297684669495
-1.3002350330352783,2.6276447772979736,0.2823788821697235
-1.2849420309066772,2.553057909011841,0.2720271646976471
-1.2922042608261108,2.523554563522339,0.26650744676589966
-1.3203742504119873,2.53562331199646,0.26534149050712585
-1.315297245979309,2.485929250717163,0.2576059401035309
-1.3206707239151,2.4569602012634277,0.25209254026412964
-1.3301537036895752,2.434478998184204,0.24718160927295685
-1.3475041389465332,2.4252846240997314,0.24355946481227875
-1.3577768802642822,2.4065160751342773,0.23890896141529083
-1.3658158779144287,2.3843963146209717,0.23394815623760223
-1.3780632019042969,2.368701219558716,0.22955776751041412
-1.3867052793502808,2.3459513187408447,0.22442848980426788
-1.4105229377746582,2.3502683639526367,0.22172796726226807
-1.4217413663864136,2.33475399017334,0.2171812504529953
-1.4334760904312134,2.318793296813965,0.21248523890972137
-1.4104154109954834,2.2463550567626953,0.20260687172412872
-1.4647769927978516,2.2999191284179688,0.2039775550365448
-1.4355145692825317,2.221876382827759,0.19362317025661469
-1.4722949266433716,2.244810104370117,0.19194340705871582
-1.4939675331115723,2.244891405105591,0.1881694495677948
-1.4712674617767334,2.1807351112365723,0.17903251945972443
-1.4990546703338623,2.1905112266540527,0.17586001753807068
-1.5144593715667725,2.1802937984466553,0.17077448964118958
-1.4900791645050049,2.1168572902679443,0.16160908341407776
-1.499513030052185,2.1009981632232666,0.15601475536823273
-1.5048812627792358,2.0783276557922363,0.14964208006858826
-1.5086759328842163,2.056642770767212,0.14333856105804443
-1.5224827527999878,2.046839714050293,0.1375555545091629
-1.5186488628387451,2.1432950496673584,-0.10554621368646622
-1.4826260805130005,2.125364065170288,-0.11039155721664429
-1.4914799928665161,2.1711244583129883,-0.11828631162643433
-1.496341347694397,2.214679718017578,-0.12633535265922546
-1.4849345684051514,2.2313907146453857,-0.1324373483657837
-1.4684116840362549,2.2419543266296387,-0.13814395666122437
-1.4558093547821045,2.259089231491089,-0.14423225820064545
-1.439911127090454,2.2689104080200195,-0.14956267178058624
-1.4248391389846802,2.282639741897583,-0.15523871779441833
-1.4201056957244873,2.3127195835113525,-0.16195423901081085
-1.4078493118286133,2.3289573192596436,-0.1675155907869339
-1.3947356939315796,2.3455393314361572,-0.17310017347335815
-1.393008828163147,2.3823766708374023,-0.18024444580078125
-1.3797482252120972,2.3986964225769043,-0.18576009571552277
-1.3470494747161865,2.3810739517211914,-0.18850992619991302
-1.3407771587371826,2.411010980606079,-0.19499634206295013
-1.3272005319595337,2.4270105361938477,-0.20028741657733917
-1.3156402111053467,2.44618821144104,-0.2057880014181137
-1.3046506643295288,2.4693031311035156,-0.2116704285144806
-1.297346830368042,2.49910569190979,-0.21811304986476898
-1.2833486795425415,2.514676094055176,-0.22320835292339325
-1.272367238998413,2.537285566329956,-0.22893185913562775
-1.2435462474822998,2.525118827819824,-0.23147369921207428
-1.1674392223358154,2.4145820140838623,-0.22482527792453766
-1.1721452474594116,2.4680514335632324,-0.23321615159511566
-1.1675195693969727,2.504246950149536,-0.2400016039609909
-1.176827073097229,2.5724148750305176,-0.2499452829360962
-1.1887208223342896,2.6477789878845215,-0.26070940494537354
-1.1936250925064087,2.709047317504883,-0.2702004313468933
-1.1413748264312744,2.6423020362854004,-0.26686185598373413
-1.1116079092025757,2.6250157356262207,-0.26832830905914307
-1.1064001321792603,2.6647469997406006,-0.275578111410141
-1.0906922817230225,2.6792068481445312,-0.28022998571395874
-1.0773082971572876,2.700965404510498,-0.2855629622936249
-1.0689009428024292,2.7373034954071045,-0.2925189733505249
-1.0564055442810059,2.7625577449798584,-0.2982736825942993
-1.0424461364746094,2.7840495109558105,-0.3036412000656128
-1.0279550552368164,2.8055877685546875,-0.30892977118492126
-1.0157079696655273,2.8344168663024902,-0.315005362033844
-1.004124641418457,2.8669543266296387,-0.32159504294395447
-0.9840102195739746,2.8735125064849854,-0.3252147138118744
-0.9735209941864014,2.9094622135162354,-0.3321083188056946
-0.9599438309669495,2.9380955696105957,-0.3381056487560272
-0.9483873844146729,2.9740638732910156,-0.345009446144104
-0.9307136535644531,2.9914352893829346,-0.3497962951660156
-0.9210330843925476,3.0346176624298096,-0.3575848937034607
-0.9017078876495361,3.048129081726074,-0.3617093861103058
-0.8940327167510986,3.102538824081421,-0.3707547187805176
-0.8743187189102173,3.115821123123169,-0.37492474913597107
-0.8607162237167358,3.151399612426758,-0.3818126916885376
-0.842060923576355,3.1721112728118896,-0.38678574562072754
-0.8321869969367981,3.226449728012085,-0.39579954743385315
-0.8385968804359436,3.348501205444336,-0.4132569432258606
-0.8289141654968262,3.4104177951812744,-0.42341628670692444
-0.8414918184280396,3.5704965591430664,-0.4458475112915039
-0.8813230395317078,3.8633720874786377,-0.48496100306510925
-0.8674046397209167,3.9296624660491943,-0.4958365261554718
-0.8519749641418457,3.992100954055786,-0.5063095092773438
-0.8327102661132812,4.039289474487305,-0.5149253010749817
-0.8149130344390869,4.097870826721191,-0.5247534513473511
-0.7950037121772766,4.152703285217285,-0.5341096520423889
-0.774222195148468,4.2035369873046875,-0.5429869294166565
-0.7489178776741028,4.231345176696777,-0.5489386320114136
-0.7252048254013062,4.270468711853027,-0.5563310384750366
-0.7038693428039551,4.328664302825928,-0.5658748745918274
-0.6770574450492859,4.360039234161377,-0.5720118880271912
-0.654552161693573,4.417965412139893,-0.5816493630409241
-0.6297562122344971,4.46425724029541,-0.5898205637931824
-0.6047996878623962,4.514293670654297,-0.5982540845870972
-0.5795485973358154,4.5680766105651855,-0.6070181131362915
-0.550350546836853,4.594801902770996,-0.6122426986694336
-0.5194893479347229,4.6136884689331055,-0.6164907813072205
-0.4840753972530365,4.586102485656738,-0.6145238876342773
-0.4250403940677643,4.315579891204834,-0.5794268250465393
-0.38214385509490967,4.179446220397949,-0.5622498393058777
-0.35296154022216797,4.181817531585693,-0.5636938810348511
-0.32335489988327026,4.184013843536377,-0.5651581287384033
-0.2972129285335541,4.228464126586914,-0.5722105503082275
-0.3060648441314697,4.836848258972168,-0.6553143858909607
-0.2394845187664032,4.2551374435424805,-0.5772107243537903
-0.2071743607521057,4.202450275421143,-0.5707898736000061
-0.17839883267879486,4.226888179779053,-0.5748796463012695
-0.14296957850456238,4.057743549346924,-0.5523276329040527
-0.11622903496026993,4.11275577545166,-0.5600787997245789
-0.08741073310375214,4.105674743652344,-0.5594039559364319
-0.05887489765882492,4.1061320304870605,-0.5597820281982422
-0.029832111671566963,4.1063923835754395,-0.5601668357849121
-0.001258301897905767,4.133605003356934,-0.5637814998626709
0.02838054485619068,4.26899528503418,-0.582111656665802
0.056638311594724655,4.164222240447998,-0.5677201151847839
0.08328158408403397,4.051527500152588,-0.5522806644439697
0.11147435009479523,4.050880432128906,-0.5520538687705994
0.14143335819244385,4.088765621185303,-0.5566504001617432
0.17049604654312134,4.103243827819824,-0.5580890774726868
0.199391707777977,4.1097822189331055,-0.5584720373153687
0.22906363010406494,4.127710342407227,-0.560425877571106
0.2676519453525543,4.284542560577393,-0.5809912085533142
0.29681581258773804,4.267268180847168,-0.5776557922363281
0.35126036405563354,4.589506149291992,-0.6202556490898132
0.3953716456890106,4.733736991882324,-0.6387242674827576
0.42509910464286804,4.696357250213623,-0.632694661617279
0.4568733274936676,4.685835361480713,-0.6298528909683228
0.48826518654823303,4.667359828948975,-0.625825822353363
0.5188892483711243,4.648726940155029,-0.6218430995941162
0.5494292378425598,4.629876613616943,-0.6178640723228455
0.5811250805854797,4.622365474700928,-0.6153742671012878
0.6121227145195007,4.610877990722656,-0.6118878722190857
0.6424745917320251,4.59143590927124,-0.607351541519165
0.6721007823944092,4.5718584060668945,-0.6028688549995422
0.6969126462936401,4.5214385986328125,-0.5943650007247925
0.7320256233215332,4.539783954620361,-0.5946946144104004
0.7576695680618286,4.500607013702393,-0.5872377753257751
0.6535958051681519,3.724730968475342,-0.4840944707393646
0.6785637140274048,3.712709426879883,-0.48061075806617737
0.7058395147323608,3.715826988220215,-0.47914329171180725
0.7262663245201111,3.684598922729492,-0.4729430675506592
0.7517207264900208,3.6798527240753174,-0.4701131582260132
0.7779752016067505,3.678715467453003,-0.46776196360588074
0.8032382130622864,3.6696832180023193,-0.46437403559684753
0.8287652730941772,3.664374828338623,-0.4614257216453552
0.8505417704582214,3.6438612937927246,-0.4563092887401581
0.8721026182174683,3.6232101917266846,-0.4512155055999756
0.8935319781303406,3.6024036407470703,-0.44613343477249146
0.9191224575042725,3.5963644981384277,-0.44285619258880615
0.9439961314201355,3.590341091156006,-0.43939778208732605
0.9687095880508423,3.584185838699341,-0.4358430802822113
0.9934661984443665,3.57783579826355,-0.4322758913040161
1.0163310766220093,3.5637731552124023,-0.4277721047401428
1.0394141674041748,3.5494682788848877,-0.42315661907196045
1.0660852193832397,3.550117015838623,-0.420152485370636
1.083704948425293,3.5208756923675537,-0.41364020109176636
1.1058303117752075,3.506305694580078,-0.40887340903282166
1.1350734233856201,3.5137288570404053,-0.40667107701301575
1.1572335958480835,3.4987990856170654,-0.4016166627407074
1.1787452697753906,3.483891487121582,-0.39658525586128235
1.2497707605361938,3.6119611263275146,-0.4077070653438568
1.3190702199935913,3.7281415462493896,-0.417210191488266
1.48759925365448,4.114012241363525,-0.45629510283470154
1.5130842924118042,4.097013473510742,-0.4501596987247467
1.5361764430999756,4.072395324707031,-0.44315335154533386
1.5674383640289307,4.06938362121582,-0.4385184645652771
1.590113639831543,4.044459819793701,-0.4315173029899597
1.6235212087631226,4.048525810241699,-0.42739349603652954
1.6423684358596802,4.01632022857666,-0.4194638729095459
1.679738998413086,4.026734352111816,-0.41585132479667664
1.7170426845550537,4.036938190460205,-0.4122357964515686
1.974984049797058,4.557509899139404,-0.45988282561302185
1.9306113719940186,4.3737993240356445,-0.43602681159973145
1.9337595701217651,4.300652027130127,-0.42340824007987976
1.9611315727233887,4.280344009399414,-0.41594457626342773
1.574143648147583,3.375217914581299,-0.3236091136932373
1.6003785133361816,3.3719897270202637,-0.3188915550708771
1.6168954372406006,3.3473339080810547,-0.3120919167995453
1.6506162881851196,3.3573977947235107,-0.3084773123264313
2.2276480197906494,4.453789234161377,-0.4028654992580414
2.289499044418335,4.501775741577148,-0.40085455775260925
2.3206698894500732,4.486483573913574,-0.3929777145385742
2.368344306945801,4.501843452453613,-0.3876771926879883
1.7374074459075928,3.2497928142547607,-0.2749467194080353
1.7480926513671875,3.217973470687866,-0.2673669755458832
1.7276291847229004,3.1275105476379395,-0.2548038959503174
1.7415680885314941,3.1023874282836914,-0.2477644383907318
1.7874377965927124,3.135117292404175,-0.24525713920593262
1.3633719682693481,2.3543295860290527,-0.18025846779346466
1.3046975135803223,2.2174201011657715,-0.16595590114593506
0.955859899520874,1.5997066497802734,-0.1168755367398262
0.9664614796638489,1.5935598611831665,-0.11361631006002426
0.9734594225883484,1.5803831815719604,-0.1097319945693016
0.9904484748840332,1.5838438272476196,-0.10696931183338165
1.0009052753448486,1.5774868726730347,-0.103517085313797
1.0245624780654907,1.590375542640686,-0.10112623125314713
1.0226715803146362,1.563929796218872,-0.09621873497962952
1.0264309644699097,1.5476605892181396,-0.09198656678199768
1.0412811040878296,1.5473442077636719,-0.08859289437532425
1.0540738105773926,1.5436046123504639,-0.08487735688686371
2.5484020709991455,3.6800408363342285,-0.19377216696739197
2.5870020389556885,3.682173490524292,-0.18490488827228546
2.6116597652435303,3.6652209758758545,-0.17482012510299683
2.6168599128723145,3.6235239505767822,-0.16362327337265015
2.6283912658691406,3.586646318435669,-0.15190169215202332
2.674437999725342,3.6016364097595215,-0.14235275983810425
2.641481399536133,3.7079410552978516,0.3002558648586273
2.613006114959717,3.727191925048828,0.3108786344528198
2.588575839996338,3.7527952194213867,0.32180365920066833
1.0663965940475464,1.5692965984344482,0.1379069834947586
1.0585429668426514,1.5836344957351685,0.14242565631866455
1.0421868562698364,1.584782361984253,0.14568117260932922
1.0392554998397827,1.60495924949646,0.15052691102027893
1.0228378772735596,1.6059114933013916,0.15345241129398346
1.0021992921829224,1.6001888513565063,0.1556948870420456
0.9949567317962646,1.6135401725769043,0.1595640331506729
0.9871609210968018,1.627113938331604,0.1634330004453659
0.966529369354248,1.6210310459136963,0.16531173884868622
0.9545809626579285,1.6277836561203003,0.1683579981327057
1.3494995832443237,2.3383686542510986,0.24508120119571686
1.8214882612228394,3.2106316089630127,0.3407417833805084
1.7574191093444824,3.1523666381835938,0.3386526107788086
1.7640841007232666,3.21919846534729,0.3498910963535309
1.7728023529052734,3.289125442504883,0.36143767833709717
1.7684797048568726,3.3393537998199463,0.3707493543624878
2.3694918155670166,4.555408000946045,0.5108581781387329
2.336357831954956,4.571726322174072,0.5176512598991394
2.3070931434631348,4.5945024490356445,0.5251356363296509
2.273704767227173,4.610379695892334,0.5315724611282349
2.2393763065338135,4.626420497894287,0.5378929376602173
2.2050459384918213,4.642147064208984,0.5441917181015015
2.1757960319519043,4.663802623748779,0.550972580909729
2.1430299282073975,4.678243637084961,0.5569286942481995
2.1110992431640625,4.700567245483398,0.5635328888893127
2.0764734745025635,4.715286731719971,0.5691894888877869
2.0331199169158936,4.708108425140381,0.5721474289894104
1.7653945684432983,4.167579174041748,0.5097504258155823
1.7193907499313354,4.140006065368652,0.5095644593238831
1.6767609119415283,4.123405456542969,0.5104902386665344
1.6579962968826294,4.163875579833984,0.5184552669525146
1.6281311511993408,4.175106525421143,0.522761881351471
1.6057891845703125,4.203993320465088,0.5292516946792603
1.578739881515503,4.221987247467041,0.5343148112297058
1.5447512865066528,4.225778579711914,0.5373699069023132
1.513956904411316,4.2364115715026855,0.541273832321167
1.4860836267471313,4.253993511199951,0.5460619926452637
1.4588348865509033,4.271128177642822,0.5507621765136719
1.4288851022720337,4.280755996704102,0.5545145273208618
1.3997693061828613,4.298069953918457,0.5589432120323181
1.3733241558074951,4.322419166564941,0.5642929077148438
1.3420947790145874,4.331770420074463,0.5677157044410706
1.3162953853607178,4.355443000793457,0.5729801654815674
1.287996530532837,4.371537685394287,0.5772898197174072
1.2590124607086182,4.3876261711120605,0.5813787579536438
1.226894736289978,4.396315574645996,0.5843915939331055
1.1972731351852417,4.412109851837158,0.5883522033691406
1.1669410467147827,4.4238457679748535,0.5917801856994629
1.1399188041687012,4.446497440338135,0.5966739654541016
1.1107597351074219,4.461467266082764,0.6005721688270569
1.0800803899765015,4.476622104644775,0.6041117906570435
1.0480724573135376,4.483889102935791,0.6065931916236877
1.0176787376403809,4.4984893798828125,0.6101024150848389
0.9877750277519226,4.512747764587402,0.6135700345039368
0.9594627618789673,4.5343523025512695,0.6180676221847534
0.7876580357551575,3.8579416275024414,0.5271417498588562
0.7541789412498474,3.8328299522399902,0.524701714515686
0.7283015251159668,3.845477819442749,0.5274515748023987
0.8346964716911316,4.585361957550049,0.6301783323287964
0.8067383170127869,4.613667964935303,0.6353200078010559
