X,Y,Z
1.0343050956726074,4.4504075050354,0.10881476104259491
1.0010820627212524,4.449978828430176,0.10921293497085571
0.9683196544647217,4.449216365814209,0.10958319157361984
0.9319429993629456,4.433025360107422,0.10951536148786545
0.7685321569442749,3.7888896465301514,0.09388907253742218
0.7418023347854614,3.7942025661468506,0.0943102091550827
0.7272060513496399,3.864588737487793,0.0963597521185875
0.8240921497344971,4.553534030914307,0.11388997733592987
0.7933226227760315,4.566912651062012,0.11449457705020905
0.7597612142562866,4.564687728881836,0.11470711976289749
0.7299543023109436,4.585356712341309,0.11550113558769226
0.7009792327880859,4.613565921783447,0.11649395525455475
0.6699734926223755,4.626051902770996,0.11709242314100266
0.6375946998596191,4.630616664886475,0.11745088547468185
0.6059735417366028,4.642728805541992,0.11796920001506805
0.5756925344467163,4.666245937347412,0.1187841147184372
0.5447942614555359,4.685671329498291,0.11950145661830902
0.5116422176361084,4.689399719238281,0.1198272630572319
0.48135900497436523,4.716148853302002,0.12073546648025513
0.45046767592430115,4.742729663848877,0.1215507909655571
0.4172210395336151,4.745764255523682,0.12176910787820816
0.3845375180244446,4.756354331970215,0.12218770384788513
0.3522646427154541,4.778426170349121,0.12290964275598526
0.3195677101612091,4.788545608520508,0.1233280822634697
0.28752902150154114,4.8140435218811035,0.12409687042236328
0.25466111302375793,4.8315324783325195,0.12462648004293442
0.22263197600841522,4.872201442718506,0.1257610321044922
0.18806299567222595,4.873654842376709,0.1258915215730667
0.15501174330711365,4.902163028717041,0.12672577798366547
0.1210901215672493,4.9109272956848145,0.12705467641353607
0.08689108490943909,4.91165018081665,0.12709219753742218
0.05289106070995331,4.9355645179748535,0.12773610651493073
0.01798217184841633,4.9592437744140625,0.12838099896907806
-0.016593458130955696,4.986582279205322,0.1291266232728958
-0.051315952092409134,4.986344814300537,0.1291646957397461
-0.08623583614826202,5.001485347747803,0.12956032156944275
-0.1213422492146492,5.016382694244385,0.129896342754364
-0.1559792011976242,5.007613182067871,0.12962563335895538
-0.19227677583694458,5.029799938201904,0.1301618367433548
-0.22724846005439758,5.0283427238464355,0.13009299337863922
-0.26444682478904724,5.069538593292236,0.13113373517990112
-0.30001959204673767,5.075385570526123,0.13117507100105286
-0.2854693830013275,4.3211750984191895,0.11158161610364914
-0.3107944130897522,4.24895715713501,0.10962138324975967
-0.34215661883354187,4.270055770874023,0.11007653176784515
-0.37247100472450256,4.27536153793335,0.1101292297244072
-0.3984587788581848,4.23380184173584,0.10895486921072006
-0.42408281564712524,4.195995330810547,0.10782370716333389
-0.4476248621940613,4.138570785522461,0.1061941385269165
-0.47035861015319824,4.084959030151367,0.1046738401055336
-0.4930802881717682,4.035079479217529,0.10325642675161362
-0.5165944695472717,3.9967081546783447,0.10214141756296158
-0.5367681980133057,3.938887357711792,0.10047392547130585
-0.5615271925926208,3.9157183170318604,0.09967509657144547
-0.5814417600631714,3.8654372692108154,0.09819794446229935
-0.6003022193908691,3.8111777305603027,0.09662767499685287
-0.6254887580871582,3.799217700958252,0.09613689035177231
-0.6438625454902649,3.748616933822632,0.09465587139129639
-0.6633286476135254,3.7095329761505127,0.09342318773269653
-0.682022750377655,3.6664371490478516,0.09209444373846054
-0.7005499005317688,3.627162456512451,0.09087410569190979
-0.7195719480514526,3.5915894508361816,0.08975283056497574
-0.7397215366363525,3.5635757446289062,0.0888281911611557
-0.7534430623054504,3.508803129196167,0.08719248324632645
-0.769307553768158,3.4653780460357666,0.08583613485097885
-0.7894306182861328,3.444835901260376,0.08505962789058685
-0.8087887167930603,3.4202914237976074,0.08418668061494827
-0.8288636803627014,3.3994157314300537,0.08340971171855927
-0.8465244174003601,3.3709182739257812,0.08241792023181915
-0.8640140891075134,3.3422935009002686,0.08139289170503616
-0.8807299733161926,3.3137001991271973,0.08038271218538284
-0.9014497399330139,3.300039052963257,0.0797380805015564
-0.916983962059021,3.2673840522766113,0.07863825559616089
-0.9287016987800598,3.223463296890259,0.07725957036018372
-0.9465038180351257,3.202007532119751,0.0763794407248497
-0.9625306725502014,3.1768414974212646,0.0754246637225151
-0.974979817867279,3.1403565406799316,0.0742068886756897
-0.9896426796913147,3.111199140548706,0.07316669821739197
-1.0087015628814697,3.0968711376190186,0.07247181236743927
-1.0237457752227783,3.0713679790496826,0.07147112488746643
-1.039383888244629,3.0496251583099365,0.07057259976863861
-1.0550079345703125,3.027730703353882,0.06967316567897797
-1.0655498504638672,2.9909040927886963,0.06843137741088867
-1.080816388130188,2.9688150882720947,0.06752704828977585
-1.0858094692230225,2.9212183952331543,0.06601664423942566
-1.097471833229065,2.8918209075927734,0.06492238491773605
-1.1200206279754639,2.891554117202759,0.06448837369680405
-1.137231469154358,2.8764445781707764,0.06371866911649704
-1.1379151344299316,2.821516513824463,0.062061578035354614
-1.1508475542068481,2.7993972301483154,0.06111044064164162
-1.1608253717422485,2.7698984146118164,0.059999316930770874
-1.1415424346923828,2.6720540523529053,0.05742354691028595
-1.136744499206543,2.610337495803833,0.055646855384111404
-1.165469765663147,2.6275885105133057,0.05553217977285385
-1.2055050134658813,2.6695878505706787,0.05591898784041405
-1.1992886066436768,2.608055830001831,0.054128002375364304
-1.2256454229354858,2.6173670291900635,0.053809989243745804
-1.2637388706207275,2.6512179374694824,0.05397616699337959
-1.2778621912002563,2.6357765197753906,0.05310169234871864
-1.2849280834197998,2.6062521934509277,0.05195179954171181
-1.2803736925125122,2.551826000213623,0.05029091611504555
-1.2838728427886963,2.5150508880615234,0.04900107905268669
-1.2932889461517334,2.4926493167877197,0.04797504469752312
-1.3024200201034546,2.470257520675659,0.04695757105946541
-1.3155261278152466,2.454458236694336,0.0460534431040287
-1.3269625902175903,2.4349730014801025,0.045073751360177994
-1.3357285261154175,2.4123480319976807,0.044008076190948486
-1.3476792573928833,2.3967485427856445,0.04308582842350006
-1.3562439680099487,2.373950958251953,0.04201565310359001
-1.3766454458236694,2.3712306022644043,0.04129038751125336
-1.3960554599761963,2.3689417839050293,0.04055016115307808
-1.4077324867248535,2.352937936782837,0.03956512734293938
-1.4199005365371704,2.336493730545044,0.038549140095710754
-1.415132761001587,2.293628692626953,0.037099678069353104
-1.4340542554855347,2.291081428527832,0.03629886731505394
-1.4492805004119873,2.2814950942993164,0.03536175191402435
-1.4548194408416748,2.254775285720825,0.03411640226840973
-1.4607014656066895,2.2323358058929443,0.03293931111693382
-1.4794994592666626,2.229318141937256,0.032041650265455246
-1.4862606525421143,2.20601749420166,0.030795462429523468
-1.469590425491333,2.1512608528137207,0.029125012457370758
-1.4970277547836304,2.1608457565307617,0.028304774314165115
-1.4872480630874634,2.1152899265289307,0.026718799024820328
-1.4959152936935425,2.0995988845825195,0.025516221299767494
-1.5004692077636719,2.0771167278289795,0.02419188618659973
-1.505103349685669,2.0544378757476807,0.02280922792851925
-1.5177621841430664,2.045117139816284,0.02157842367887497
-1.4906116724014282,2.1033291816711426,-0.028499772772192955
-1.4841413497924805,2.126960277557373,-0.030043696984648705
-1.4679362773895264,2.1381568908691406,-0.03140408918261528
-1.463697075843811,2.164658546447754,-0.032917916774749756
-1.4861901998519897,2.2342071533203125,-0.03510923311114311
-1.4569953680038452,2.2253754138946533,-0.03604710102081299
-1.4539211988449097,2.2552998065948486,-0.03756241500377655
-1.4473731517791748,2.2826457023620605,-0.039041176438331604
-1.4388340711593628,2.3064522743225098,-0.04045085236430168
-1.430698275566101,2.329841375350952,-0.04181322455406189
-1.4132604598999023,2.340439558029175,-0.04294566810131073
-1.4042067527770996,2.3640518188476562,-0.04429854452610016
-1.391658902168274,2.380492925643921,-0.04548906162381172
-1.3776752948760986,2.3976054191589355,-0.046699877828359604
-1.3484121561050415,2.3872859477996826,-0.04735606908798218
-1.343108892440796,2.417098045349121,-0.04876325652003288
-1.3295148611068726,2.433486223220825,-0.049899712204933167
-1.3170841932296753,2.4535224437713623,-0.05110588297247887
-1.3027551174163818,2.4699745178222656,-0.05223928391933441
-1.2927396297454834,2.4928221702575684,-0.053478460758924484
-1.2994825839996338,2.5508129596710205,-0.05547158047556877
-1.293038010597229,2.5846705436706543,-0.056958530098199844
-1.2815996408462524,2.6077585220336914,-0.058198604732751846
-1.2529035806655884,2.5956501960754395,-0.05865483358502388
-1.2407307624816895,2.618767499923706,-0.05986829847097397
-1.2068085670471191,2.5958409309387207,-0.06002632901072502
-1.2063121795654297,2.6433467864990234,-0.061795976012945175
-1.2070751190185547,2.694413423538208,-0.06366278976202011
-1.1546915769577026,2.6279141902923584,-0.06271257996559143
-1.1677955389022827,2.7116286754608154,-0.06535521149635315
-1.1682727336883545,2.766597270965576,-0.06731515377759933
-1.1579519510269165,2.796290874481201,-0.06866686791181564
-1.1438766717910767,2.818923234939575,-0.06983377039432526
-1.1278326511383057,2.8379714488983154,-0.07090689986944199
-1.1127877235412598,2.8606510162353516,-0.07208577543497086
-1.117906928062439,2.9339826107025146,-0.07453294098377228
-1.1014055013656616,2.9527041912078857,-0.07560162991285324
-1.0882387161254883,2.9825165271759033,-0.07692848891019821
-1.0720760822296143,3.004934549331665,-0.07807549834251404
-1.0582926273345947,3.0346219539642334,-0.07942041754722595
-1.039666771888733,3.049286365509033,-0.08036675304174423
-1.029116153717041,3.0899100303649902,-0.08196695148944855
-1.0118235349655151,3.1120259761810303,-0.08307051658630371
-0.9895952343940735,3.1191465854644775,-0.08377931267023087
-0.974399209022522,3.148442506790161,-0.08508804440498352
-0.9625768661499023,3.188786745071411,-0.08669852465391159
-0.9464364051818848,3.2180261611938477,-0.08795938640832901
-0.9255999326705933,3.2321877479553223,-0.08881749212741852
-0.9153144359588623,3.283768653869629,-0.09071148186922073
-0.8955128192901611,3.3013453483581543,-0.09167129546403885
-0.8799833655357361,3.3378169536590576,-0.09315891563892365
-0.8601359128952026,3.359095811843872,-0.09417389333248138
-0.8400303721427917,3.3802597522735596,-0.09519421309232712
-0.8235633969306946,3.4164342880249023,-0.09664355963468552
-0.8024546504020691,3.4334681034088135,-0.09755664318799973
-0.7797040939331055,3.4466967582702637,-0.09834939986467361
-0.7669939994812012,3.5055127143859863,-0.10038995742797852
-0.7478062510490417,3.5375828742980957,-0.10167837888002396
-0.7323577404022217,3.5886332988739014,-0.10352127254009247
-0.713437557220459,3.624269723892212,-0.10492925345897675
-0.6912690997123718,3.648421049118042,-0.10599726438522339
-0.6725242733955383,3.691605567932129,-0.10757022351026535
-0.6518259048461914,3.727018356323242,-0.10892849415540695
-0.6315080523490906,3.7661380767822266,-0.11040373146533966
-0.6090549826622009,3.793550491333008,-0.11154326051473618
-0.5874736309051514,3.8324944972991943,-0.11301674693822861
-0.5684102177619934,3.8906099796295166,-0.11499471217393875
-0.5480565428733826,3.9447710514068604,-0.1168682873249054
-0.5234706401824951,3.971728563308716,-0.1179460659623146
-0.501577615737915,4.021762847900391,-0.11971838772296906
-0.47944924235343933,4.075562953948975,-0.12160714715719223
-0.45541852712631226,4.12545108795166,-0.12329976260662079
-0.4308677911758423,4.17125940322876,-0.12487710267305374
-0.4064441919326782,4.224696636199951,-0.1266937255859375
-0.3791362941265106,4.250746250152588,-0.12769702076911926
-0.3476477861404419,4.229923248291016,-0.12729832530021667
-0.31755968928337097,4.232281684875488,-0.12751206755638123
-0.2905890941619873,4.273349285125732,-0.1288856416940689
-0.30820944905281067,5.0547194480896,-0.15262055397033691
-0.2701202929019928,5.0021491050720215,-0.1512061208486557
-0.23612479865550995,5.019497394561768,-0.1519109159708023
-0.1999325007200241,5.005433559417725,-0.15159901976585388
-0.16399359703063965,4.975484371185303,-0.1507701426744461
-0.12954212725162506,4.98430871963501,-0.1511230617761612
-0.09460438042879105,4.973374843597412,-0.15088418126106262
-0.05987229198217392,4.966101169586182,-0.15076327323913574
-0.024609411135315895,4.950781345367432,-0.15035223960876465
0.009850493632256985,4.935215950012207,-0.14985650777816772
0.044092319905757904,4.919410228729248,-0.14936091005802155
0.0780692994594574,4.903369426727295,-0.1488654762506485
0.1115572601556778,4.87538480758667,-0.14801466464996338
0.14546647667884827,4.8744916915893555,-0.14798052608966827
0.07157830893993378,1.9391942024230957,-0.05882773920893669
0.08623559772968292,1.9659571647644043,-0.05960004776716232
0.09849338978528976,1.9380168914794922,-0.058716803789138794
0.10880808532238007,1.8827157020568848,-0.05700882896780968
0.1266689896583557,1.9559465646743774,-0.0591953806579113
0.140999898314476,1.96279776096344,-0.059332337230443954
0.15120205283164978,1.9189618825912476,-0.05793469026684761
0.1624726951122284,1.8945318460464478,-0.05712816119194031
0.17777395248413086,1.916689157485962,-0.05772903189063072
0.19109998643398285,1.9154095649719238,-0.057625796645879745
0.20913131535053253,1.9567285776138306,-0.05877511203289032
0.2261665165424347,1.9862785339355469,-0.059551041573286057
0.5640304088592529,4.6670918464660645,-0.139669269323349
0.5939242243766785,4.643712520599365,-0.1387196183204651
0.6230405569076538,4.616267681121826,-0.13765719532966614
0.6556074023246765,4.611767768859863,-0.13724108040332794
0.6827487945556641,4.5762619972229,-0.13584662973880768
0.7142131924629211,4.571471214294434,-0.13537311553955078
0.7458491325378418,4.566430568695068,-0.13489650189876556
0.7749475836753845,4.545753479003906,-0.13396430015563965
0.8016725778579712,4.513373374938965,-0.13267622888088226
0.8274994492530823,4.476964473724365,-0.13118015229701996
0.7257114052772522,3.7809629440307617,-0.11043766140937805
0.7502092719078064,3.768230438232422,-0.10972103476524353
0.8190537095069885,3.9694290161132812,-0.11521665006875992
0.9387930035591125,4.395151138305664,-0.12717123329639435
0.9753443598747253,4.415200710296631,-0.1272471845149994
1.0055619478225708,4.4084367752075195,-0.12656278908252716
1.0376371145248413,4.409040451049805,-0.12609317898750305
1.0682721138000488,4.401737689971924,-0.12539713084697723
1.096002459526062,4.382861137390137,-0.1243768036365509
1.124454140663147,4.3676066398620605,-0.12336792796850204
1.152225375175476,4.352306842803955,-0.1223754808306694
1.1779011487960815,4.329265117645264,-0.12117188423871994
1.208037257194519,4.320974826812744,-0.12037920206785202
1.2358814477920532,4.304990768432617,-0.11937370896339417
1.2612767219543457,4.281363010406494,-0.11806444823741913
1.2903850078582764,4.272704601287842,-0.11718766391277313
1.3196121454238892,4.263792514801025,-0.11630548536777496
1.3468445539474487,4.247100830078125,-0.11520840227603912
1.3689672946929932,4.215418338775635,-0.11369694024324417
1.4028964042663574,4.220738410949707,-0.11311280727386475
1.426460862159729,4.196364402770996,-0.1117493286728859
1.455228567123413,4.186501502990723,-0.11077143996953964
1.4803792238235474,4.165268898010254,-0.10949059575796127
1.511590838432312,4.162381172180176,-0.10866046696901321
1.5396347045898438,4.1521172523498535,-0.10759834200143814
1.5626027584075928,4.126857757568359,-0.10614053905010223
1.5911563634872437,4.115960597991943,-0.10505353659391403
1.6197642087936401,4.104814529418945,-0.10396156460046768
1.647517442703247,4.093782901763916,-0.10282427072525024
1.6691205501556396,4.068171977996826,-0.10131850838661194
1.6972270011901855,4.05655574798584,-0.10014553368091583
1.7391985654830933,4.077007293701172,-0.09975706040859222
2.0209226608276367,4.648788928985596,-0.11269862204790115
2.0551955699920654,4.642317295074463,-0.11144204437732697
2.0862622261047363,4.628473281860352,-0.11001179367303848
2.113948106765747,4.6030402183532715,-0.10825702548027039
2.1458771228790283,4.5882768630981445,-0.1067727729678154
2.1781320571899414,4.577413558959961,-0.10532291233539581
2.206902503967285,4.559309005737305,-0.10371237993240356
2.2432665824890137,4.554626941680908,-0.10237698256969452
2.271885633468628,4.531720161437988,-0.1005978062748909
2.300271987915039,4.513030052185059,-0.09886927157640457
2.339162826538086,4.515036582946777,-0.09758391231298447
2.3735146522521973,4.5059404373168945,-0.09602048993110657
1.7463876008987427,3.2603161334991455,-0.06846493482589722
1.758644938468933,3.231532573699951,-0.0668291226029396
1.744360089302063,3.154756546020508,-0.06421035528182983
1.7430135011672974,3.1018764972686768,-0.062091194093227386
1.7877002954483032,3.130453586578369,-0.06158657744526863
1.3459031581878662,2.321251630783081,-0.04484274610877037
1.3076601028442383,2.2214813232421875,-0.042121775448322296
0.9584007263183594,1.6021772623062134,-0.02976166270673275
0.9711546897888184,1.599063515663147,-0.029087284579873085
0.9815253019332886,1.5927324295043945,-0.028347093611955643
0.992241382598877,1.5860921144485474,-0.02757910266518593
1.0031403303146362,1.579235315322876,-0.02678726054728031
1.0219444036483765,1.5857651233673096,-0.02619524486362934
1.0217069387435913,1.5626496076583862,-0.02511161006987095
1.0347055196762085,1.55877685546875,-0.02430705912411213
1.0534179210662842,1.5650748014450073,-0.023646367713809013
1.0548261404037476,1.545258641242981,-0.0225758645683527
2.5518076419830322,3.682417392730713,-0.051797639578580856
2.575037717819214,3.666240930557251,-0.049584344029426575
2.603795051574707,3.6554994583129883,-0.047348130494356155
2.6418869495391846,3.657047986984253,-0.04514589533209801
2.671574831008911,3.6499783992767334,-0.04280323535203934
2.7013373374938965,3.637772560119629,-0.04015383496880531
2.6207258701324463,3.6719958782196045,0.0620342455804348
2.5833892822265625,3.6792361736297607,0.06465941667556763
2.5954604148864746,3.751711130142212,0.0682222843170166
1.0657720565795898,1.5660502910614014,0.029411867260932922
1.0542505979537964,1.5738098621368408,0.03044564463198185
1.034436583518982,1.5682021379470825,0.03116929717361927
1.030788540840149,1.5892361402511597,0.032436300069093704
1.0151036977767944,1.5900211334228516,0.03323865681886673
0.9954696297645569,1.5839462280273438,0.03385823220014572
0.9876148700714111,1.5980262756347656,0.034893542528152466
0.9759941101074219,1.6051310300827026,0.035754475742578506
0.9646185040473938,1.6119741201400757,0.03659285604953766
1.3209357261657715,2.2451961040496826,0.051878541707992554
1.3394795656204224,2.315736770629883,0.05443667620420456
1.8042916059494019,3.170156955718994,0.07571440190076828
1.7604085206985474,3.1455600261688232,0.07628226280212402
1.7610163688659668,3.2032434940338135,0.07885090261697769
1.7564470767974854,3.250176191329956,0.08113212883472443
1.7686094045639038,3.3278071880340576,0.08417846262454987
2.360771894454956,4.52098274230957,0.11581959575414658
2.334578514099121,4.552077770233154,0.11806909739971161
2.294522285461426,4.554866790771484,0.11956824362277985
2.259281635284424,4.563688278198242,0.12117058038711548
2.2260849475860596,4.57992696762085,0.12290286272764206
2.1925172805786133,4.596044540405273,0.12462214380502701
2.159663438796997,4.611527919769287,0.12629909813404083
2.127533435821533,4.626394748687744,0.12793371081352234
2.0937862396240234,4.641719818115234,0.12956082820892334
2.0631649494171143,4.663908004760742,0.131339892745018
2.0294809341430664,4.678619384765625,0.13290826976299286
1.7445533275604248,4.099740028381348,0.11744064837694168
1.7066309452056885,4.0902581214904785,0.1181252971291542
1.6793439388275146,4.1099371910095215,0.11961641907691956
1.6523984670639038,4.129220485687256,0.12108930200338364
1.6204750537872314,4.133430004119873,0.12209859490394592
1.5916781425476074,4.144567966461182,0.12330775707960129
1.5648720264434814,4.16307258605957,0.12468770891427994
1.537014365196228,4.181725025177002,0.12606988847255707
1.509535551071167,4.199986934661865,0.1274346113204956
1.4802827835083008,4.210352897644043,0.12854066491127014
1.4484199285507202,4.21312952041626,0.12941984832286835
1.4231816530227661,4.238168716430664,0.13089941442012787
1.3946356773376465,4.255833625793457,0.13216648995876312
1.3642375469207764,4.26564359664917,0.13318131864070892
1.3344796895980835,4.2750163078308105,0.13417254388332367
1.3069605827331543,4.291642189025879,0.13539721071720123
1.2784185409545898,4.308348178863525,0.13653916120529175
1.2519108057022095,4.332355499267578,0.13792195916175842
1.2257905006408691,4.360071182250977,0.13944268226623535
1.1954017877578735,4.368471622467041,0.14033085107803345
1.162986397743225,4.369104385375977,0.14097437262535095
1.1318422555923462,4.377251148223877,0.14176017045974731
1.1063076257705688,4.407905101776123,0.1432792991399765
1.07621169090271,4.423360347747803,0.14432361721992493
1.0454208850860596,4.430713653564453,0.14509034156799316
1.0145798921585083,4.437851905822754,0.1458570659160614
0.983264684677124,4.4448723793029785,0.1465522199869156
0.9517089128494263,4.451713562011719,0.14722555875778198
0.820155680179596,3.9766628742218018,0.13192778825759888
0.754243016242981,3.790823221206665,0.12614849209785461
0.7278311252593994,3.795964479446411,0.12670962512493134
0.8343477249145508,4.522756576538086,0.15138880908489227
0.8084556460380554,4.563126087188721,0.15310430526733398
0.7768900990486145,4.576507091522217,0.1539318710565567
0.743455171585083,4.574128150939941,0.1542280614376068
0.715236485004425,4.602313995361328,0.1555594950914383
0.6854997873306274,4.62260627746582,0.15663045644760132
0.655113160610199,4.642766952514648,0.1576000154018402
0.6228113174438477,4.655072212219238,0.1583179086446762
0.5914872288703918,4.6709465980529785,0.15916074812412262
0.5589868426322937,4.674932479858398,0.15960320830345154
0.5282056927680969,4.694210052490234,0.16057652235031128
0.4970604479312897,4.713299751281738,0.16148030757904053
0.4654892086982727,4.732203483581543,0.16232769191265106
0.4324130117893219,4.743170261383057,0.16291533410549164
0.40116071701049805,4.769411087036133,0.16403307020664215
0.36889517307281494,4.783751010894775,0.16474954783916473
0.33503755927085876,4.778403282165527,0.16479645669460297
0.3035362660884857,4.811795711517334,0.16605578362941742
0.26970523595809937,4.821624279022217,0.16651242971420288
0.23784323036670685,4.862380504608154,0.16804464161396027
0.20397989451885223,4.863912582397461,0.16822971403598785
0.17070022225379944,4.880812644958496,0.1689547598361969
0.137485533952713,4.909195423126221,0.1700323075056076
0.102674201130867,4.910045146942139,0.1700844019651413
0.06832762807607651,4.902832508087158,0.16986511647701263
0.03441280499100685,4.942225933074951,0.17126910388469696
4.9756854423321784e-05,4.977478981018066,0.1725383996963501
-0.03461729735136032,4.9929728507995605,0.1731315553188324
-0.06983667612075806,4.984797954559326,0.1728106290102005
-0.10490613430738449,5.007614612579346,0.17354464530944824
-0.13969159126281738,5.006767749786377,0.17346657812595367
-0.17587968707084656,5.044692516326904,0.17473985254764557
-0.21097055077552795,5.043349742889404,0.17466109991073608
-0.24603182077407837,5.041764736175537,0.17456263303756714
-0.28613391518592834,5.121767044067383,0.1771790087223053
-0.31746435165405273,5.053432464599609,0.17467442154884338
-0.2992152273654938,4.2878031730651855,0.14809773862361908
-0.32781487703323364,4.270056247711182,0.14737960696220398
-0.3568341135978699,4.2599005699157715,0.14693115651607513
-0.38755691051483154,4.265063762664795,0.1469530463218689
-0.4112222492694855,4.204022407531738,0.14465300738811493
-0.4369535744190216,4.170033931732178,0.143294557929039
-0.4614886939525604,4.128119468688965,0.14167290925979614
-0.48235827684402466,4.058915615081787,0.13912533223628998
-0.50771164894104,4.028289318084717,0.13790751993656158
-0.5292432308197021,3.9782745838165283,0.13592897355556488
-0.5485129356384277,3.9165537357330322,0.1335591971874237
-0.570897102355957,3.881801128387451,0.13212163746356964
-0.5930507183074951,3.846893072128296,0.13068701326847076
-0.6146011352539062,3.8079352378845215,0.12912097573280334
-0.6343562602996826,3.765122413635254,0.12740088999271393
-0.6540163159370422,3.726104259490967,0.12576867640018463
-0.6753112077713013,3.698509693145752,0.12453233450651169
-0.690507709980011,3.6401002407073975,0.12226969003677368
-0.7104847431182861,3.60841965675354,0.12091401219367981
-0.7281177043914795,3.565079689025879,0.11917408555746078
-0.7475977540016174,3.5371241569519043,0.11787585914134979
-0.7658735513687134,3.505260944366455,0.11645293980836868
-0.7880465984344482,3.492356061935425,0.11566881090402603
-0.8033811450004578,3.4488027095794678,0.1138739287853241
-0.8213626742362976,3.416480302810669,0.11245504766702652
-0.8410587906837463,3.3956170082092285,0.11138127744197845
-0.8545019626617432,3.352001905441284,0.10953488945960999
-0.8693714141845703,3.315915822982788,0.10794800519943237
-0.8921873569488525,3.3098697662353516,0.10734295845031738
-0.9040917158126831,3.2621121406555176,0.10538486391305923
-0.9244530200958252,3.248302459716797,0.10452210158109665
-0.9398908615112305,3.2194936275482178,0.10313472896814346
-0.9594590067863464,3.205587148666382,0.10223376750946045
-0.9756447672843933,3.180304765701294,0.10097432136535645
-0.981741726398468,3.1211931705474854,0.09864018112421036
-0.9985445141792297,3.0994746685028076,0.09750159829854965
-1.0145692825317383,3.0778489112854004,0.09630300849676132
-1.0340898036956787,3.0672481060028076,0.09545689821243286
-1.049853801727295,3.045395612716675,0.09426417946815491
-1.0580222606658936,3.001220464706421,0.0923827663064003
-1.0818347930908203,3.001044988632202,0.09184886515140533
-1.091231107711792,2.9644014835357666,0.09015150368213654
-1.0960628986358643,2.916802406311035,0.08813858032226562
-1.1046419143676758,2.8801562786102295,0.08646994829177856
-1.1160483360290527,2.8506340980529785,0.08501690626144409
-1.1316173076629639,2.8319027423858643,0.08387705683708191
-1.1446329355239868,2.809833288192749,0.08262301236391068
-1.1574039459228516,2.7877163887023926,0.08137745410203934
-1.1444369554519653,2.7042617797851562,0.0783524364233017
-1.1539472341537476,2.674743413925171,0.07690335810184479
-1.191317081451416,2.7096023559570312,0.07726256549358368
-1.169476866722107,2.612517833709717,0.07385561615228653
-1.1917338371276855,2.6153438091278076,0.07329566031694412
-1.2164701223373413,2.621185779571533,0.07279004901647568
-1.2347514629364014,2.6126489639282227,0.07188207656145096
-1.2761454582214355,2.653506278991699,0.0722651407122612
-1.2869350910186768,2.6309382915496826,0.0709264725446701
-1.2943843603134155,2.6011619567871094,0.06939049810171127
-1.2824428081512451,2.53290057182312,0.06683912128210068
-1.2886625528335571,2.5034432411193848,0.06530696898698807
-1.2978920936584473,2.4810807704925537,0.0639570876955986
-1.311098575592041,2.46531081199646,0.06276055425405502
-1.3244916200637817,2.449291706085205,0.06154894456267357
-1.3353041410446167,2.4300801753997803,0.06024090200662613
-1.3435890674591064,2.4076616764068604,0.05884461849927902
-1.3557556867599487,2.391883611679077,0.0576060488820076
-1.3648079633712769,2.3687448501586914,0.05614996328949928
-1.388407826423645,2.3731331825256348,0.05534880980849266
-1.3998113870620728,2.357370615005493,0.05406928062438965
-1.4156641960144043,2.3479115962982178,0.05290553346276283
-1.427862286567688,2.331385374069214,0.05155833065509796
-1.426680326461792,2.295428514480591,0.04975422844290733
-1.4352247714996338,2.2762820720672607,0.048349779099226
-1.4573791027069092,2.2761142253875732,0.04727118834853172
-1.4661301374435425,2.2565536499023438,0.04577554017305374
-1.4720083475112915,2.2340638637542725,0.044221967458724976
-1.4918051958084106,2.2303245067596436,0.042957860976457596
-1.4672421216964722,2.1621286869049072,0.040468454360961914
-1.4942042827606201,2.172114849090576,0.039453551173210144
-1.4753512144088745,2.113927125930786,0.0371377095580101
-1.4983000755310059,2.116919755935669,0.035877298563718796
-1.5026332139968872,2.0946731567382812,0.03416046127676964
-1.5033204555511475,2.065288782119751,0.03223039582371712
-1.5162278413772583,2.055856227874756,0.030610216781497
-1.4933143854141235,2.0917203426361084,-0.03499589487910271
-1.5123693943023682,2.149993896484375,-0.03760422021150589
-1.47579824924469,2.1326146125793457,-0.038899015635252
-1.4713867902755737,2.1593024730682373,-0.0408904068171978
-1.4860366582870483,2.2153704166412354,-0.04343003034591675
-1.4734569787979126,2.233088254928589,-0.04524822160601616
-1.4618442058563232,2.2499959468841553,-0.046962156891822815
-1.451487421989441,2.2705767154693604,-0.04873872920870781
-1.434513807296753,2.281304359436035,-0.05029994621872902
-1.4268378019332886,2.3044753074645996,-0.052055809646844864
-1.409919023513794,2.3148319721221924,-0.053513653576374054
-1.4124186038970947,2.3589112758636475,-0.05578538775444031
-1.3998878002166748,2.375406503677368,-0.05733121186494827
-1.3866357803344727,2.392165422439575,-0.058884210884571075
-1.3533786535263062,2.3752098083496094,-0.05959313362836838
-1.3440797328948975,2.39837384223938,-0.061258960515260696
-1.3383400440216064,2.4283366203308105,-0.06310611963272095
-1.3260656595230103,2.448359251022339,-0.0646720826625824
-1.3117989301681519,2.4648492336273193,-0.06615178287029266
-1.2981934547424316,2.4808270931243896,-0.06757902354001999
-1.3126224279403687,2.5524942874908447,-0.07053790241479874
-1.302370309829712,2.579596519470215,-0.0722932443022728
-1.268128752708435,2.557396173477173,-0.07263313233852386
-1.275936245918274,2.6187922954559326,-0.07532601058483124
-1.2673029899597168,2.6489431858062744,-0.07712974399328232
-1.2247473001480103,2.608581066131592,-0.07686164975166321
-1.2027727365493774,2.6101551055908203,-0.07779840379953384
-1.1794739961624146,2.6078805923461914,-0.07860672473907471
-1.1641074419021606,2.6232893466949463,-0.07990849763154984
-1.171636700630188,2.6924540996551514,-0.08285187184810638
-1.1523016691207886,2.700751781463623,-0.08394018560647964
-1.1650664806365967,2.7843410968780518,-0.08737373352050781
-1.1479724645614624,2.799839973449707,-0.08869310468435287
-1.1335241794586182,2.8225247859954834,-0.09020006656646729
-1.1202363967895508,2.8487792015075684,-0.09183492511510849
-1.1171879768371582,2.900209665298462,-0.09427466988563538
-1.1107882261276245,2.9444007873535156,-0.09650261700153351
-1.0906394720077515,2.956052303314209,-0.0976330041885376
-1.0773613452911377,2.9858009815216064,-0.09936030954122543
-1.0588526725769043,3.0006635189056396,-0.1005929484963417
-1.0480939149856567,3.037465810775757,-0.10256581753492355
-1.035361409187317,3.070652484893799,-0.10439901798963547
-1.0178759098052979,3.0929057598114014,-0.10585156828165054
-1.000504970550537,3.114943027496338,-0.10729707032442093
-0.9810753464698792,3.1292691230773926,-0.10847052186727524
-0.9661397933959961,3.1583850383758545,-0.11016598343849182
-0.9537347555160522,3.198805809020996,-0.11219719797372818
-0.9396176338195801,3.2354865074157715,-0.11410442739725113
-0.9184076189994812,3.249654769897461,-0.11523739248514175
-0.9020074605941772,3.278515577316284,-0.11688067764043808
-0.8831499218940735,3.29978346824646,-0.11825712770223618
-0.8705345988273621,3.347496509552002,-0.12052249908447266
-0.8467733860015869,3.353557825088501,-0.12130118161439896
-0.8320254683494568,3.3974239826202393,-0.12346535921096802
-0.8119578957557678,3.418299436569214,-0.12479317933320999
-0.7906557321548462,3.4352803230285645,-0.12596486508846283
-0.7714172005653381,3.4636266231536865,-0.12749339640140533
-0.7550730109214783,3.5071423053741455,-0.12959598004817963
-0.7403475642204285,3.5621023178100586,-0.13214439153671265
-0.7216994762420654,3.5977585315704346,-0.13398145139217377
-0.7017427086830139,3.629514455795288,-0.13565346598625183
-0.6804507970809937,3.657370090484619,-0.1371137946844101
-0.6656380891799927,3.723536729812622,-0.14002752304077148
-0.6423689723014832,3.7474021911621094,-0.14137183129787445
-0.6213253140449524,3.782576084136963,-0.1431451439857483
-0.6009140014648438,3.825368642807007,-0.14519132673740387
-0.5803181529045105,3.8719513416290283,-0.1473146677017212
-0.5585442781448364,3.914566993713379,-0.1493019014596939
-0.5342729687690735,3.9455082416534424,-0.15086230635643005
-0.5128204226493835,3.9955644607543945,-0.15315797924995422
-0.4911598265171051,4.049386501312256,-0.1555902361869812
-0.4680916368961334,4.0992512702941895,-0.1577771008014679
-0.44476422667503357,4.1528706550598145,-0.16012270748615265
-0.4196185767650604,4.194701194763184,-0.1620270013809204
-0.3930898606777191,4.232536792755127,-0.16379481554031372
-0.36494889855384827,4.250711917877197,-0.16480368375778198
-0.3339172899723053,4.237588882446289,-0.16447989642620087
-0.3059197664260864,4.263172149658203,-0.1656666398048401
-0.3302726447582245,5.102657318115234,-0.198530375957489
-0.2912071645259857,5.054196834564209,-0.19689634442329407
-0.25446817278862,5.024900436401367,-0.19600996375083923
-0.21838515996932983,5.003149032592773,-0.19528330862522125
-0.18317092955112457,4.996743679046631,-0.19513900578022003
-0.14782527089118958,4.982287883758545,-0.19468927383422852
-0.11259035021066666,4.9832024574279785,-0.19485098123550415
-0.07780249416828156,4.97214937210083,-0.19455163180828094
-0.04305151849985123,4.949149131774902,-0.19369301199913025
-0.008625808171927929,4.9337158203125,-0.19308120012283325
0.02558329328894615,4.918043613433838,-0.19246940314769745
0.060295965522527695,4.909933567047119,-0.19216307997703552
0.09401357173919678,4.885980129241943,-0.19124577939510345
0.12747757136821747,4.865700721740723,-0.1904168576002121
0.16153186559677124,4.872506618499756,-0.1905612349510193
0.07743005454540253,1.9305686950683594,-0.07545884698629379
0.09157262742519379,1.945582628250122,-0.0760042741894722
0.10366171598434448,1.9137070178985596,-0.07472122460603714
0.12148590385913849,1.98696768283844,-0.07753525674343109
0.1336548924446106,1.962717890739441,-0.07649468630552292
0.14958404004573822,1.9928889274597168,-0.07757844775915146
0.16146990656852722,1.968468427658081,-0.07654041796922684
0.16949398815631866,1.9011880159378052,-0.07384172827005386
0.18119895458221436,1.8844282627105713,-0.0731138214468956
0.20100295543670654,1.9491474628448486,-0.07548654824495316
0.21403366327285767,1.9438401460647583,-0.07514429092407227
0.544305682182312,4.648398399353027,-0.17937766015529633
0.5762312412261963,4.636699676513672,-0.17860861122608185
0.607477068901062,4.62485408782959,-0.1778489053249359
0.6372367143630981,4.60510778427124,-0.1766756772994995
0.6700991988182068,4.608353614807129,-0.1763601303100586
0.6982893943786621,4.580499649047852,-0.1748647689819336
0.7306331992149353,4.575475692749023,-0.1742406040430069
0.7598822712898254,4.554903507232666,-0.17304083704948425
0.787969708442688,4.530345439910889,-0.17161591351032257
0.8135359883308411,4.494119644165039,-0.16971591114997864
0.7072550058364868,3.7595605850219727,-0.14154072105884552
0.7348149418830872,3.7622499465942383,-0.1412075161933899
0.762977123260498,3.764630079269409,-0.14085911214351654
0.9284273982048035,4.424058437347412,-0.1649610996246338
0.9587149620056152,4.417625904083252,-0.16409936547279358
0.988957941532135,4.41098690032959,-0.16323761641979218
1.0212599039077759,4.411666393280029,-0.16264648735523224
1.0506789684295654,4.396758556365967,-0.16147480905056
1.076275110244751,4.370498180389404,-0.15983892977237701
1.1061487197875977,4.363069534301758,-0.15884186327457428
1.135970950126648,4.3554368019104,-0.15784478187561035
1.1640886068344116,4.339959144592285,-0.15656323730945587
1.1947495937347412,4.331655502319336,-0.15553435683250427
1.2244926691055298,4.323380470275879,-0.1544540375471115
1.245181918144226,4.2849931716918945,-0.15226556360721588
1.274324655532837,4.276456356048584,-0.15115056931972504
1.3016977310180664,4.260080337524414,-0.149751216173172
1.3318061828613281,4.250804424285889,-0.148594468832016
1.3560410737991333,4.226780414581299,-0.1468639075756073
1.3847498893737793,4.21750545501709,-0.14562922716140747
1.4133949279785156,4.208034515380859,-0.14439456164836884
1.440088152885437,4.190762042999268,-0.14287997782230377
1.469222068786621,4.180679798126221,-0.14161662757396698
1.4979655742645264,4.170514106750488,-0.1402340680360794
1.5194203853607178,4.142003536224365,-0.13826356828212738
1.547732949256897,4.1315531730651855,-0.13689501583576202
1.5736408233642578,4.113440990447998,-0.13526439666748047
1.5990204811096191,4.095306396484375,-0.1336064636707306
1.62705659866333,4.084297180175781,-0.1321144998073578
1.6574859619140625,4.0805206298828125,-0.13087965548038483
1.6797235012054443,4.0545654296875,-0.12891118228435516
1.710952639579773,4.050012588500977,-0.12762513756752014
1.9743667840957642,4.587192535400391,-0.14317293465137482
2.033886432647705,4.638020038604736,-0.14332973957061768
2.0670840740203857,4.627654552459717,-0.1415826827287674
2.097616195678711,4.609663009643555,-0.1395811140537262
2.128875494003296,4.595368385314941,-0.13765281438827515
2.159548759460449,4.581092357635498,-0.13569529354572296
2.192596435546875,4.569758415222168,-0.1337907612323761
2.2226169109344482,4.5509467124938965,-0.13165082037448883
2.2588717937469482,4.546205043792725,-0.12988953292369843
2.283785581588745,4.520679473876953,-0.12749367952346802
2.315718173980713,4.508854866027832,-0.1254856288433075
2.3542139530181885,4.506566524505615,-0.1236754059791565
1.7680063247680664,3.3279757499694824,-0.08998878300189972
1.7435954809188843,3.230346441268921,-0.08603093773126602
1.772632122039795,3.232375144958496,-0.08474753797054291
1.7437467575073242,3.1279048919677734,-0.08065275847911835
1.7686583995819092,3.1229090690612793,-0.0791458785533905
1.8304060697555542,3.182138681411743,-0.07919765263795853
1.349515438079834,2.3098552227020264,-0.056418877094984055
0.958892822265625,1.6153379678726196,-0.03868070989847183
0.9654502868652344,1.6023372411727905,-0.037582892924547195
0.975914478302002,1.5960074663162231,-0.03664560616016388
0.985063374042511,1.5858041048049927,-0.03556295111775398
0.9977311491966248,1.5825055837631226,-0.034640874713659286
1.0121517181396484,1.5826232433319092,-0.033782098442316055
1.0271079540252686,1.5823009014129639,-0.03286642208695412
1.0270755290985107,1.5590109825134277,-0.031455155462026596
1.0393980741500854,1.555544137954712,-0.03042908012866974
1.0498347282409668,1.5485413074493408,-0.02930397167801857
1.0735547542572021,1.5607424974441528,-0.028491755947470665
2.5667905807495117,3.6813135147094727,-0.06469849497079849
2.5826895236968994,3.6511075496673584,-0.06149520352482796
2.6206278800964355,3.6529057025909424,-0.05871260166168213
2.6598827838897705,3.658330202102661,-0.055967066437006
2.682655096054077,3.63686203956604,-0.05253254622220993
2.597241163253784,3.6691625118255615,0.08026692271232605
2.5665793418884277,3.6810829639434814,0.08345615863800049
1.0757229328155518,1.5685592889785767,0.03678790479898453
1.0599181652069092,1.5698347091674805,0.037960365414619446
1.0397975444793701,1.5644797086715698,0.038899220526218414
1.0278650522232056,1.572313666343689,0.04015094414353371
1.02524733543396,1.5926021337509155,0.04165048524737358
1.0093731880187988,1.5934416055679321,0.04263120889663696
0.9867595434188843,1.5845553874969482,0.04334889352321625
0.9857626557350159,1.6080938577651978,0.044875774532556534
0.9741765260696411,1.6151092052459717,0.04593472555279732
0.9580545425415039,1.615620732307434,0.046794794499874115
1.3575793504714966,2.327441930770874,0.0685775876045227
1.8347396850585938,3.1972198486328125,0.09576781094074249
1.7764772176742554,3.1494438648223877,0.09579545259475708
1.747392177581787,3.1522295475006104,0.09733029454946518
1.770161747932434,3.246600389480591,0.10164669156074524
1.75454843044281,3.2727417945861816,0.10385072231292725
2.390251398086548,4.539951801300049,0.14594517648220062
2.346116542816162,4.536479473114014,0.14766640961170197
2.3180196285247803,4.5595879554748535,0.1501610279083252
2.2751927375793457,4.5548624992370605,0.1517099291086197
2.245171070098877,4.578360557556152,0.15413862466812134
2.2110252380371094,4.59487247467041,0.1563681662082672
2.178926467895508,4.610109806060791,0.15845678746700287
2.14315128326416,4.618170738220215,0.1602841317653656
2.115816831588745,4.647852420806885,0.16278375685214996
2.078612804412842,4.655989646911621,0.16453970968723297
2.0489089488983154,4.677594184875488,0.1667264997959137
1.9895029067993164,4.6309494972229,0.16648194193840027
1.7258059978485107,4.09818172454834,0.14848732948303223
1.690061330795288,4.096105575561523,0.14955666661262512
1.660624384880066,4.108069896697998,0.1511295735836029
1.640602946281433,4.1412553787231445,0.1534629762172699
1.6109250783920288,4.152833461761475,0.155000701546669
1.5781028270721436,4.157011985778809,0.15617220103740692
1.5534589290618896,4.182890892028809,0.15816889703273773
1.5239022970199585,4.193696022033691,0.1595832109451294
1.4868509769439697,4.182071208953857,0.16013215482234955
1.4618492126464844,4.207358360290527,0.16205960512161255
1.4315719604492188,4.217706203460693,0.16335302591323853
1.4110829830169678,4.257466793060303,0.16579921543598175
1.3811936378479004,4.267207622528076,0.16706998646259308
1.356166124343872,4.291555404663086,0.1689172089099884
1.3206223249435425,4.286243438720703,0.16954351961612701
1.287652611732483,4.288066864013672,0.17038944363594055
1.2634913921356201,4.319609642028809,0.17242775857448578
1.2353311777114868,4.33582067489624,0.17385131120681763
1.205114483833313,4.344271183013916,0.17496854066848755
1.176484227180481,4.3601555824279785,0.17632655799388885
1.145764946937561,4.3723225593566895,0.17749233543872833
1.1183842420578003,4.395477771759033,0.1791042536497116
1.089348316192627,4.410765171051025,0.18039752542972565
1.060478925704956,4.425782680511475,0.18168380856513977
1.0312557220458984,4.440659046173096,0.18293796479701996
1.0008370876312256,4.455577850341797,0.18413038551807404
0.9675319790840149,4.4549055099487305,0.18467731773853302
0.9344965219497681,4.453941345214844,0.185215562582016
0.7686296105384827,3.794703722000122,0.1582944244146347
0.7407183051109314,3.7922675609588623,0.15869107842445374
0.7241727709770203,3.855020046234131,0.1617158055305481
0.8244584798812866,4.566734313964844,0.19203992187976837
0.7920746803283691,4.572432041168213,0.19275730848312378
0.7627788186073303,4.593206405639648,0.19411295652389526
0.7332761287689209,4.613786697387695,0.1954723596572876
0.6991896629333496,4.6111531257629395,0.1957838237285614
0.6700192093849182,4.6391191482543945,0.19732972979545593
0.6383213400840759,4.65144157409668,0.19822293519973755
0.6072127223014832,4.667388439178467,0.19927938282489777
0.5766156911849976,4.686971664428711,0.20050041377544403
0.5439712405204773,4.6908488273620605,0.20105770230293274
0.5121164917945862,4.710118770599365,0.20213748514652252
0.4813595116138458,4.736881256103516,0.20354683697223663
0.4495168626308441,4.755671977996826,0.20462585985660553
0.41567379236221313,4.750896453857422,0.2046990543603897
0.3842040002346039,4.773104190826416,0.20594468712806702
0.3514491617679596,4.79126501083374,0.2069663554430008
0.31889837980270386,4.80917501449585,0.20790092647075653
0.28565189242362976,4.819072246551514,0.20850011706352234
0.2540073096752167,4.859912395477295,0.21044951677322388
0.2209395319223404,4.877142429351807,0.21138779819011688
0.186468705534935,4.878570556640625,0.21165552735328674
0.1528482437133789,4.891448020935059,0.21228107810020447
0.11927299946546555,4.91580057144165,0.21338097751140594
0.08541412651538849,4.939920902252197,0.21448157727718353
0.051193345338106155,4.956001281738281,0.2152438908815384
0.016185982152819633,4.964040756225586,0.2156689316034317
-0.018390897661447525,4.971835136413574,0.21607084572315216
-0.05315003544092178,4.991102695465088,0.21684657037258148
-0.0881587341427803,5.006222724914551,0.21745213866233826
-0.1233307346701622,5.0210981369018555,0.21805736422538757
-0.15871372818946838,5.035725116729736,0.21866215765476227
-0.19460487365722656,5.042280197143555,0.21892660856246948
-0.23029007017612457,5.05640983581543,0.21944856643676758
-0.2659035325050354,5.066397190093994,0.21970459818840027
-0.30282387137413025,5.095611572265625,0.22080354392528534
-0.2874739468097687,4.330169200897217,0.18750129640102386
-0.31612518429756165,4.300789833068848,0.18610228598117828
-0.3435562551021576,4.267373561859131,0.18454144895076752
-0.37441155314445496,4.28046178817749,0.18488894402980804
-0.40032586455345154,4.238932132720947,0.18285810947418213
-0.4252491295337677,4.19337272644043,0.18066692352294922
-0.4480663239955902,4.128207206726074,0.17764073610305786
-0.4727247357368469,4.090115070343018,0.1757962554693222
-0.49536487460136414,4.040271282196045,0.17343902587890625
-0.5185953974723816,4.001959323883057,0.17147909104824066
-0.540794849395752,3.959653615951538,0.16936181485652924
-0.5612658858299255,3.9055733680725098,0.16675035655498505
-0.583730161190033,3.8707261085510254,0.1649763584136963
-0.6026937961578369,3.816481113433838,0.16238942742347717
-0.6252150535583496,3.789146661758423,0.1608942598104477
-0.6445467472076416,3.7463343143463135,0.1587039977312088
-0.6612569689750671,3.6919105052948,0.15603800117969513
-0.6843133568763733,3.67185115814209,0.15482935309410095
-0.7038747072219849,3.6363768577575684,0.1529865860939026
-0.72372967004776,3.6046388149261475,0.1513097584247589
-0.7403759956359863,3.561429023742676,0.14905112981796265
-0.7523971199989319,3.499075174331665,0.14600948989391327
-0.7749989628791809,3.4861698150634766,0.14503911137580872
-0.793964147567749,3.4579029083251953,0.1434403657913208
-0.8108065128326416,3.421938180923462,0.14153514802455902
-0.831515908241272,3.4049417972564697,0.1403578668832779
-0.8470677137374878,3.3689489364624023,0.13836394250392914
-0.8645529747009277,3.3403501510620117,0.13667868077754974
-0.8835077285766602,3.319263458251953,0.1353171020746231
-0.8931840062141418,3.264124631881714,0.13257813453674316
-0.9156913757324219,3.25791335105896,0.13181492686271667
-0.92909175157547,3.2216637134552,0.12977585196495056
-0.9513027667999268,3.2152090072631836,0.12893781065940857
-0.9653078317642212,3.182523012161255,0.127064511179924
-0.9780909419059753,3.145963668823242,0.12504370510578156
-0.9927812814712524,3.1168203353881836,0.12332800030708313
-1.0113359689712524,3.102674961090088,0.12213294953107834
-1.027651071548462,3.0808894634246826,0.12063595652580261
-1.0396946668624878,3.0480244159698486,0.11872636526823044
-1.0608664751052856,3.0407559871673584,0.1178087592124939
-1.0714951753616333,3.0039262771606445,0.11575765162706375
-1.083694577217102,2.97466778755188,0.11394857615232468
-1.103694200515747,2.9673421382904053,0.11298783868551254
-1.0977823734283447,2.8903632164001465,0.10938023030757904
-1.1149989366531372,2.875429153442383,0.10813885927200317
-1.1234283447265625,2.838621139526367,0.10608357191085815
