X,Y,Z
-1.681837797164917,3.517509698867798,0.5499557256698608
-1.6959118843078613,3.4858076572418213,0.5412151217460632
-1.7101620435714722,3.4538156986236572,0.5324165225028992
-1.7048845291137695,3.38378643989563,0.5176942944526672
-1.7167868614196777,3.3525612354278564,0.5088373422622681
-1.731919765472412,3.328179359436035,0.5010836124420166
-1.7585822343826294,3.323819875717163,0.4962068796157837
-1.7893388271331787,3.3258659839630127,0.492209792137146
-1.1782631874084473,2.1552653312683105,0.31605246663093567
-1.1739180088043213,2.1140198707580566,0.30699026584625244
-2.5130014419555664,4.45657205581665,0.6408638954162598
-2.5405874252319336,4.4332685470581055,0.6308373212814331
-6.011752128601074,10.324309349060059,1.4534281492233276
-6.091304779052734,10.307662010192871,1.4344991445541382
-1.2412079572677612,2.069251775741577,0.2845716178417206
-2.9007928371429443,4.76194429397583,0.6466964483261108
-2.938492774963379,4.749379634857178,0.6366683840751648
-3.002626895904541,4.7840776443481445,0.6325122117996216
-3.000394105911255,4.713471412658691,0.614426851272583
-3.0422229766845703,4.706664085388184,0.6039748787879944
-3.058258533477783,4.660682678222656,0.5885301232337952
-3.073323965072632,4.619663715362549,0.5734661221504211
-3.081806182861328,4.568721771240234,0.5571947693824768
-3.105473518371582,4.535444736480713,0.5423426628112793
-3.1164793968200684,4.4869513511657715,0.5254048109054565
-3.169844150543213,4.503381729125977,0.5161046385765076
-2.8598134517669678,4.004775524139404,0.448038786649704
-2.85969877243042,3.9488155841827393,0.43059641122817993
-2.9191997051239014,3.9791102409362793,0.42237913608551025
-2.9606680870056152,3.9790444374084473,0.40966418385505676
-2.458048105239868,3.47049880027771,-0.20640872418880463
-2.433408260345459,3.4870333671569824,-0.21929681301116943
-2.872953176498413,4.182861804962158,-0.2772165536880493
-2.255974531173706,3.3375353813171387,-0.23221051692962646
-2.2516067028045654,3.381917715072632,-0.24565242230892181
-2.230198383331299,3.404548168182373,-0.2576221525669098
-2.188445806503296,3.393643856048584,-0.26661205291748047
-2.1599276065826416,3.4017868041992188,-0.27674007415771484
-1.267092227935791,2.0292394161224365,-0.170783132314682
-1.2564027309417725,2.0445029735565186,-0.17747874557971954
-2.167239189147949,3.582460403442383,-0.32014200091362
-2.1026525497436523,3.5339810848236084,-0.324737548828125
-2.102311611175537,3.5920145511627197,-0.338920921087265
-1.1887511014938354,2.06447434425354,-0.19976092875003815
-1.1966094970703125,2.1132149696350098,-0.20941360294818878
-2.581439733505249,4.637232303619385,-0.4702766537666321
-2.5522494316101074,4.661006450653076,-0.48297926783561707
-2.533568859100342,4.70530366897583,-0.4978443682193756
-1.7836942672729492,3.371986150741577,-0.36415329575538635
-1.7413220405578613,3.3493916988372803,-0.36876240372657776
-1.710564136505127,3.346853256225586,-0.3753259778022766
-1.693289041519165,3.372121572494507,-0.3849412798881531
-1.6720316410064697,3.3904545307159424,-0.3937845230102539
-1.7185218334197998,3.54838228225708,-0.41910848021507263
-1.7284904718399048,3.6330955028533936,-0.4360457956790924
-2.329728841781616,4.9883832931518555,-0.6079557538032532
-2.2999143600463867,5.017921447753906,-0.6208149790763855
-2.2706997394561768,5.046883583068848,-0.6334552764892578
-2.2428197860717773,5.079179763793945,-0.6465637683868408
-2.0620229244232178,4.763108730316162,-0.6146626472473145
-2.024470090866089,4.769476890563965,-0.6236686706542969
-1.9445664882659912,4.671405792236328,-0.6186501979827881
-0.9931256175041199,2.4334018230438232,-0.32631003856658936
-0.9640746116638184,2.4110586643218994,-0.3271494507789612
-0.9520480036735535,2.4318342208862305,-0.3339005410671234
-0.9209912419319153,2.4016847610473633,-0.33350256085395813
-0.898608922958374,2.392974615097046,-0.33601170778274536
-0.8841084837913513,2.406010627746582,-0.341377854347229
-0.8642188310623169,2.4043819904327393,-0.3446754515171051
-0.8546257019042969,2.431811571121216,-0.3521852195262909
-0.8475789427757263,2.4664087295532227,-0.36074742674827576
-0.8374348282814026,2.493760347366333,-0.36813870072364807
-0.8172313570976257,2.49170184135437,-0.3711830675601959
-0.8042859435081482,2.511543035507202,-0.377497136592865
-0.7862960696220398,2.5166049003601074,-0.3816642761230469
-0.7830817103385925,2.5695793628692627,-0.39296573400497437
-0.7669723629951477,2.581897497177124,-0.3980148732662201
-0.7529528141021729,2.6015095710754395,-0.4042220115661621
-0.7441321611404419,2.639577865600586,-0.4133415222167969
-0.7357892990112305,2.681377410888672,-0.4230665862560272
-0.7124742865562439,2.6710944175720215,-0.42443394660949707
-0.7061595916748047,2.724061965942383,-0.4358559548854828
-0.6804303526878357,2.702160596847534,-0.4353221654891968
-0.6678894758224487,2.7325122356414795,-0.4432246685028076
-0.6485949754714966,2.7366108894348145,-0.4465777575969696
-0.6340993642807007,2.7632029056549072,-0.453660249710083
-0.6197072863578796,2.789625883102417,-0.4607200026512146
-0.6050617098808289,2.8159525394439697,-0.4678185284137726
-0.586903989315033,2.8271422386169434,-0.47223713994026184
-0.5655123591423035,2.8231382369995117,-0.4739488363265991
-0.5453365445137024,2.826596975326538,-0.4769704341888428
-0.873892068862915,4.705024719238281,-0.7979431748390198
-0.8355793356895447,4.679853439331055,-0.7976162433624268
-0.7891010046005249,4.605154037475586,-0.7881520390510559
-0.7518215775489807,4.579463005065918,-0.7870357632637024
-0.7067184448242188,4.504091262817383,-0.7773878574371338
-0.6632780432701111,4.42826509475708,-0.7675248384475708
-0.6209027171134949,4.35215950012207,-0.7570660710334778
-0.5806241035461426,4.283376216888428,-0.7475741505622864
-0.5477124452590942,4.263885974884033,-0.7466667294502258
-0.5082125663757324,4.186841011047363,-0.7356507778167725
-0.47324782609939575,4.143950462341309,-0.7305083870887756
-0.44056835770606995,4.112325668334961,-0.7267179489135742
-0.4087373912334442,4.084280490875244,-0.7235672473907471
-0.38457584381103516,4.1325883865356445,-0.7339772582054138
-0.2753444015979767,3.1997456550598145,-0.5697574615478516
-0.2544856369495392,3.224369764328003,-0.5752633213996887
-0.2350429743528366,3.2680413722991943,-0.5840176939964294
-0.21278735995292664,3.277053117752075,-0.5866202712059021
-0.1917523294687271,3.308943748474121,-0.59335857629776
-0.16986209154129028,3.333035469055176,-0.5986312627792358
-0.146726593375206,3.3455581665039062,-0.6013768911361694
-0.1283787190914154,3.4808497428894043,-0.6262337565422058
-0.1154545322060585,3.858123302459717,-0.6947364807128906
-0.08705108612775803,3.7895150184631348,-0.6830316781997681
-0.060831572860479355,3.7976632118225098,-0.6847113966941833
-0.033642787486314774,3.7633860111236572,-0.6785590648651123
-0.007579529192298651,3.8134891986846924,-0.6876540184020996
0.018900632858276367,3.813434600830078,-0.6877384781837463
0.0452270470559597,3.797842025756836,-0.6849274039268494
0.07192058116197586,3.8129191398620605,-0.6870949268341064
0.098597452044487,3.8201231956481934,-0.6878741383552551
0.12247689068317413,3.7233781814575195,-0.6699711680412292
0.15338540077209473,3.849318027496338,-0.6921765208244324
0.18121527135372162,3.871394157409668,-0.6952513456344604
0.20997370779514313,3.904829978942871,-0.7001520395278931
0.23850607872009277,3.926539897918701,-0.7029680609703064
0.27178290486335754,4.005563259124756,-0.7160308957099915
0.2985255718231201,3.9884936809539795,-0.7118334174156189
0.3256339132785797,3.9790165424346924,-0.7084341645240784
0.35735830664634705,4.022995948791504,-0.714572548866272
0.38680538535118103,4.0360941886901855,-0.715232789516449
0.42129576206207275,4.091029167175293,-0.7232823967933655
0.44551417231559753,4.050205707550049,-0.7139987349510193
0.4723013937473297,4.03602933883667,-0.7092433571815491
0.5064938068389893,4.082779884338379,-0.7152078151702881
0.547362208366394,4.175053596496582,-0.7291022539138794
0.5932546257972717,4.2898054122924805,-0.7466748356819153
0.6207553148269653,4.270977973937988,-0.7404246926307678
0.6399009227752686,4.198676109313965,-0.7249975204467773
0.747452437877655,4.685311317443848,-0.8058095574378967
0.7776047587394714,4.66546630859375,-0.7992263436317444
0.802850067615509,4.618942737579346,-0.7876701951026917
0.8444558382034302,4.663228988647461,-0.7913346886634827
0.8876029849052429,4.714832305908203,-0.7962564826011658
0.9249285459518433,4.732016086578369,-0.7953310012817383
0.9579051733016968,4.7262749671936035,-0.7904214859008789
0.9875448346138,4.705321788787842,-0.7824671864509583
1.0166651010513306,4.680302619934082,-0.7738328576087952
1.0476531982421875,4.666455268859863,-0.767158031463623
1.0767897367477417,4.644871711730957,-0.7592651844024658
1.10374116897583,4.615701198577881,-0.7497214078903198
1.1339455842971802,4.6013946533203125,-0.7425270676612854
1.150424838066101,4.530612468719482,-0.7262298464775085
1.1840894222259521,4.530861854553223,-0.7214787006378174
0.9871962666511536,3.6732122898101807,-0.5808727741241455
1.0137453079223633,3.6708126068115234,-0.5761831998825073
1.0255228281021118,3.6161916255950928,-0.5633814930915833
1.0577994585037231,3.631866693496704,-0.56147301197052
1.0788096189498901,3.6103649139404297,-0.5539138913154602
1.1038419008255005,3.603654623031616,-0.5482636094093323
1.1241991519927979,3.5820069313049316,-0.540385901927948
1.146862506866455,3.567544460296631,-0.533612072467804
1.174752950668335,3.5674662590026855,-0.5289168357849121
1.1995904445648193,3.5600674152374268,-0.5229853987693787
1.219201683998108,3.5379128456115723,-0.514824390411377
1.2412642240524292,3.522901773452759,-0.5077317953109741
1.2633570432662964,3.5076828002929688,-0.5006177425384521
1.2878280878067017,3.499650478363037,-0.49444371461868286
1.3055915832519531,3.4732861518859863,-0.48546984791755676
1.3268531560897827,3.4578003883361816,-0.4781551659107208
1.363885521888733,3.481726884841919,-0.47619348764419556
1.3695924282073975,3.4261677265167236,-0.46334853768348694
1.4078412055969238,3.4534213542938232,-0.4615400731563568
1.7342889308929443,4.171161651611328,-0.5506956577301025
1.7575241327285767,4.1456618309021,-0.5405932664871216
1.7896583080291748,4.141412734985352,-0.533280074596405
1.821212887763977,4.1371965408325195,-0.5257347822189331
1.8368818759918213,4.097329616546631,-0.5137270092964172
1.866156816482544,4.085171222686768,-0.5049748420715332
1.8949018716812134,4.072979927062988,-0.49633273482322693
1.9161334037780762,4.0469183921813965,-0.48585623502731323
1.9438602924346924,4.034720420837402,-0.4770849943161011
1.9670863151550293,4.011528015136719,-0.4668666124343872
1.9957330226898193,3.9984142780303955,-0.45769041776657104
2.0159409046173096,3.9718708992004395,-0.447025865316391
2.0430805683135986,3.958996534347534,-0.4379250109195709
2.070965528488159,3.945512294769287,-0.4285406172275543
2.0911035537719727,3.918264389038086,-0.4176749587059021
2.11395525932312,3.898129940032959,-0.4075523316860199
2.133678674697876,3.8706114292144775,-0.3964725136756897
2.1323821544647217,3.805537462234497,-0.38164380192756653
2.150742530822754,3.7782421112060547,-0.3706982433795929
2.1917710304260254,3.791538953781128,-0.36369994282722473
2.1905460357666016,3.7301108837127686,-0.34932029247283936
2.2210938930511475,3.722015857696533,-0.33978432416915894
2.262150764465332,3.734588861465454,-0.33217334747314453
2.2630202770233154,3.6801869869232178,-0.3185240924358368
2.288975954055786,3.66499662399292,-0.30803370475769043
2.3220512866973877,3.6634676456451416,-0.2986607253551483
2.338444709777832,3.6353585720062256,-0.2869463860988617
2.372586727142334,3.632669448852539,-0.2768709063529968
2.4015188217163086,3.6237974166870117,-0.2662889063358307
2.412320137023926,3.5892555713653564,-0.2538726329803467
2.433067798614502,3.566596746444702,-0.2417377531528473
2.484123706817627,3.5890955924987793,-0.23234550654888153
2.480717420578003,3.5351548194885254,-0.2181515395641327
2.51454496383667,3.5311083793640137,-0.2063496708869934
2.5512759685516357,3.5342936515808105,-0.19488799571990967
2.5701372623443604,3.5116305351257324,-0.18153326213359833
2.1707444190979004,2.924168348312378,-0.14041759073734283
2.789546012878418,3.9186954498291016,0.41599515080451965
2.760941505432129,3.9374821186065674,0.4292175769805908
2.735710620880127,3.963089942932129,0.4428287446498871
2.708536386489868,3.9896621704101562,0.45644277334213257
2.679854154586792,4.007640838623047,0.4680909812450409
2.654409170150757,4.032496929168701,0.48035329580307007
2.6095850467681885,4.032510280609131,0.4896080195903778
2.592522621154785,4.069864273071289,0.5026854276657104
2.5696678161621094,4.096804141998291,0.5143027901649475
2.5460898876190186,4.128468990325928,0.5262134671211243
2.504361867904663,4.129928112030029,0.5342215299606323
2.476510524749756,4.149971008300781,0.5441868305206299
2.4404184818267822,4.15657901763916,0.5521502494812012
2.4299347400665283,4.210846424102783,0.5662391185760498
2.3982717990875244,4.227740287780762,0.5752744674682617
2.383437395095825,4.270524024963379,0.5875153541564941
2.2624948024749756,4.123538494110107,0.5734575986862183
2.2422873973846436,4.15989351272583,0.5842923521995544
2.227193593978882,4.206381320953369,0.5966363549232483
2.201023578643799,4.2278032302856445,0.6051401495933533
2.1710925102233887,4.242169380187988,0.612679123878479
2.1387741565704346,4.25748872756958,0.6200472116470337
2.0896854400634766,4.237606525421143,0.622166097164154
2.0825467109680176,4.30040979385376,0.6363097429275513
2.058819055557251,4.327962398529053,0.6452093124389648
2.0277140140533447,4.341618537902832,0.6519296169281006
1.9889264106750488,4.3415303230285645,0.6562759876251221
1.9623883962631226,4.369567394256592,0.6649843454360962
2.0029726028442383,4.545327663421631,0.6961233615875244
1.9678857326507568,4.551229000091553,0.7013780474662781
1.9547587633132935,4.610580921173096,0.714725136756897
1.910330057144165,4.598944664001465,0.7168132066726685
1.878684401512146,4.6193647384643555,0.7239915728569031
1.8586710691452026,4.664017677307129,0.7348302602767944
1.8315259218215942,4.690441131591797,0.742821216583252
1.7843750715255737,4.666347503662109,0.7426957488059998
1.758333683013916,4.7001447677612305,0.7513983845710754
1.3319324254989624,3.642108917236328,0.5848950147628784
1.3109396696090698,3.6654858589172363,0.5912322402000427
1.2800875902175903,3.6593830585479736,0.5927848219871521
1.6517335176467896,4.829290390014648,0.785664975643158
1.6143089532852173,4.833023548126221,0.7891773581504822
1.5701186656951904,4.81838321685791,0.7896773219108582
1.5327068567276,4.821560859680176,0.7930690050125122
1.5114079713821411,4.872007369995117,0.8041952848434448
1.4795657396316528,4.889098644256592,0.8098707795143127
1.4723634719848633,4.991180896759033,0.8295900225639343
1.440561294555664,5.015838623046875,0.8360743522644043
1.403700590133667,5.0255961418151855,0.8401678204536438
1.3383479118347168,4.926939010620117,0.826068639755249
1.2910903692245483,4.887069225311279,0.8217324614524841
1.2636299133300781,4.921472549438477,0.8299143314361572
1.2325878143310547,4.94462776184082,0.8360180258750916
1.2037681341171265,4.9828901290893555,0.8444037437438965
1.1715309619903564,5.005846977233887,0.8502259254455566
1.1401448249816895,5.032292366027832,0.8566827178001404
1.10496187210083,5.03958797454834,0.8598936200141907
1.074525237083435,5.069249153137207,0.8669719099998474
1.0381255149841309,5.076308727264404,0.8700100183486938
1.0018844604492188,5.083133220672607,0.8726462721824646
1.8113046884536743,9.547441482543945,1.6418864727020264
1.7365591526031494,9.521327018737793,1.6402812004089355
1.665405035018921,9.50583267211914,1.6405179500579834
1.5979833602905273,9.516556739807129,1.6453982591629028
1.518398404121399,9.446914672851562,1.6360702514648438
1.4578781127929688,9.498662948608398,1.6469696760177612
1.374415397644043,9.397643089294434,1.6314486265182495
1.3008360862731934,9.356958389282227,1.6264523267745972
1.2440000772476196,9.437833786010742,1.6426734924316406
1.172096848487854,9.395989418029785,1.6375800371170044
1.1056785583496094,9.395668029785156,1.63978910446167
1.040334701538086,9.410453796386719,1.6435203552246094
0.9699810147285461,9.378856658935547,1.6392300128936768
0.9068704843521118,9.415680885314941,1.6469775438308716
0.3881332278251648,4.354269981384277,0.7622933387756348
0.3531314432621002,4.299144744873047,0.753305971622467
0.3238168954849243,4.308981418609619,0.7557300329208374
0.2986404299736023,4.383945465087891,0.7692835330963135
0.3439593017101288,5.630143165588379,0.9882797002792358
0.3042522072792053,5.640002727508545,0.9903826117515564
0.2662036120891571,5.672609806060791,0.9965254068374634
0.22750934958457947,5.693415641784668,1.0006444454193115
0.1891728639602661,5.733181476593018,1.008149266242981
0.1511746346950531,5.807325839996338,1.0216056108474731
0.11010485142469406,5.8159379959106445,1.023000717163086
0.06966948509216309,5.831945896148682,1.025748372077942
0.028928793966770172,5.816893577575684,1.0230828523635864
-0.017620950937271118,8.863919258117676,1.5590459108352661
-0.07870708405971527,8.805866241455078,1.5489579439163208
-0.1406271606683731,8.781997680664062,1.5449607372283936
-0.1985722780227661,8.650168418884277,1.521224856376648
-0.18338529765605927,6.133731365203857,1.0781694650650024
-0.22345371544361115,6.0632243156433105,1.0653191804885864
-0.26517757773399353,6.05396032333374,1.0632872581481934
-0.18200421333312988,3.585143566131592,0.6294670701026917
-0.20642933249473572,3.5684762001037598,0.6263595819473267
-0.23366399109363556,3.605447769165039,0.632566511631012
-0.5606022477149963,7.814202308654785,1.3697324991226196
-0.6160460710525513,7.829648494720459,1.3712528944015503
-0.568236768245697,6.636946201324463,1.1614172458648682
-0.6130285263061523,6.610050201416016,1.1557955741882324
-0.6361013650894165,6.37612771987915,1.1140776872634888
-0.6791724562644958,6.3603363037109375,1.1105592250823975
-0.7304267883300781,6.4208855628967285,1.1197540760040283
-0.7699475288391113,6.377895355224609,1.1108227968215942
-0.8082890510559082,6.3231048583984375,1.0998823642730713
-0.8457901477813721,6.271979808807373,1.0896728038787842
-0.8866168856620789,6.247288227081299,1.0841153860092163
-0.9311824440956116,6.248976230621338,1.083188533782959
-0.980780303478241,6.284701347351074,1.0878527164459229
-1.032613754272461,6.3276472091674805,1.0933380126953125
-1.0823899507522583,6.358911991119385,1.0968639850616455
-1.1339867115020752,6.397378921508789,1.1016594171524048
-1.1862342357635498,6.431521415710449,1.105705738067627
-1.2419120073318481,6.480381488800049,1.1123086214065552
-1.2959321737289429,6.517496109008789,1.116799235343933
-1.3529233932495117,6.565603733062744,1.122477412223816
-1.4073874950408936,6.6021037101745605,1.1262322664260864
-1.4524643421173096,6.593013286590576,1.12224543094635
-1.484503984451294,6.523340225219727,1.107983946800232
-1.5220226049423218,6.4797468185424805,1.0982290506362915
-0.6781970858573914,2.7983226776123047,0.47326597571372986
-0.6934927701950073,2.779025077819824,0.4687083065509796
-0.7104687094688416,2.7671148777008057,0.46542468667030334
-0.7312222123146057,2.77001953125,0.46465635299682617
-0.7463639378547668,2.7503440380096436,0.4601007401943207
-0.7762330770492554,2.782477617263794,0.46419450640678406
-1.7548893690109253,6.1257171630859375,1.0192033052444458
-1.7920385599136353,6.099740028381348,1.0115200281143188
-1.8233392238616943,6.055073261260986,1.0007621049880981
-1.8506425619125366,5.999206066131592,0.9882465600967407
-1.8860000371932983,5.964795112609863,0.9792076945304871
-1.9146555662155151,5.911922454833984,0.9672504663467407
-1.9437873363494873,5.8626275062561035,0.955926239490509
-1.9771578311920166,5.832028865814209,0.9471147060394287
-2.003937244415283,5.782976150512695,0.9353797435760498
-2.032663345336914,5.741111755371094,0.9248983860015869
-2.0669240951538086,5.709308624267578,0.9159151315689087
-2.0960891246795654,5.666676998138428,0.9053407907485962
-2.1242246627807617,5.624137878417969,0.8946207761764526
-2.1564736366271973,5.59630823135376,0.8859244585037231
-2.2081809043884277,5.618667125701904,0.8852031230926514
-1.565324306488037,3.9035611152648926,0.6119396090507507
-1.5678222179412842,3.832369804382324,0.5977703928947449
-1.5634400844573975,3.747037649154663,0.5815314054489136
-1.5644108057022095,3.6802306175231934,0.5679320096969604
-1.572163701057434,3.631340265274048,0.5571662783622742
-1.5876182317733765,3.5999927520751953,0.5491071343421936
-1.6160767078399658,3.596543550491333,0.545252799987793
-1.6348657608032227,3.5717694759368896,0.5382030606269836
-1.6509342193603516,3.543797731399536,0.5304767489433289
-1.6712377071380615,3.5264716148376465,0.5242795944213867
-1.6850734949111938,3.4948830604553223,0.5159502029418945
-1.7163857221603394,3.4976704120635986,0.5126084089279175
-1.706313133239746,3.4170024394989014,0.497115820646286
-1.706546664237976,3.3612875938415527,0.48516273498535156
-1.7252445220947266,3.3437981605529785,0.47870340943336487
-1.736716866493225,3.3124032020568848,0.47028306126594543
-1.7677810192108154,3.314347982406616,0.4663218557834625
-1.7745000123977661,3.271925210952759,0.4562390446662903
-1.1787234544754028,2.13997745513916,0.2955015301704407
-1.1815065145492554,2.1123526096343994,0.2888161540031433
-2.5184173583984375,4.4321160316467285,0.5997385382652283
-2.557976484298706,4.428531169891357,0.5926843285560608
-6.065384864807129,10.34103012084961,1.368346095085144
-1.2468717098236084,2.094777822494507,0.2739323675632477
-1.244848370552063,2.0603396892547607,0.2661419212818146
-2.943286895751953,4.795893669128418,0.6114194989204407
-2.9765563011169434,4.77669620513916,0.6005439162254333
-2.9785146713256836,4.712601661682129,0.5840511322021484
-2.995340347290039,4.670999526977539,0.5702440142631531
-3.043308734893799,4.673802375793457,0.5613548159599304
-3.0553512573242188,4.625464916229248,0.5461554527282715
-3.0858144760131836,4.606597900390625,0.5342143774032593
-3.0824687480926514,4.535220623016357,0.5159032940864563
-3.11398983001709,4.515063762664795,0.5032560229301453
-3.1270506381988525,4.474242687225342,0.48810312151908875
-2.945138931274414,4.156376838684082,0.4430973529815674
-2.866105794906616,3.984654188156128,0.4138711392879486
-2.9074547290802,3.9896726608276367,0.40332096815109253
-2.9384353160858154,3.9779388904571533,0.3905097246170044
-2.4668920040130615,3.4554145336151123,-0.19249765574932098
-2.432288646697998,3.4600629806518555,-0.20461660623550415
-2.88458251953125,4.166452407836914,-0.25991517305374146
-2.3298962116241455,3.4202892780303955,-0.22437357902526855
-2.21427321434021,3.2999918460845947,-0.22622671723365784
-2.260863780975342,3.422811269760132,-0.24458450078964233
-2.2133898735046387,3.4064903259277344,-0.2533246874809265
-2.153566837310791,3.365443468093872,-0.2592385709285736
-2.1328351497650146,3.3870468139648438,-0.2698463201522827
-1.2804787158966064,2.0670888423919678,-0.17006948590278625
-1.2232801914215088,2.0057289600372314,-0.1699104607105255
-2.0921411514282227,3.487353801727295,-0.3039928078651428
-2.107724666595459,3.5723984241485596,-0.3199464976787567
-2.097912311553955,3.6133835315704346,-0.3318292796611786
-1.204942226409912,2.109534978866577,-0.19845034182071686
-2.5996763706207275,4.629462242126465,-0.44573262333869934
-2.561776638031006,4.640500068664551,-0.4569290280342102
-2.547527313232422,4.691532135009766,-0.4717293679714203
-2.527906894683838,4.736287593841553,-0.48590582609176636
-1.757778525352478,3.3515961170196533,-0.3506501019001007
-1.7304251194000244,3.356234550476074,-0.3576763868331909
-1.6990324258804321,3.353969097137451,-0.3640122711658478
-1.6882984638214111,3.393322467803955,-0.37469547986984253
-1.6858357191085815,3.4500231742858887,-0.3873918950557709
-1.7338435649871826,3.611578941345215,-0.41204583644866943
-1.7129954099655151,3.633514404296875,-0.4210061728954315
-2.3162078857421875,5.005637168884277,-0.5887253284454346
-2.2860803604125977,5.035277843475342,-0.6010165810585022
-2.2568373680114746,5.064224720001221,-0.6130181550979614
-2.094622850418091,4.790898323059082,-0.5878204703330994
-1.9895617961883545,4.640676498413086,-0.576894998550415
-1.9443410634994507,4.625021934509277,-0.582321047782898
-1.9038077592849731,4.619744777679443,-0.5890240669250488
-1.8446745872497559,4.5673604011535645,-0.589318037033081
-1.8289031982421875,4.6226887702941895,-0.6033592820167542
-1.3364107608795166,3.4487721920013428,-0.4552420675754547
-1.309386968612671,3.4500155448913574,-0.460436075925827
-1.727004885673523,4.650153160095215,-0.6273201704025269
-2.005929708480835,5.520761966705322,-0.7523543238639832
-0.9391528964042664,2.642718553543091,-0.3637600541114807
-0.8544276356697083,2.458416223526001,-0.3417128026485443
-0.8494852781295776,2.5004971027374268,-0.35088083148002625
-0.8166653513908386,2.4619486331939697,-0.3486224114894867
-0.8145773410797119,2.5150387287139893,-0.3593066930770874
-0.796894371509552,2.5201447010040283,-0.3631635308265686
-0.7837183475494385,2.539916515350342,-0.36916905641555786
-0.7723192572593689,2.567125082015991,-0.3760470151901245
-0.7583748698234558,2.586866617202759,-0.38189566135406494
-0.7557836174964905,2.6474506855010986,-0.39388707280158997
-0.747600257396698,2.689371109008789,-0.4031622111797333
-0.7326722145080566,2.7089650630950928,-0.40895119309425354
-0.7115452289581299,2.70607590675354,-0.41127705574035645
-0.696295976638794,2.725470542907715,-0.41700881719589233
-0.669417142868042,2.6998283863067627,-0.4158884882926941
-0.6585565209388733,2.7377560138702393,-0.42443060874938965
-0.6444714665412903,2.7644214630126953,-0.43105700612068176
-0.6215391755104065,2.7533464431762695,-0.431826651096344
-0.6121479868888855,2.8024027347564697,-0.4420536756515503
-0.5922015905380249,2.8061814308166504,-0.445243775844574
-0.5809402465820312,2.851428270339966,-0.4546782374382019
-0.5653366446495056,2.8777143955230713,-0.46111851930618286
-0.5494598150253296,2.903900146484375,-0.46759337186813354
-0.5319074392318726,2.922395706176758,-0.4728775918483734
-0.5124305486679077,2.9332668781280518,-0.4768175780773163
-0.4988265335559845,2.978238582611084,-0.48606839776039124
-0.4779486358165741,2.981259822845459,-0.48851943016052246
-0.4559556543827057,2.976500988006592,-0.4897077679634094
-0.4429909884929657,3.032611131668091,-0.5009628534317017
-0.7028547525405884,5.062720775604248,-0.839056134223938
-0.6517931818962097,4.9484992027282715,-0.8227334022521973
-0.6220228672027588,4.990622043609619,-0.8323935866355896
-0.5346591472625732,4.546513080596924,-0.7607652544975281
-0.5004327297210693,4.526694297790527,-0.7596206068992615
-0.49267399311065674,4.759624481201172,-0.8005669713020325
-0.4607752561569214,4.7817606925964355,-0.8062271475791931
-0.4243219792842865,4.749923229217529,-0.8027899265289307
-0.3845805525779724,4.671748161315918,-0.7915106415748596
-0.3513927161693573,4.66635274887085,-0.7918853759765625
-0.31619203090667725,4.62999963760376,-0.7869358658790588
-0.2798296809196472,4.574196815490723,-0.7787131071090698
-0.2484273463487625,4.583459377288818,-0.7815675735473633
-0.2151177078485489,4.554084777832031,-0.7775994539260864
-0.18340818583965302,4.5553412437438965,-0.7783660292625427
-0.15070264041423798,4.525589466094971,-0.7738671898841858
-0.11838849633932114,4.514862537384033,-0.7726646065711975
-0.0866963192820549,4.500048637390137,-0.7707857489585876
-0.05532851442694664,4.4928131103515625,-0.7696390151977539
-0.02424611523747444,4.520039081573486,-0.7742637991905212
0.007064102217555046,4.431542873382568,-0.7591032385826111
0.036290887743234634,4.188828945159912,-0.7175615429878235
0.06413856148719788,4.107656955718994,-0.7035651803016663
0.09137482196092606,4.049489974975586,-0.6929979920387268
0.12166840583086014,4.1219987869262695,-0.7048254609107971
0.15272654592990875,4.186586380004883,-0.7153128385543823
0.17970781028270721,4.135529518127441,-0.7060730457305908
0.21598124504089355,4.27280330657959,-0.7285231947898865
0.2432442605495453,4.229148864746094,-0.7199091911315918
0.2692004442214966,4.173786163330078,-0.7093620300292969
0.29656198620796204,4.148998737335205,-0.7040672898292542
0.32539471983909607,4.1470818519592285,-0.7026257514953613
0.35663285851478577,4.168063163757324,-0.7044274210929871
0.4011757969856262,4.334617614746094,-0.7308176159858704
0.42559829354286194,4.2745795249938965,-0.7189897894859314
0.4647228717803955,4.359991073608398,-0.7316502332687378
0.4797833263874054,4.22307825088501,-0.7066814303398132
0.522094190120697,4.323353290557861,-0.7210959792137146
0.5570142865180969,4.35832405090332,-0.7246161699295044
0.646575927734375,4.7941203117370605,-0.7945597767829895
0.6934662461280823,4.885447025299072,-0.8071625828742981
0.7228278517723083,4.8506574630737305,-0.7981945872306824
0.7606419920921326,4.868946075439453,-0.7979501485824585
0.7895066142082214,4.833736419677734,-0.7890326380729675
0.8245135545730591,4.836355686187744,-0.7863326072692871
0.8453059196472168,4.759034633636475,-0.770378828048706
0.8740910887718201,4.7310285568237305,-0.7621616125106812
0.9112921357154846,4.74830961227417,-0.7612728476524353
0.9405099749565125,4.7197465896606445,-0.7529850006103516
0.9711191654205322,4.702446937561035,-0.7466233372688293
0.997302234172821,4.666207313537598,-0.736674427986145
0.83308345079422,3.770209789276123,-0.5918459892272949
0.8541882038116455,3.7423763275146484,-0.5841364860534668
0.880754292011261,3.7368733882904053,-0.5798980593681335
0.8985264897346497,3.6975507736206055,-0.5702866911888123
0.9288291931152344,3.710676908493042,-0.5685869455337524
0.9545634388923645,3.704843759536743,-0.5639864206314087
0.9785372018814087,3.6912930011749268,-0.5582088828086853
1.0017822980880737,3.6737499237060547,-0.551771879196167
1.0272597074508667,3.6674599647521973,-0.546747624874115
1.0505584478378296,3.6535537242889404,-0.5406224131584167
1.073879599571228,3.63944673538208,-0.5344834327697754
1.0971086025238037,3.6251683235168457,-0.5283530354499817
1.1181459426879883,3.603314161300659,-0.5208281874656677
1.1407103538513184,3.588888645172119,-0.5143899321556091
1.163261890411377,3.574273109436035,-0.5079432725906372
1.1834043264389038,3.552103281021118,-0.5004417300224304
1.205660343170166,3.537203311920166,-0.49390357732772827
1.2326146364212036,3.5368998050689697,-0.48921066522598267
1.2509655952453613,3.5106959342956543,-0.48088836669921875
1.2729319334030151,3.495333194732666,-0.4741189479827881
1.306902289390564,3.512519359588623,-0.47174105048179626
1.3283640146255493,3.496978998184204,-0.4647074341773987
1.641187310218811,4.23322868347168,-0.5565566420555115
1.6655950546264648,4.207999229431152,-0.5470925569534302
1.6922276020050049,4.189960956573486,-0.5387046933174133
1.7240501642227173,4.186343193054199,-0.5319391489028931
1.7528061866760254,4.175362586975098,-0.5242107510566711
1.7788525819778442,4.156870365142822,-0.5154827833175659
1.8117040395736694,4.152122497558594,-0.5083131194114685
1.827744722366333,4.1120991706848145,-0.496821790933609
1.8559085130691528,4.100432395935059,-0.4887727200984955
1.8844218254089355,4.088376045227051,-0.48059871792793274
1.909891963005066,4.068925380706787,-0.4715093970298767
1.935015320777893,4.049405574798584,-0.4622098505496979
1.9558429718017578,4.023059368133545,-0.4522514045238495
1.978633999824524,3.9998438358306885,-0.4425775706768036
2.01025390625,3.993698835372925,-0.4347373843193054
2.034027338027954,3.9738478660583496,-0.42530444264411926
2.046656608581543,3.933238983154297,-0.4137032628059387
2.085446834564209,3.9401803016662598,-0.4068189859390259
2.1057615280151367,3.9126172065734863,-0.39643317461013794
2.124704599380493,3.88553524017334,-0.386068731546402
2.111285448074341,3.800487995147705,-0.370116263628006
2.1495392322540283,3.806720018386841,-0.3628551959991455
2.168616771697998,3.778827428817749,-0.35217544436454773
2.1822636127471924,3.7447948455810547,-0.3411048352718353
2.2238731384277344,3.7573373317718506,-0.3341000974178314
2.230226755142212,3.7090370655059814,-0.3215247690677643
2.2591891288757324,3.701421022415161,-0.31250613927841187
2.288525104522705,3.6933462619781494,-0.3032402992248535
2.3103396892547607,3.6713547706604004,-0.292573481798172
2.322716236114502,3.636608839035034,-0.28094956278800964
2.3594820499420166,3.6415321826934814,-0.2724020779132843
2.3719797134399414,3.6062145233154297,-0.2603808045387268
2.3927149772644043,3.583883285522461,-0.2491113245487213
2.438063144683838,3.6011130809783936,-0.2407105267047882
2.4497718811035156,3.565534830093384,-0.22819475829601288
2.4694085121154785,3.543166399002075,-0.2164759486913681
2.5058486461639404,3.5468666553497314,-0.20633754134178162
2.5220158100128174,3.5169036388397217,-0.1931793987751007
2.558748960494995,3.5199124813079834,-0.18201196193695068
2.1744894981384277,2.9504659175872803,-0.14262616634368896
2.777071714401245,3.9295852184295654,0.39626213908195496
2.756690502166748,3.9616031646728516,0.41020771861076355
2.723198413848877,3.974004030227661,0.4216288626194
2.6998767852783203,4.007351398468018,0.43526947498321533
2.6661550998687744,4.019309997558594,0.4457378089427948
2.637115240097046,4.037216663360596,0.456527441740036
2.6140286922454834,4.0694804191589355,0.46872806549072266
2.5793344974517822,4.081169128417969,0.4782775640487671
2.5539650917053223,4.105080604553223,0.48897695541381836
2.5189177989959717,4.116418361663818,0.49780556559562683
2.4932096004486084,4.144482612609863,0.5085994005203247
2.463360548019409,4.161188125610352,0.517564594745636
2.4455857276916504,4.197543144226074,0.5289260745048523
2.4246373176574707,4.235428810119629,0.5402855277061462
2.3638036251068115,4.201891899108887,0.5423977375030518
2.3188250064849854,4.190395355224609,0.5468550324440002
2.2576777935028076,4.147674560546875,0.5470954179763794
2.2302052974700928,4.170315265655518,0.5555370450019836
2.2071988582611084,4.203430652618408,0.5655031800270081
2.183958053588867,4.2320404052734375,0.5746045708656311
2.1505019664764404,4.23947811126709,0.5807645916938782
2.1229770183563232,4.261043548583984,0.5886332392692566
2.0978684425354004,4.289786338806152,0.5973575115203857
2.0654823780059814,4.304515838623047,0.6042171120643616
2.0384480953216553,4.325051784515381,0.6116126179695129
2.0079686641693115,4.338376998901367,0.618026077747345
1.9790815114974976,4.359270095825195,0.6251350045204163
2.0034234523773193,4.500309944152832,0.6496015191078186
1.9954540729522705,4.570641040802002,0.6639872789382935
1.9505689144134521,4.555416107177734,0.6659321784973145
1.9274890422821045,4.5895562171936035,0.6750458478927612
1.89371919631958,4.602768421173096,0.6806411147117615
1.8670446872711182,4.6336894035339355,0.6889107823371887
1.8334360122680664,4.646265983581543,0.6944476962089539
1.8169077634811401,4.701736927032471,0.7064182758331299
1.778393030166626,4.699086666107178,0.7096472382545471
1.7388492822647095,4.6966118812561035,0.7124680876731873
1.3214737176895142,3.650404930114746,0.5561975240707397
1.2999311685562134,3.6739559173583984,0.5622565150260925
1.280022382736206,3.700822591781616,0.5688148736953735
1.603186011314392,4.741676330566406,0.7318947911262512
1.592392921447754,4.822001934051514,0.7472276091575623
1.5668694972991943,4.862173557281494,0.7561280727386475
1.529211401939392,4.8653717041015625,0.759334146976471
1.509745478630066,4.927361965179443,0.7717772722244263
1.4664312601089478,4.907520294189453,0.7713544964790344
1.4385383129119873,4.939246654510498,0.7790749073028564
1.3967466354370117,4.926547527313232,0.7793511152267456
1.371461033821106,4.973127365112305,0.7889567613601685
1.3125852346420288,4.896518707275391,0.7790380120277405
1.2736213207244873,4.89026403427124,0.7802906036376953
1.2375657558441162,4.890985012054443,0.7826294302940369
1.2227165699005127,4.977657318115234,0.7987782955169678
1.1852842569351196,4.978278160095215,0.8006322383880615
1.1531072854995728,5.0011796951293945,0.8061132431030273
1.1217029094696045,5.031535625457764,0.8128840327262878
1.0905520915985107,5.057628631591797,0.8189483284950256
1.0599850416183472,5.087282180786133,0.8256385922431946
1.024459958076477,5.094067573547363,0.828637957572937
0.9910667538642883,5.115987300872803,0.8335577845573425
1.8155568838119507,9.748515129089355,1.5910398960113525
1.7365427017211914,9.707291603088379,1.5870295763015747
1.6726186275482178,9.741242408752441,1.5953257083892822
1.6110204458236694,9.789952278137207,1.6061255931854248
1.5320348739624023,9.731620788574219,1.5994324684143066
1.4580802917480469,9.715094566345215,1.5986344814300537
0.7710122466087341,5.396615982055664,0.8890645503997803
1.3174461126327515,9.710687637329102,1.6017380952835083
1.243007779121399,9.669412612915039,1.596930980682373
1.180792212486267,9.719365119934082,1.6072545051574707
1.1081937551498413,9.684676170349121,1.6036618947982788
1.0402859449386597,9.703397750854492,1.6082135438919067
0.9646648168563843,9.637239456176758,1.5983924865722656
0.40392547845840454,4.3439555168151855,0.7210217118263245
0.36848899722099304,4.288919925689697,0.7124630212783813
0.33988770842552185,4.306580543518066,0.716003954410553
0.3099306523799896,4.316399097442627,0.7182916402816772
0.28458890318870544,4.391381740570068,0.7312569618225098
0.3253829777240753,5.631895542144775,0.9380747675895691
0.2859823405742645,5.633928298950195,0.9387054443359375
0.24852682650089264,5.681882858276367,0.9470365047454834
0.20982402563095093,5.7257490158081055,0.9547429084777832
0.17064978182315826,5.750072479248047,0.9592353105545044
0.13140954077243805,5.785682201385498,0.9656614065170288
0.091775082051754,5.832692623138428,0.9733495712280273
0.05128825083374977,5.856313228607178,0.9771766066551208
0.009675473906099796,5.833416938781738,0.9732886552810669
-0.04683629050850868,8.827079772949219,1.4727445840835571
-0.07439322024583817,6.068011283874512,1.0124403238296509
-0.11629436165094376,6.055797100067139,1.0104807615280151
-0.15985287725925446,6.112692356109619,1.0196806192398071
-0.20467498898506165,6.184728622436523,1.0311418771743774
-0.24440129101276398,6.087006568908691,1.014343500137329
-0.1669704169034958,3.5449397563934326,0.5904701948165894
-0.19455182552337646,3.5976314544677734,0.5990096926689148
-0.21625924110412598,3.542417287826538,0.5896116495132446
-0.5337271690368652,7.846909046173096,1.3055245876312256
-0.5857575535774231,7.801001071929932,1.296617865562439
-0.5381471514701843,6.560298442840576,1.0894031524658203
-0.5871854424476624,6.598909854888916,1.0948652029037476
-0.6245563626289368,6.506690502166748,1.0786726474761963
-0.6571202874183655,6.379761219024658,1.056806206703186
-0.7035554051399231,6.3866963386535645,1.057165503501892
-0.7484149932861328,6.389703273773193,1.0563397407531738
-0.7880896925926208,6.350344657897949,1.0484055280685425
-0.8246838450431824,6.2916364669799805,1.0373479127883911
-0.8623647689819336,6.244142055511475,1.0282005071640015
-0.9032208323478699,6.21536111831665,1.022167682647705
-0.9534924030303955,6.255021095275879,1.027456521987915
-1.0033711194992065,6.290589332580566,1.0317714214324951
-1.0546860694885254,6.333500385284424,1.0369199514389038
-1.1047255992889404,6.364597320556641,1.0401544570922852
-1.1579837799072266,6.4104905128479,1.0458295345306396
-1.2139614820480347,6.459512233734131,1.0519808530807495
-1.2685083150863647,6.500625133514404,1.0568939447402954
-1.322651982307434,6.537592887878418,1.0609989166259766
-1.377422571182251,6.578147888183594,1.0651055574417114
-1.4287238121032715,6.599409580230713,1.0661077499389648
-1.4659841060638428,6.552334785461426,1.0560822486877441
-1.5037356615066528,6.508768081665039,1.0466883182525635
-1.5419836044311523,6.468710422515869,1.0379254817962646
-0.6898918151855469,2.807530164718628,0.4494644105434418
-0.6957223415374756,2.7506961822509766,0.43911314010620117
-0.7205952405929565,2.768545150756836,0.4406956434249878
-0.7354521751403809,2.7489638328552246,0.43635788559913635
-0.7627280950546265,2.773890495300293,0.43907517194747925
-0.7799457907676697,2.7613937854766846,0.4358762800693512
-1.772491455078125,6.113407135009766,0.962253212928772
-1.804682731628418,6.068538188934326,0.9518247246742249
-1.8366789817810059,6.027423858642578,0.942127525806427
-1.8658987283706665,5.9787678718566895,0.9313302040100098
-1.8994427919387817,5.940611362457275,0.9221379160881042
-1.9289357662200928,5.891249656677246,0.9112854599952698
-1.9631067514419556,5.856329917907715,0.9025062918663025
-1.9889086484909058,5.803557395935059,0.8906601667404175
-2.017918348312378,5.761636257171631,0.8805645704269409
-2.049333333969116,5.726763725280762,0.8715929985046387
-2.0799756050109863,5.687765598297119,0.8619778752326965
-2.1115245819091797,5.652230739593506,0.852959930896759
-2.1368637084960938,5.602241516113281,0.8413962125778198
-2.174407958984375,5.588700294494629,0.8352347612380981
-1.5525860786437988,3.913221597671509,0.5819554328918457
-1.5767481327056885,3.8958632946014404,0.5764294862747192
-1.561188817024231,3.7816269397735596,0.5566464066505432
-1.5653221607208252,3.7176570892333984,0.5442753434181213
-1.5642834901809692,3.647258996963501,0.530834436416626
-1.576287031173706,3.608968496322632,0.5221710205078125
-1.6040648221969604,3.6058545112609863,0.5185776948928833
-1.6197538375854492,3.5740134716033936,0.5108046531677246
-1.6371173858642578,3.5454554557800293,0.5034859776496887
-1.6541645526885986,3.52112078666687,0.49653923511505127
-1.67092764377594,3.4967191219329834,0.4896373152732849
-1.6980745792388916,3.49294114112854,0.4855820834636688
-1.7157559394836426,3.467719554901123,0.47845375537872314
-1.7037734985351562,3.383424997329712,0.46319466829299927
-1.7156187295913696,3.352039098739624,0.45507973432540894
-1.7306983470916748,3.3275132179260254,0.44795551896095276
-1.7498635053634644,3.3094282150268555,0.4416194260120392
-1.769410490989685,3.2909481525421143,0.43517282605171204
-1.161110520362854,2.125030755996704,0.27833956480026245
-1.1866353750228882,2.138052463531494,0.2772032916545868
-2.531080484390259,4.491274356842041,0.5764054656028748
-2.9177143573760986,5.094366073608398,0.6466556787490845
-5.998650550842285,10.307684898376465,1.2938650846481323
-6.0561699867248535,10.253946304321289,1.271787166595459
-1.2464569807052612,2.079153299331665,0.2546984851360321
-2.927889347076416,4.809030532836914,0.5814253091812134
-2.9412550926208496,4.756453990936279,0.5673266053199768
-2.9681284427642822,4.7317728996276855,0.5562962293624878
-2.998831272125244,4.713573455810547,0.5460436344146729
-3.0238332748413086,4.680356502532959,0.5333386659622192
-3.0500376224517822,4.650639533996582,0.5210781693458557
-3.0498881340026855,4.586725234985352,0.5048379898071289
-3.0757930278778076,4.561255931854248,0.4927479922771454
-3.0948657989501953,4.521376132965088,0.4785032272338867
-3.114081621170044,4.485792636871338,0.4644326865673065
-3.147184133529663,4.473404884338379,0.4528941214084625
-2.8392982482910156,3.977095603942871,0.3925171196460724
-2.8610832691192627,3.953019618988037,0.37983670830726624
-2.9342918395996094,4.0020341873168945,0.3739330470561981
-2.9532291889190674,3.969942808151245,0.35901230573654175
-2.45434832572937,3.4643759727478027,-0.19176587462425232
-2.789332389831543,3.996094226837158,-0.23363147675991058
-2.2333765029907227,3.250896692276001,-0.20007313787937164
-2.2721164226531982,3.3607046604156494,-0.21692761778831482
-2.2113640308380127,3.3209385871887207,-0.22361162304878235
-2.2309508323669434,3.4054343700408936,-0.23870272934436798
-2.193532705307007,3.401139974594116,-0.24728736281394958
-2.15457820892334,3.3929553031921387,-0.25523197650909424
-1.2759623527526855,2.0431301593780518,-0.15886469185352325
-1.2570778131484985,2.0452213287353516,-0.1639043688774109
-2.0856480598449707,3.447218179702759,-0.2842283546924591
-2.0877904891967773,3.5087783336639404,-0.29731184244155884
-2.087749719619751,3.5668270587921143,-0.3101379871368408
-1.2341551780700684,2.143153190612793,-0.19099795818328857
-1.1934629678726196,2.1076207160949707,-0.19225528836250305
-2.5867679119110107,4.646815776824951,-0.43355169892311096
-2.5539944171905518,4.66389274597168,-0.44435223937034607
-2.531665563583374,4.701554298400879,-0.45712289214134216
-2.511033058166504,4.746776103973389,-0.4708127975463867
-1.7355422973632812,3.338024616241455,-0.3373566269874573
-1.7120035886764526,3.3494176864624023,-0.34463271498680115
-1.6842281818389893,3.354020595550537,-0.35112133622169495
-1.676910400390625,3.4003398418426514,-0.36200517416000366
-1.7013834714889526,3.51309871673584,-0.38017651438713074
-1.7249914407730103,3.626020908355713,-0.39857447147369385
-1.7067853212356567,3.6552774906158447,-0.4078233540058136
-2.2984843254089355,5.016201019287109,-0.5679079294204712
-2.2694129943847656,5.045360088348389,-0.5792344212532043
-2.2337539196014404,5.060130596160889,-0.5889193415641785
-2.036027431488037,4.704644203186035,-0.5548248291015625
-2.0019829273223877,4.718194961547852,-0.5635743141174316
-1.952354073524475,4.69170618057251,-0.5673199892044067
-1.848954200744629,4.531787395477295,-0.5546117424964905
-1.8437159061431885,4.612456321716309,-0.5709307789802551
-1.8453058004379272,4.715129375457764,-0.5903393030166626
-1.3357774019241333,3.4845852851867676,-0.44104307889938354
-1.7624212503433228,4.695047378540039,-0.6006611585617065
-1.7260940074920654,4.699295520782471,-0.6072512865066528
-1.053950548171997,2.9336211681365967,-0.38285699486732483
-1.0238735675811768,2.9148964881896973,-0.3841641843318939
-0.9782493114471436,2.848088264465332,-0.3789386749267578
-0.9370443224906921,2.7919442653656006,-0.3747943639755249
-0.9171203374862671,2.798001766204834,-0.37888240814208984
-0.8701705932617188,2.719008445739746,-0.37134599685668945
-0.8115236759185791,2.5989034175872803,-0.35799476504325867
-0.7728922367095947,2.537381649017334,-0.35233190655708313
-0.7658722996711731,2.579450845718384,-0.3609021306037903
-0.7562012076377869,2.614075183868408,-0.3685106635093689
-0.751508355140686,2.66725492477417,-0.37880825996398926
-0.740968644618988,2.7018229961395264,-0.38653525710105896
-0.7174860239028931,2.69166898727417,-0.38767164945602417
-0.7071316242218018,2.729922294616699,-0.3957725763320923
-0.6832309365272522,2.7155961990356445,-0.3962617814540863
-0.6706164479255676,2.7461442947387695,-0.4033200740814209
-0.653026282787323,2.757885694503784,-0.4074353575706482
-0.6366252303123474,2.7771458625793457,-0.4126364290714264
-0.622072160243988,2.8037686347961426,-0.41893497109413147
-0.6008656620979309,2.800048828125,-0.4207119941711426
-0.5875526666641235,2.8340258598327637,-0.4281066656112671
-0.5714073777198792,2.8566391468048096,-0.43355774879455566
-0.5568003058433533,2.8906004428863525,-0.44082531332969666
-0.5337487459182739,2.8788347244262695,-0.44110575318336487
-0.5217761993408203,2.9277188777923584,-0.4507181942462921
-0.5070821046829224,2.9652040004730225,-0.45835837721824646
-0.4887572228908539,2.983581066131592,-0.4629862606525421
-0.4722527861595154,3.0171449184417725,-0.4700503647327423
-0.455779492855072,3.0505504608154297,-0.47710880637168884
-0.4350382685661316,3.057129383087158,-0.47992420196533203
-0.41570547223091125,3.0751044750213623,-0.48419812321662903
-0.3981033265590668,3.1082651615142822,-0.49090874195098877
