X,Y,Z
1.0563899278640747,5.001443862915039,0.12345654517412186
1.0193538665771484,5.001140117645264,0.1237994134426117
0.9838808178901672,5.00822639465332,0.12433090806007385
0.9727858304977417,5.145567417144775,0.12811419367790222
0.3947720229625702,2.1707611083984375,0.05420348048210144
0.8991459608078003,5.147026062011719,0.12889473140239716
0.3888603150844574,2.3224174976348877,0.05829014256596565
1.26930832862854,7.923848628997803,0.19933314621448517
1.2012853622436523,7.859379291534424,0.19817662239074707
1.1488498449325562,7.882983684539795,0.1992335170507431
0.30889376997947693,2.227980852127075,0.056442659348249435
1.3697439432144165,10.414798736572266,0.26436927914619446
1.2786141633987427,10.280778884887695,0.26140108704566956
1.193530559539795,10.18090534210205,0.2593032717704773
1.1069982051849365,10.061027526855469,0.25670337677001953
1.0309765338897705,10.01020336151123,0.2558596432209015
0.959916353225708,10.001559257507324,0.25610238313674927
0.38038042187690735,4.278600215911865,0.10967317223548889
0.3465797007083893,4.234450817108154,0.10865899920463562
0.3157913088798523,4.229022026062012,0.108644500374794
0.28900599479675293,4.270071983337402,0.10982723534107208
0.25981390476226807,4.279767036437988,0.11021004617214203
0.22998078167438507,4.281469821929932,0.11036011576652527
0.20136763155460358,4.31027364730835,0.11116666346788406
0.16810089349746704,4.245260715484619,0.10955965518951416
0.13630282878875732,4.179978847503662,0.10794758796691895
0.10664721578359604,4.157401084899902,0.10744166374206543
0.07770920544862747,4.1580400466918945,0.10754063725471497
0.049139879643917084,4.189716339111328,0.10838098078966141
0.01943848468363285,4.1899590492248535,0.10839526355266571
-0.010133015923202038,4.346189975738525,0.11245064437389374
-0.03704759106040001,3.9867746829986572,0.10316887497901917
-0.06526612490415573,4.017655849456787,0.10399067401885986
-0.0935857817530632,4.032719612121582,0.10439588129520416
-0.11889582872390747,3.9422011375427246,0.10199978202581406
-0.13977447152137756,3.7539567947387695,0.09708282351493835
-0.1697816401720047,3.8426249027252197,0.09933410584926605
-0.1861400157213211,3.6385600566864014,0.09402374178171158
-0.2057865411043167,3.539719581604004,0.09143980592489243
-0.22932907938957214,3.5226218700408936,0.09093543142080307
-0.25945594906806946,3.594925880432129,0.09270338714122772
-0.2843285799026489,3.593048095703125,0.0925624668598175
-0.3078826665878296,3.575432777404785,0.09202081710100174
-0.32874149084091187,3.53044056892395,0.09078016132116318
-0.3478228449821472,3.4736764430999756,0.08924340456724167
-0.3701311945915222,3.4517393112182617,0.08854510635137558
-0.3885912597179413,3.402554988861084,0.08714937418699265
-0.41206201910972595,3.399797201156616,0.08694856613874435
-0.43117427825927734,3.362001657485962,0.08585642278194427
-0.4524000287055969,3.3434548377990723,0.08526182174682617
-0.4660087525844574,3.2706058025360107,0.08326541632413864
-0.48845091462135315,3.267336130142212,0.08300092816352844
-0.5120466351509094,3.2716336250305176,0.08293239772319794
-0.5333278775215149,3.2603251934051514,0.08247121423482895
-0.5559787750244141,3.2565457820892334,0.08220339566469193
-0.5813072323799133,3.267993211746216,0.08232336491346359
-0.6041502952575684,3.2638556957244873,0.08200085163116455
-0.6279582977294922,3.2673206329345703,0.08186178654432297
-0.6503154039382935,3.2629525661468506,0.08152978867292404
-0.6657800674438477,3.223961353302002,0.08033644407987595
-0.6848779320716858,3.2039949893951416,0.07962380349636078
-0.6795629858970642,3.0732808113098145,0.07614824920892715
-0.7004737257957458,3.068591594696045,0.07577066868543625
-0.7231419086456299,3.0713624954223633,0.0755801722407341
-0.7212101221084595,2.971454381942749,0.07287139445543289
-0.6982823014259338,2.792104482650757,0.0682375505566597
-0.7102319598197937,2.756847620010376,0.06714187562465668
-0.7290081977844238,2.7519516944885254,0.06674449145793915
-0.7446330785751343,2.7356348037719727,0.06607275456190109
-0.7632730603218079,2.730502128601074,0.06567462533712387
-0.7897399067878723,2.7514264583587646,0.06589896231889725
-0.9151313900947571,3.105400800704956,0.07405876368284225
-0.9543277621269226,3.1589226722717285,0.07498155534267426
-0.9687266945838928,3.1300296783447266,0.07393202185630798
-1.0252517461776733,3.235107183456421,0.07603998482227325
-1.0501004457473755,3.2353527545928955,0.07566344738006592
-1.0778930187225342,3.242678642272949,0.07544630020856857
-1.0949891805648804,3.2204642295837402,0.07451916486024857
-1.1243757009506226,3.2351531982421875,0.0744246393442154
-1.146195888519287,3.2275009155273438,0.07381601631641388
-1.1845310926437378,3.2635445594787598,0.07419268786907196
-1.2221468687057495,3.2955167293548584,0.07446713000535965
-1.253269910812378,3.3088910579681396,0.07427791506052017
-1.2839555740356445,3.3222548961639404,0.07407238334417343
-1.3220113515853882,3.353532075881958,0.07426081597805023
-1.3482096195220947,3.351522445678711,0.07369091361761093
-2.3011181354522705,5.607475280761719,0.1224151998758316
-2.348609209060669,5.613189220428467,0.12156517803668976
-1.6111407279968262,3.779496669769287,0.08119216561317444
-1.633528470993042,3.7613797187805176,0.08013833314180374
-1.6501654386520386,3.7285192012786865,0.0787598043680191
-1.666290283203125,3.6956701278686523,0.07738810777664185
-1.684786081314087,3.670112371444702,0.07613042742013931
-1.6562855243682861,3.545602321624756,0.07286125421524048
-1.6705139875411987,3.5130093097686768,0.0714893490076065
-1.6846909523010254,3.4802355766296387,0.07011635601520538
-1.7080751657485962,3.4688379764556885,0.06914360076189041
-1.7383878231048584,3.471247673034668,0.06841352581977844
-1.768835186958313,3.4733927249908447,0.06767424196004868
-1.8199059963226318,3.5130422115325928,0.06762838363647461
-2.428050994873047,4.609854221343994,0.08764009922742844
-2.4472906589508057,4.573134422302246,0.08581098914146423
-2.4851510524749756,4.570488929748535,0.08461374789476395
-1.1906474828720093,2.1533761024475098,0.039289750158786774
-2.4965813159942627,4.443737506866455,0.07988893240690231
-2.521657943725586,4.420591354370117,0.07825778424739838
-2.5431320667266846,4.39025354385376,0.07648676633834839
-2.5695960521698,4.365782737731934,0.0747709646821022
-2.485058546066284,4.157104015350342,0.06990797072649002
-1.2600289583206177,2.077145576477051,0.034281615167856216
-2.0278115272521973,3.2924585342407227,0.05326107144355774
-2.0465056896209717,3.2716822624206543,0.051816198974847794
-2.6388869285583496,4.158779144287109,0.0644238218665123
-2.6262168884277344,4.078827381134033,0.061719268560409546
-2.744245767593384,4.197829723358154,0.06192810833454132
-1.3060158491134644,1.96942138671875,0.028289709240198135
-2.735156774520874,4.068005084991455,0.056830890476703644
-2.307487964630127,3.381152391433716,0.04577626287937164
-2.80367374420166,4.049682140350342,0.05300787836313248
-2.797839641571045,3.9871175289154053,0.050397343933582306
-2.55354905128479,3.585822343826294,0.04354377090930939
-2.6151955127716064,3.623354434967041,0.04218781366944313
-2.7124154567718506,3.7072417736053467,0.04121512919664383
-2.828120231628418,3.811236619949341,0.04019398242235184
-2.7933218479156494,3.9376766681671143,-0.05334867164492607
-2.4455409049987793,3.5041604042053223,-0.049574464559555054
-2.764167547225952,4.01990270614624,-0.05902804806828499
-2.7419593334198,4.053922176361084,-0.06171578913927078
-2.7340147495269775,4.106256484985352,-0.06457696110010147
-2.1694793701171875,3.308864116668701,-0.05361193045973778
-2.178253173828125,3.3776729106903076,-0.05630946531891823
-2.6187469959259033,4.1251912117004395,-0.07058575004339218
-1.2872666120529175,2.060344696044922,-0.036142222583293915
-1.2595746517181396,2.0499157905578613,-0.036817483603954315
-1.265012264251709,2.0923244953155518,-0.038416821509599686
-2.009406566619873,3.376495361328125,-0.06329701840877533
-2.50099515914917,4.2745513916015625,-0.08173808455467224
-2.4768831729888916,4.306562423706055,-0.08395988494157791
-2.4583778381347656,4.3440632820129395,-0.08620098233222961
-1.1964094638824463,2.1501009464263916,-0.04339912533760071
-2.3760242462158203,4.3451128005981445,-0.08916687220335007
-2.3562655448913574,4.382447719573975,-0.09134336560964584
-2.3433966636657715,4.433529376983643,-0.09382867068052292
-1.8069806098937988,3.479991912841797,-0.07469812780618668
-1.763704538345337,3.458310604095459,-0.07526867836713791
-1.7255080938339233,3.4425854682922363,-0.07590653002262115
-1.699700117111206,3.451019763946533,-0.07706525176763535
-1.6740553379058838,3.4635045528411865,-0.07830283045768738
-1.6638367176055908,3.5073413848876953,-0.08024521172046661
-1.7185462713241577,3.6887338161468506,-0.08534886687994003
-1.6993165016174316,3.7147891521453857,-0.08690720051527023
-1.6755659580230713,3.7340965270996094,-0.088267020881176
-1.6626070737838745,3.7782881259918213,-0.09023018181324005
-2.0162606239318848,4.672098159790039,-0.11269225180149078
-1.9547193050384521,4.617674827575684,-0.11245657503604889
-1.6117243766784668,3.8848860263824463,-0.09547464549541473
-1.5718172788619995,3.8674724102020264,-0.09589692950248718
-1.544377088546753,3.878484010696411,-0.09700512886047363
-1.5282725095748901,3.9183828830718994,-0.09884510189294815
-1.5048390626907349,3.939958333969116,-0.1001921221613884
-1.4847508668899536,3.972569704055786,-0.10178966820240021
-1.4589083194732666,3.9904227256774902,-0.10301995277404785
-1.4362941980361938,4.015185356140137,-0.10441704839468002
-1.4103368520736694,4.032623767852783,-0.10564623028039932
-1.3840190172195435,4.049961090087891,-0.10680997371673584
-1.3573771715164185,4.067176818847656,-0.10797033458948135
-1.3345627784729004,4.0952348709106445,-0.10941946506500244
-1.308415412902832,4.111835479736328,-0.11055906116962433
-0.9643068909645081,3.106598377227783,-0.08405480533838272
-0.9489265084266663,3.1358001232147217,-0.0853099450469017
-0.8304976224899292,2.816601276397705,-0.07704537361860275
-0.7902075052261353,2.7510414123535156,-0.07565820962190628
-0.7657670974731445,2.7376606464385986,-0.0756930410861969
-0.7424372434616089,2.7278804779052734,-0.07580852508544922
-0.7266584634780884,2.7482709884643555,-0.07673715800046921
-0.7119321823120117,2.772270679473877,-0.07776886224746704
-0.6878180503845215,2.7582201957702637,-0.07773039489984512
-1.4658279418945312,6.057175636291504,-0.1714821755886078
-1.4457203149795532,6.162290096282959,-0.17520806193351746
-1.4316034317016602,6.305778503417969,-0.17999528348445892
-1.3886570930480957,6.323342800140381,-0.18120071291923523
-1.3395531177520752,6.3099493980407715,-0.1815183460712433
-1.2923845052719116,6.30380916595459,-0.18204736709594727
-1.245179295539856,6.297356128692627,-0.18251734972000122
-1.1917989253997803,6.2639360427856445,-0.18212386965751648
-1.1418018341064453,6.241465091705322,-0.1820419281721115
-1.0826061964035034,6.160818576812744,-0.18025396764278412
-0.9599108695983887,5.6945881843566895,-0.16713857650756836
-0.9357783794403076,5.797483444213867,-0.17066875100135803
-0.9335054159164429,6.058711528778076,-0.17880715429782867
-0.6871375441551208,4.678249835968018,-0.1384129673242569
-0.6586869955062866,4.713867664337158,-0.13982030749320984
-0.6356354355812073,4.791863441467285,-0.1424970179796219
-0.5852435231208801,4.660562515258789,-0.13894569873809814
-0.41334882378578186,3.489684820175171,-0.10422481596469879
-0.38925257325172424,3.500303268432617,-0.10473749786615372
-0.3655424118041992,3.510702133178711,-0.10524564236402512
-0.3475276529788971,3.5792174339294434,-0.10750406980514526
-0.32927772402763367,3.655426263809204,-0.11000685393810272
-0.30371296405792236,3.65763258934021,-0.11021653562784195
-0.27559393644332886,3.63244366645813,-0.1095891147851944
-0.24184827506542206,3.5135250091552734,-0.1061316579580307
-0.2178925722837448,3.5229103565216064,-0.106549933552742
-0.19791604578495026,3.606203317642212,-0.10921204090118408
-0.1845540851354599,3.8531899452209473,-0.11680172383785248
-0.15750649571418762,3.8622026443481445,-0.11714580655097961
-0.132126584649086,3.910031318664551,-0.11867283284664154
-0.10584602504968643,3.9459807872772217,-0.11984651535749435
-0.07875736802816391,3.9622318744659424,-0.12042859196662903
-0.05191117152571678,4.017338752746582,-0.12217921018600464
-0.023676883429288864,4.0527448654174805,-0.12325441837310791
0.004502105060964823,4.068428993225098,-0.12373586744070053
0.033187806606292725,4.115150451660156,-0.12516741454601288
0.06269983947277069,4.173379898071289,-0.12695538997650146
0.09255550056695938,4.211878776550293,-0.12814971804618835
0.156590536236763,5.41320276260376,-0.16461814939975739
0.19484291970729828,5.411965370178223,-0.16448457539081573
0.23053918778896332,5.367578029632568,-0.16305001080036163
0.21005161106586456,4.207667827606201,-0.12775452435016632
0.24459727108478546,4.299665927886963,-0.13049174845218658
0.2706548273563385,4.239424228668213,-0.1285528540611267
0.3004717230796814,4.237422466278076,-0.1283305287361145
0.327946275472641,4.211893558502197,-0.12740550935268402
0.3598198890686035,4.2406463623046875,-0.12812770903110504
0.4721488952636719,5.140092849731445,-0.1551319807767868
0.5085837244987488,5.144471168518066,-0.1550740748643875
0.4871404469013214,4.597193241119385,-0.1383255124092102
0.5162312984466553,4.570452690124512,-0.13728170096874237
0.5543610453605652,4.6210551261901855,-0.13856537640094757
0.5938363671302795,4.675203323364258,-0.13995546102523804
0.6708861589431763,5.0037922859191895,-0.14954911172389984
0.7070018649101257,5.00671911239624,-0.14927466213703156
0.7374222278594971,4.974714756011963,-0.14796437323093414
0.7692781686782837,4.954099178314209,-0.14700235426425934
0.802450954914093,4.940937519073486,-0.14626704156398773
0.835477888584137,4.927555084228516,-0.14553329348564148
0.8626683950424194,4.883238792419434,-0.14381030201911926
0.8946170210838318,4.865596294403076,-0.14283834397792816
0.9250636696815491,4.844017505645752,-0.14176765084266663
0.9556456804275513,4.822174072265625,-0.14069361984729767
0.9860121011734009,4.800131320953369,-0.1396227478981018
1.0174775123596191,4.7855963706970215,-0.1387290358543396
1.0457687377929688,4.755529403686523,-0.1373373419046402
1.0765652656555176,4.740664958953857,-0.13640370965003967
1.106691837310791,4.721712589263916,-0.135355144739151
1.134021282196045,4.6911444664001465,-0.13398116827011108
1.1644681692123413,4.675653457641602,-0.13300685584545135
1.1910789012908936,4.644786357879639,-0.13153354823589325
1.2227318286895752,4.636577129364014,-0.13072140514850616
1.2486385107040405,4.6054205894470215,-0.12926322221755981
1.2774757146835327,4.585368633270264,-0.12812431156635284
1.3069053888320923,4.568969249725342,-0.12705273926258087
1.334126591682434,4.544845104217529,-0.12569323182106018
1.3627519607543945,4.528214454650879,-0.12456288933753967
1.3894081115722656,4.503788948059082,-0.12321648746728897
1.4207278490066528,4.494032859802246,-0.12227462977170944
1.4443587064743042,4.461900234222412,-0.12069074809551239
1.4701694250106812,4.437038421630859,-0.11925286054611206
1.4989553689956665,4.4233012199401855,-0.11813554912805557
1.527072548866272,4.405436038970947,-0.11689722537994385
1.2746267318725586,3.596011161804199,-0.09479741752147675
1.2964844703674316,3.579906940460205,-0.09371031075716019
1.3464176654815674,3.640665054321289,-0.09460388123989105
1.6254031658172607,4.303501605987549,-0.1109885722398758
1.6482905149459839,4.273895740509033,-0.10938561707735062
1.6822545528411865,4.273263454437256,-0.10853192955255508
1.7007718086242676,4.236515045166016,-0.1066979244351387
1.7395769357681274,4.250311374664307,-0.10614152252674103
1.761650800704956,4.220089435577393,-0.10445602238178253
1.7939962148666382,4.214961051940918,-0.10340223461389542
1.8165647983551025,4.188292980194092,-0.10179372131824493
1.8445689678192139,4.1760663986206055,-0.10050889104604721
1.8629727363586426,4.142240524291992,-0.09871050715446472
1.888958215713501,4.121896743774414,-0.0971934124827385
1.9174541234970093,4.1087493896484375,-0.0958646759390831
1.944798469543457,4.095909118652344,-0.09449415653944016
1.9686594009399414,4.07585334777832,-0.09296322613954544
1.9932705163955688,4.055204391479492,-0.09138994663953781
2.0184428691864014,4.034034729003906,-0.08978339284658432
2.048844337463379,4.027477264404297,-0.08847721666097641
2.0683677196502686,3.999938488006592,-0.08670852333307266
2.0993916988372803,3.992602586746216,-0.08534525334835052
2.119744062423706,3.964160442352295,-0.08352015912532806
2.144197940826416,3.94657564163208,-0.0818973183631897
2.1706478595733643,3.932122230529785,-0.08031561970710754
2.1823229789733887,3.889899969100952,-0.07814972847700119
2.220867395401001,3.895054340362549,-0.0769256204366684
2.2424256801605225,3.873692750930786,-0.07512949407100677
2.2480382919311523,3.825235605239868,-0.07282168418169022
2.287003517150879,3.8294224739074707,-0.07142148166894913
2.3088085651397705,3.8072152137756348,-0.06953863799571991
2.329395055770874,3.785517930984497,-0.06765545159578323
2.3631184101104736,3.7830240726470947,-0.06606034934520721
2.385183334350586,3.7599363327026367,-0.06405577063560486
2.4098620414733887,3.74419903755188,-0.062122102826833725
2.438692569732666,3.7348501682281494,-0.06029221788048744
2.4602785110473633,3.711329936981201,-0.058139875531196594
2.4843380451202393,3.6952998638153076,-0.05609733611345291
2.5082650184631348,3.6791317462921143,-0.054024118930101395
2.5252926349639893,3.648512125015259,-0.05158618092536926
2.5440845489501953,3.625925302505493,-0.04928838834166527
2.5723180770874023,3.6155734062194824,-0.047081828117370605
2.587815284729004,3.5852770805358887,-0.04448876529932022
2.6239817142486572,3.587998867034912,-0.04228221997618675
2.2062110900878906,2.9740004539489746,-0.0330006442964077
2.574631452560425,3.604125499725342,0.06068795919418335
2.5426251888275146,3.61718487739563,0.06332629919052124
2.507033348083496,3.6229143142700195,0.06569691747426987
2.4855263233184814,3.6471147537231445,0.06827492266893387
2.45749831199646,3.6660120487213135,0.07074911147356033
2.431373119354248,3.6833462715148926,0.07304390519857407
2.4212486743927,3.727277994155884,0.07586468756198883
2.3928890228271484,3.7455015182495117,0.07812866568565369
2.3746883869171143,3.77549147605896,0.08051775395870209
2.3661856651306152,3.8221843242645264,0.08324937522411346
2.3617801666259766,3.879835605621338,0.08622897416353226
2.367464780807495,3.9539124965667725,0.08957449346780777
2.3636763095855713,4.010629177093506,0.09249148517847061
2.341620922088623,4.041564464569092,0.09479561448097229
2.311621904373169,4.058750152587891,0.09677647799253464
2.2795145511627197,4.067873477935791,0.09847185015678406
2.2537782192230225,4.091062545776367,0.10051733255386353
2.22904372215271,4.1178741455078125,0.10259851813316345
2.2065024375915527,4.147654056549072,0.1047380194067955
2.177536964416504,4.1628899574279785,0.10646801441907883
2.151254892349243,4.185272216796875,0.10835758596658707
2.1198689937591553,4.201211452484131,0.11008184403181076
2.093038320541382,4.223318099975586,0.11192567646503448
2.070383071899414,4.2518086433410645,0.11391060799360275
2.0367178916931152,4.25933837890625,0.11531416326761246
2.0088274478912354,4.281149387359619,0.11707489937543869
1.977758526802063,4.295547962188721,0.11862999200820923
1.9569642543792725,4.330743312835693,0.1207440048456192
1.9266345500946045,4.344279766082764,0.12223496288061142
1.8981536626815796,4.365275859832764,0.12387058883905411
1.8832134008407593,4.418432235717773,0.12643766403198242
1.8551263809204102,4.438723564147949,0.12804670631885529
1.841398000717163,4.4950737953186035,0.13072240352630615
1.8253002166748047,4.547911643981934,0.1332487165927887
1.8008888959884644,4.582775592803955,0.13523787260055542
1.759475588798523,4.573700904846191,0.13593073189258575
1.735912561416626,4.607702255249023,0.13787804543972015
1.3345245122909546,3.6196584701538086,0.109063059091568
1.3058624267578125,3.6217682361602783,0.10978894680738449
1.2784801721572876,3.6273558139801025,0.11061866581439972
1.6125353574752808,4.681085109710693,0.1435987949371338
1.5799205303192139,4.69215726852417,0.14477087557315826
1.5685062408447266,4.769989490509033,0.14803126454353333
1.5497264862060547,4.829425811767578,0.15064571797847748
1.5197194814682007,4.855284690856934,0.1522296816110611
1.489812970161438,4.880841255187988,0.15380793809890747
1.4424546957015991,4.846146583557129,0.15347573161125183
1.433658480644226,4.942296028137207,0.15729929506778717
1.3902629613876343,4.926253795623779,0.15746073424816132
1.342638373374939,4.89084529876709,0.15698976814746857
1.2847820520401,4.813445568084717,0.15515592694282532
1.253258228302002,4.829786777496338,0.15632803738117218
1.2272502183914185,4.868648529052734,0.15824256837368011
1.1958481073379517,4.892507076263428,0.15958769619464874
1.1655024290084839,4.919862270355225,0.16103193163871765
1.1323012113571167,4.935594081878662,0.16210541129112244
1.1013237237930298,4.95857048034668,0.1634162962436676
1.0683947801589966,4.973730087280273,0.1644807755947113
1.034332036972046,4.988874435424805,0.16549578309059143
1.0035408735275269,5.019027233123779,0.16695623099803925
0.9634663462638855,5.002996921539307,0.16688936948776245
1.490519404411316,8.04221248626709,0.26902103424072266
0.38277751207351685,2.148573637008667,0.07207438349723816
1.3622804880142212,7.973772048950195,0.26822537183761597
1.29642915725708,7.925378799438477,0.2671596109867096
1.2344220876693726,7.895731449127197,0.2667313814163208
1.1777340173721313,7.896461486816406,0.2673368752002716
0.3217211961746216,2.265037775039673,0.07685185968875885
1.4219893217086792,10.546967506408691,0.35866788029670715
1.3312703371047974,10.424967765808105,0.3551461398601532
1.2325940132141113,10.224754333496094,0.3488614857196808
1.153182029724121,10.167194366455078,0.34744617342948914
1.0710070133209229,10.070154190063477,0.34468549489974976
1.0009557008743286,10.07733154296875,0.3455005884170532
0.39489156007766724,4.284010887145996,0.14712290465831757
0.36353346705436707,4.271105766296387,0.14682070910930634
0.33116039633750916,4.242403507232666,0.145981103181839
0.30418524146080017,4.2835540771484375,0.14755262434482574
0.27490973472595215,4.29334831237793,0.14805161952972412
0.24473883211612701,4.299076080322266,0.14842113852500916
0.21518941223621368,4.308467388153076,0.1488739401102066
0.18121346831321716,4.220155239105225,0.1458931565284729
0.15020687878131866,4.1783976554870605,0.14452652633190155
0.12322472780942917,4.253482341766357,0.14720897376537323
0.09229545295238495,4.215213298797607,0.1459774672985077
0.06381037086248398,4.270397186279297,0.14798834919929504
0.034386612474918365,4.301967144012451,0.14910092949867249
0.004461782053112984,4.321621894836426,0.14977890253067017
-0.0258044246584177,4.352778434753418,0.15086278319358826
-0.053278811275959015,4.098755359649658,0.1420695036649704
-0.0805606096982956,4.035834789276123,0.13990601897239685
-0.11091679334640503,4.12103271484375,0.1428769826889038
-0.139222651720047,4.112364768981934,0.14249148964881897
-0.23998083174228668,5.882208824157715,0.2037038952112198
-0.2826205790042877,5.919403553009033,0.2048892378807068
-0.1949772834777832,3.5550334453582764,0.12299398332834244
-0.21876300871372223,3.5380070209503174,0.12235511839389801
-0.24227024614810944,3.520827293395996,0.12168058753013611
-0.5833578109741211,7.699922561645508,0.26581454277038574
-0.5082364082336426,6.1433424949646,0.21185176074504852
-0.5790828466415405,6.446797847747803,0.22208476066589355
-0.34879255294799805,3.602123737335205,0.12396729737520218
-0.3713794946670532,3.5763232707977295,0.12296431511640549
-0.3878735303878784,3.4999608993530273,0.12016477435827255
-0.3977873921394348,3.3770265579223633,0.11575473099946976
-0.4214411675930023,3.3741660118103027,0.11546935886144638
-0.44327905774116516,3.359562873840332,0.1147904098033905
-0.8564130067825317,6.159857273101807,0.21015121042728424
-0.8912513256072998,6.099699974060059,0.20777851343154907
-0.4934672713279724,3.222313642501831,0.10952040553092957
-0.5209196209907532,3.2496371269226074,0.11020411550998688
-0.5406655073165894,3.2305898666381836,0.10932337492704391
-0.5604220628738403,3.2113821506500244,0.1084420382976532
-0.5771157145500183,3.176697254180908,0.10704687982797623
-0.593925952911377,3.145803451538086,0.1057451143860817
-0.6138878464698792,3.1340274810791016,0.10505328327417374
-0.6248056888580322,3.076129198074341,0.10282052308320999
-0.6460253596305847,3.0717573165893555,0.10238929092884064
-0.6723694205284119,3.09009051322937,0.1027153730392456
-0.6989883780479431,3.108207941055298,0.1030329167842865
-0.7130960822105408,3.072963237762451,0.10151319205760956
-0.7362409830093384,3.075547218322754,0.10124383121728897
-0.687153697013855,2.7861523628234863,0.09140392392873764
-0.7045412063598633,2.773765802383423,0.09068469703197479
-0.7188277244567871,2.7499403953552246,0.08959880471229553
-0.7315239310264587,2.7223572731018066,0.08835440129041672
-0.7596482038497925,2.7511327266693115,0.08890876173973083
-0.786785900592804,2.775991916656494,0.08933894336223602
-0.845239520072937,2.9054622650146484,0.09310957044363022
-0.9301980137825012,3.116527795791626,0.09944949299097061
-0.9539316892623901,3.1175334453582764,0.09903670847415924
-0.9824066758155823,3.1332602500915527,0.09904003888368607
-1.014333963394165,3.1600193977355957,0.09939686954021454
-1.040911316871643,3.1678307056427,0.09914719313383102
-1.0728750228881836,3.1901445388793945,0.0993434339761734
-1.1062884330749512,3.2159204483032227,0.09962527453899384
-1.138288140296936,3.2378885746002197,0.09971831738948822
-1.1630750894546509,3.2373924255371094,0.09910771995782852
-1.1986992359161377,3.2660229206085205,0.0993846207857132
-1.5024179220199585,4.007138252258301,0.1211920827627182
-1.5244615077972412,3.982116222381592,0.11967837810516357
-1.5540034770965576,3.9790995121002197,0.11876828968524933
-1.5840331315994263,3.9756829738616943,0.11783458292484283
-2.2713284492492676,5.58901834487915,0.16447985172271729
-2.3295278549194336,5.62005090713501,0.16420014202594757
-2.351167917251587,5.564480781555176,0.16135020554065704
-1.6302335262298584,3.787623882293701,0.10894595086574554
-1.6433354616165161,3.7479071617126465,0.10691636800765991
-1.650132179260254,3.6936898231506348,0.10447660088539124
-1.670931100845337,3.671494722366333,0.10295648872852325
-1.666033148765564,3.596433639526367,0.09992480278015137
-1.6549391746520996,3.5111353397369385,0.09663200378417969
-1.682389497756958,3.5067646503448486,0.09555796533823013
-1.6998945474624634,3.4809722900390625,0.09389408677816391
-1.7202566862106323,3.462270498275757,0.09241227060556412
-1.7536686658859253,3.471773386001587,0.09164227545261383
-1.8015505075454712,3.508777379989624,0.09158165007829666
-1.8259124755859375,3.4961986541748047,0.09016234427690506
-2.4478518962860107,4.607558727264404,0.11734846234321594
-2.4836807250976562,4.601711750030518,0.115679070353508
-1.1715288162231445,2.136847496032715,0.05300791561603546
-1.1710219383239746,2.1014528274536133,0.05139678344130516
-2.5231425762176514,4.455089092254639,0.10738757997751236
-2.5448505878448486,4.42476224899292,0.10499516874551773
-2.5696728229522705,4.401398658752441,0.1028105765581131
-2.5802862644195557,4.349886894226074,0.0998784676194191
-1.2455476522445679,2.0673978328704834,0.04663484916090965
-2.03305721282959,3.3255183696746826,0.07362713664770126
-2.0554375648498535,3.3117706775665283,0.071879543364048
-2.0909066200256348,3.3172643184661865,0.07049930095672607
-2.636590003967285,4.122800350189209,0.08570931851863861
-2.6629745960235596,4.105854511260986,0.08342919498682022
-2.192929267883301,3.330629587173462,0.0659838542342186
-2.751589298248291,4.117753982543945,0.07939599454402924
-2.7667582035064697,4.0840582847595215,0.0765821561217308
-2.7855913639068604,4.052340984344482,0.07367544621229172
-2.7947161197662354,4.008068561553955,0.07049807161092758
-2.560570001602173,3.623685836791992,0.06155455484986305
-2.6427226066589355,3.6851117610931396,0.06010431423783302
-2.7146966457366943,3.7343590259552,0.058354586362838745
-2.7570536136627197,3.742126703262329,0.05580634996294975
-2.9319956302642822,4.1024675369262695,-0.06853438913822174
-2.4549076557159424,3.4878742694854736,-0.060966525226831436
-2.7904157638549805,4.030030250549316,-0.07351883500814438
-2.7711470127105713,4.062173366546631,-0.07688045501708984
-2.727628707885742,4.063266277313232,-0.07964926213026047
-2.1744730472564697,3.291309356689453,-0.06665276736021042
-2.1509673595428467,3.3066701889038086,-0.06901568919420242
-2.6458592414855957,4.13535737991333,-0.08879394084215164
-2.615778684616089,4.154388904571533,-0.09158243983983994
-2.629906177520752,4.2422099113464355,-0.09583625942468643
-1.272638201713562,2.0874900817871094,-0.048277921974658966
-1.992125153541565,3.3227827548980713,-0.078602634370327
-1.9967745542526245,3.3835866451263428,-0.08170654624700546
-2.5620172023773193,4.4147539138793945,-0.10873972624540329
-2.569922924041748,4.504759311676025,-0.11311039328575134
-1.2004109621047974,2.1386559009552,-0.0546581968665123
-2.5302529335021973,4.5851054191589355,-0.1192440539598465
-2.457319498062134,4.531461238861084,-0.11980278044939041
-2.4209258556365967,4.542097091674805,-0.12199141830205917
-1.812735915184021,3.4588849544525146,-0.09429846704006195
-1.7770565748214722,3.450969934463501,-0.09544377028942108
-1.7371633052825928,3.4362051486968994,-0.09639259427785873
-1.7109861373901367,3.444908380508423,-0.09792692959308624
-1.6869657039642334,3.45668888092041,-0.09952704608440399
-1.67044198513031,3.4863216876983643,-0.10161173343658447
-1.7280932664871216,3.675030469894409,-0.10839315503835678
-1.7086113691329956,3.70129132270813,-0.11041796207427979
-1.6855666637420654,3.720369577407837,-0.11224378645420074
-1.6684011220932007,3.7537052631378174,-0.11444245278835297
-1.6411986351013184,3.7656314373016357,-0.11597878485918045
-2.1146748065948486,4.947639465332031,-0.15389563143253326
-2.1119120121002197,5.0377888679504395,-0.15820498764514923
-1.5889912843704224,3.86814284324646,-0.1226169541478157
-1.5523467063903809,3.857706308364868,-0.12336951494216919
-1.5389610528945923,3.9050183296203613,-0.12597458064556122
-1.5173734426498413,3.930157423019409,-0.12785255908966064
-1.4968172311782837,3.958864450454712,-0.12985824048519135
-1.4732685089111328,3.9842984676361084,-0.13169880211353302
-1.4472577571868896,4.00208044052124,-0.1332821398973465
-1.4243203401565552,4.026826858520508,-0.13508717715740204
-1.3988478183746338,4.0439653396606445,-0.136638805270195
-1.3752796649932861,4.06848669052124,-0.13840709626674652
-1.3432244062423706,4.070918083190918,-0.13940158486366272
-1.3189282417297363,4.095221996307373,-0.1411372423171997
-0.9847952723503113,3.132192611694336,-0.10862303525209427
-0.9560965895652771,3.116546154022217,-0.1087556928396225
-0.9205558896064758,3.07833194732666,-0.10802896320819855
-0.8025290369987488,2.754936695098877,-0.09721304476261139
-0.7688156366348267,2.711793899536133,-0.09622444212436676
-0.7540580630302429,2.732112407684326,-0.09746812283992767
-0.7350241541862488,2.737269163131714,-0.09817714989185333
-0.7115995287895203,2.7272937297821045,-0.09827375411987305
-0.7046521306037903,2.7814574241638184,-0.10069221258163452
-1.2706308364868164,5.170980453491211,-0.18807749450206757
-1.2554576396942139,5.266989231109619,-0.19244670867919922
-1.2239618301391602,5.298396110534668,-0.19446799159049988
-1.198325514793396,5.360229969024658,-0.1974799484014511
-1.1661489009857178,5.395243167877197,-0.1995239108800888
-1.1323081254959106,5.42633581161499,-0.2014485001564026
-1.1045846939086914,5.483784198760986,-0.20434965193271637
-1.0849456787109375,5.58711051940918,-0.20897722244262695
-1.1558974981307983,6.185521602630615,-0.23207081854343414
-1.0894817113876343,6.0666913986206055,-0.22831836342811584
-0.9951171278953552,5.778066158294678,-0.2181461602449417
-0.9402952790260315,5.696227550506592,-0.2157277762889862
-0.9463379979133606,5.9917707443237305,-0.2276356816291809
-0.6999558806419373,4.643430709838867,-0.176825150847435
-0.6672875881195068,4.648215293884277,-0.17743037641048431
-0.658370852470398,4.830745697021484,-0.18485216796398163
-0.6047291159629822,4.680336952209473,-0.1795341521501541
-0.5702502727508545,4.668910026550293,-0.17954015731811523
-0.5392895340919495,4.688286304473877,-0.18061897158622742
-0.5030153393745422,4.660891532897949,-0.1798819601535797
-0.46950188279151917,4.656522750854492,-0.18003982305526733
-0.5465041995048523,5.833381652832031,-0.2259647101163864
-0.5052948594093323,5.829237937927246,-0.22622953355312347
-0.45626577734947205,5.727545261383057,-0.22259189188480377
-0.2538909316062927,3.495967388153076,-0.1360192596912384
-0.22996577620506287,3.505437135696411,-0.13654851913452148
-0.20647718012332916,3.5303502082824707,-0.1376899629831314
-0.2959904372692108,5.745820045471191,-0.22438082098960876
-0.2542557120323181,5.708735466003418,-0.22314710915088654
-0.21321474015712738,5.679161071777344,-0.22209392488002777
-0.1730090081691742,5.660995960235596,-0.22149662673473358
-0.13193348050117493,5.623052597045898,-0.22013719379901886
-0.0923570841550827,5.592605113983154,-0.21907775104045868
-0.053192880004644394,5.565784931182861,-0.21814890205860138
-0.011432708241045475,4.402855396270752,-0.17254960536956787
0.01888837292790413,4.328667640686035,-0.16963201761245728
0.047390736639499664,4.141081809997559,-0.16227908432483673
0.09986600279808044,5.428508758544922,-0.21273833513259888
0.13759663701057434,5.427684307098389,-0.21272434294223785
0.17412231862545013,5.391494274139404,-0.2111791968345642
0.16208162903785706,4.130379676818848,-0.16166964173316956
0.2467409372329712,5.3417863845825195,-0.20894987881183624
0.28286486864089966,5.308732986450195,-0.20752915740013123
0.25944045186042786,4.305317401885986,-0.16820983588695526
0.2853367030620575,4.24500846862793,-0.1656922996044159
0.31298744678497314,4.2195868492126465,-0.16448524594306946
0.3415626883506775,4.209549427032471,-0.16388730704784393
0.3767673075199127,4.269255638122559,-0.16600602865219116
0.48934900760650635,5.136951923370361,-0.19951128959655762
0.5157921314239502,5.044142723083496,-0.1956401914358139
0.49761080741882324,4.555448055267334,-0.17634932696819305
0.5326445698738098,4.582941055297852,-0.17708304524421692
0.5730115175247192,4.644956111907959,-0.17914582788944244
0.6159114241600037,4.722158432006836,-0.18179665505886078
0.6885649561882019,5.007814884185791,-0.19244879484176636
0.7208060622215271,4.9875264167785645,-0.19118300080299377
0.7521708607673645,4.963179111480713,-0.18977464735507965
0.7857822179794312,4.9500908851623535,-0.1887986958026886
0.8176582455635071,4.929123878479004,-0.18753793835639954
0.8479052782058716,4.900269031524658,-0.18599024415016174
0.8802368640899658,4.886662483215332,-0.18489773571491241
0.9123188257217407,4.872863292694092,-0.18378739058971405
0.9390828013420105,4.832022190093994,-0.18167005479335785
0.9686241149902344,4.802328109741211,-0.17997050285339355
1.0003917217254639,4.787866115570068,-0.17886453866958618
1.0282944440841675,4.758025169372559,-0.17709021270275116
1.0582917928695679,4.739480018615723,-0.17570878565311432
1.0872066020965576,4.71694278717041,-0.17419150471687317
1.1187382936477661,4.70157527923584,-0.17292813956737518
1.1439933776855469,4.663379669189453,-0.17085032165050507
1.1778961420059204,4.663023471832275,-0.17008204758167267
1.203834056854248,4.632237434387207,-0.1681690812110901
1.2333976030349731,4.616411209106445,-0.1668131947517395
1.261918544769287,4.592545032501221,-0.16514931619167328
1.2906352281570435,4.572429180145264,-0.16364753246307373
1.3176183700561523,4.5485124588012695,-0.1619383692741394
1.3463530540466309,4.531988143920898,-0.1604677140712738
1.3726494312286377,4.507814407348633,-0.15873795747756958
1.3975580930709839,4.475663661956787,-0.15670795738697052
1.433377981185913,4.480762481689453,-0.15600848197937012
1.4541569948196411,4.441254615783691,-0.1536691039800644
1.483005404472351,4.427633285522461,-0.1522185057401657
1.5055910348892212,4.395296096801758,-0.15013130009174347
1.5387399196624756,4.3921217918396,-0.14903071522712708
1.2866350412368774,3.590944528579712,-0.12101704627275467
1.3109050989151,3.582195520401001,-0.11982740461826324
1.6070585250854492,4.301105976104736,-0.14280244708061218
1.6323968172073364,4.279067039489746,-0.14098793268203735
1.6663150787353516,4.278594017028809,-0.13987940549850464
1.6990070343017578,4.274171829223633,-0.1385820358991623
1.721856713294983,4.248221397399902,-0.1365564465522766
1.7489068508148193,4.232982635498047,-0.13488641381263733
1.7782894372940063,4.220774173736572,-0.13328100740909576
1.801455020904541,4.193996429443359,-0.13122479617595673
1.8270150423049927,4.174454689025879,-0.12931035459041595
1.8549771308898926,4.162156105041504,-0.12764351069927216
1.8834116458892822,4.149418830871582,-0.1259433776140213
1.9089425802230835,4.129185199737549,-0.12400263547897339
1.9303098917007446,4.102036952972412,-0.12182384729385376
1.95473051071167,4.081851959228516,-0.1198069155216217
1.9822704792022705,4.068601608276367,-0.11800742149353027
2.0105016231536865,4.054779052734375,-0.11615660786628723
2.0346386432647705,4.034029006958008,-0.11409178376197815
2.0542709827423096,4.006574630737305,-0.11181024461984634
2.0774548053741455,3.9858503341674805,-0.1097169816493988
2.1092567443847656,3.9780101776123047,-0.1078985407948494
2.1363329887390137,3.9635887145996094,-0.1059064269065857
2.1530747413635254,3.932326316833496,-0.10343445837497711
2.1452207565307617,3.8564252853393555,-0.09980042278766632
2.154700517654419,3.8108644485473633,-0.09693415462970734
2.1846923828125,3.8028147220611572,-0.09498187154531479
2.2135391235351562,3.7951931953430176,-0.09305192530155182
2.243257761001587,3.786837100982666,-0.09104017913341522
2.261481523513794,3.757814884185791,-0.08849688619375229
2.290107488632202,3.749645709991455,-0.08641122281551361
2.30684494972229,3.7210564613342285,-0.08381668478250504
2.336780309677124,3.7116169929504395,-0.0815824642777443
2.3698794841766357,3.7091755867004395,-0.07947532832622528
2.3895137310028076,3.6873040199279785,-0.07693282514810562
2.414738178253174,3.670886993408203,-0.07438086718320847
2.455090045928955,3.6769959926605225,-0.07219405472278595
2.4632833003997803,3.6385927200317383,-0.06916604191064835
2.492434501647949,3.628218650817871,-0.06654081493616104
2.52777099609375,3.6275689601898193,-0.06401776522397995
2.5416712760925293,3.5987813472747803,-0.060980334877967834
2.5646345615386963,3.57770037651062,-0.05780675262212753
2.6035916805267334,3.5833516120910645,-0.055080998688936234
2.626892328262329,3.5663537979125977,-0.051863014698028564
2.5564768314361572,3.607106924057007,0.07863258570432663
2.519627332687378,3.6138381958007812,0.08179082721471786
2.5165045261383057,3.663423538208008,0.0856449082493782
2.5014102458953857,3.7019858360290527,0.08929556608200073
2.523691415786743,3.7951138019561768,0.09417977184057236
2.5336103439331055,3.8680412769317627,0.09849801659584045
2.5169551372528076,3.906726598739624,0.10195516794919968
2.484008550643921,3.9184372425079346,0.10464604943990707
2.4602549076080322,3.9425296783447266,0.10759387910366058
2.4389419555664062,3.9740147590637207,0.11066728830337524
2.4052202701568604,3.9853198528289795,0.11316023021936417
2.381354570388794,4.008641242980957,0.11586063355207443
2.344456434249878,4.012178897857666,0.11796639859676361
2.321643590927124,4.043368816375732,0.1209031194448471
2.2965500354766846,4.0665740966796875,0.12349402904510498
2.2681756019592285,4.082396507263184,0.12582308053970337
2.2437055110931396,4.109177589416504,0.12843315303325653
2.2169032096862793,4.132491588592529,0.1309403032064438
2.1982667446136475,4.168868541717529,0.1338161826133728
2.1619911193847656,4.17014217376709,0.13552993535995483
2.141869306564331,4.206749439239502,0.13832075893878937
2.110879898071289,4.222315311431885,0.14043346047401428
2.0846590995788574,4.243957042694092,0.1426842212677002
2.057922601699829,4.265588760375977,0.14496290683746338
2.0234596729278564,4.273339748382568,0.14667703211307526
1.995439887046814,4.295039653778076,0.1488707810640335
1.9617350101470947,4.301892280578613,0.15051157772541046
2.005136251449585,4.479290962219238,0.15815235674381256
1.9464349746704102,4.432650089263916,0.15785954892635345
1.9428932666778564,4.515007495880127,0.16214574873447418
1.8845082521438599,4.46767520904541,0.16175004839897156
1.8637959957122803,4.505880832672119,0.16440460085868835
1.847037434577942,4.554868221282959,0.16747252643108368
1.8356106281280518,4.622489929199219,0.17115022242069244
1.8015352487564087,4.635813236236572,0.1728600114583969
1.7769858837127686,4.670287132263184,0.17532698810100555
1.730788230895996,4.645906925201416,0.17556986212730408
1.3183194398880005,3.6163034439086914,0.1375364065170288
1.2909297943115234,3.6219825744628906,0.1385674625635147
1.2617360353469849,3.623943567276001,0.1394769251346588
1.5972152948379517,4.693271636962891,0.18166987597942352
1.5817698240280151,4.7560715675354,0.18514657020568848
1.548231840133667,4.767039775848389,0.186564102768898
1.5092368125915527,4.763099670410156,0.18731237947940826
1.4744290113449097,4.773935794830322,0.1886635273694992
1.4499273300170898,4.814005374908447,0.19114860892295837
1.432895541191101,4.880104064941406,0.1946856677532196
1.3985707759857178,4.890000820159912,0.1959599256515503
1.3698910474777222,4.922379016876221,0.198061004281044
1.3051326274871826,4.822723865509033,0.19484522938728333
1.2685825824737549,4.824347496032715,0.19571411609649658
1.2388103008270264,4.848148345947266,0.19747179746627808
1.2106101512908936,4.879353046417236,0.19953039288520813
1.180376648902893,4.906788349151611,0.20132248103618622
1.1472021341323853,4.922624588012695,0.20265160501003265
1.1169226169586182,4.953549861907959,0.20462381839752197
1.0890989303588867,4.991663932800293,0.20688754320144653
1.0527440309524536,4.991438388824463,0.20757538080215454
1.0175573825836182,4.998692989349365,0.2084633708000183
0.9873724579811096,5.0325517654418945,0.21043643355369568
1.4902805089950562,7.89675760269165,0.33111366629600525
1.4365971088409424,7.914577960968018,0.332756906747818
0.36797046661376953,2.1108510494232178,0.08899032324552536
0.3827989399433136,2.290433645248413,0.09680651873350143
1.2686429023742676,7.935171604156494,0.33606648445129395
1.65402090549469,10.845416069030762,0.46028968691825867
1.5603770017623901,10.736979484558105,0.4566463828086853
1.4654293060302734,10.600592613220215,0.45180195569992065
1.3799633979797363,10.521471977233887,0.4493999183177948
1.2801741361618042,10.321701049804688,0.44158995151519775
1.2012724876403809,10.276128768920898,0.4402906596660614
1.1017667055130005,10.047770500183105,0.4311748147010803
1.0292456150054932,10.031875610351562,0.4311636984348297
0.956084132194519,10.00378704071045,0.4306434392929077
0.37732359766960144,4.260632038116455,0.18369755148887634
0.34553366899490356,4.239822864532471,0.18296311795711517
0.31528544425964355,4.2421674728393555,0.1832389235496521
0.2881908714771271,4.283197402954102,0.18519331514835358
0.26239678263664246,4.351310729980469,0.18833091855049133
0.23130498826503754,4.337429523468018,0.18793107569217682
0.19874058663845062,4.288247108459473,0.185943603515625
0.16873887181282043,4.301243782043457,0.18657048046588898
0.13786567747592926,4.2750067710876465,0.185503289103508
0.10726796090602875,4.244648456573486,0.18426521122455597
0.07799959927797318,4.260895252227783,0.18505887687206268
0.04966049641370773,4.374495983123779,0.19009259343147278
0.0187799334526062,4.402055263519287,0.19129544496536255
-0.011845615692436695,4.402080535888672,0.19126519560813904
-0.0407809279859066,4.222383499145508,0.1834362894296646
-0.06726163625717163,4.050310134887695,0.17594897747039795
-0.09502987563610077,4.034140110015869,0.17524324357509613
-0.12852704524993896,4.212818622589111,0.18301044404506683
-0.15445952117443085,4.110417366027832,0.1784454882144928
-0.179817333817482,4.039078235626221,0.17523793876171112
-0.18172860145568848,3.5310754776000977,0.1531086266040802
-0.2076316773891449,3.5531091690063477,0.1539812535047531
-0.2302834391593933,3.520432233810425,0.15249043703079224
-0.2528732717037201,3.4875869750976562,0.15097272396087646
-0.6061403155326843,7.629009246826172,0.3298604190349579
-0.3282289505004883,3.79872465133667,0.1640620082616806
-0.3439328670501709,3.683692216873169,0.1589210480451584
-0.363734632730484,3.622972249984741,0.15613728761672974
-0.38852137327194214,3.6125590801239014,0.15552978217601776
-0.41085493564605713,3.586533308029175,0.1542026698589325
-0.7680667638778687,6.318808555603027,0.27122804522514343
-0.8056267499923706,6.266943454742432,0.26856955885887146
-0.8400698900222778,6.195500373840332,0.2650907635688782
-0.8799834847450256,6.162391185760498,0.2632625699043274
-0.9192660450935364,6.133004188537598,0.26161694526672363
-0.5166541934013367,3.2927048206329346,0.14015574753284454
-0.5417405962944031,3.304511070251465,0.14034369587898254
-0.5604033470153809,3.277662515640259,0.13889768719673157
-0.5756484270095825,3.231440782546997,0.13663867115974426
-0.5899989604949951,3.1812498569488525,0.13422095775604248
-0.6120405793190002,3.177103281021118,0.1337365359067917
-0.6284567713737488,3.1460649967193604,0.13205355405807495
-0.6468189358711243,3.1264235973358154,0.13086068630218506
-0.6584947109222412,3.076127052307129,0.12839649617671967
-0.6742774844169617,3.044752359390259,0.12672743201255798
-0.6936286091804504,3.0324177742004395,0.1258673369884491
-0.7089122533798218,3.004850149154663,0.12431282550096512
-0.692419171333313,2.8482871055603027,0.11742551624774933
-0.69278883934021,2.767817497253418,0.11371339112520218
-0.7103148698806763,2.755335807800293,0.11279725283384323
-0.7284694910049438,2.7465779781341553,0.1120455414056778
-0.7474222779273987,2.741506576538086,0.11142536997795105
-0.7691806554794312,2.747671127319336,0.1112096905708313
-0.8050421476364136,2.802443504333496,0.11295513808727264
-0.9129018187522888,3.096303701400757,0.12426707148551941
-0.9502351880073547,3.1422181129455566,0.12557557225227356
-0.9778110384941101,3.1542177200317383,0.12552209198474884
-1.003799319267273,3.1624643802642822,0.1252211481332779
-1.074595332145691,3.3078579902648926,0.1303223818540573
-1.0875966548919678,3.2707505226135254,0.12819990515708923
-1.1342309713363647,3.3333520889282227,0.12997937202453613
-1.165077805519104,3.3475441932678223,0.12985961139202118
-1.1602526903152466,3.2623801231384277,0.1258285492658615
-1.483435869216919,4.083749771118164,0.15658530592918396
-1.5056040287017822,4.059028625488281,0.1547190099954605
-1.53148353099823,4.041038513183594,0.1530810445547104
-1.5567009449005127,4.023070812225342,0.15147103369235992
-1.5765330791473389,3.9944169521331787,0.14937281608581543
-1.6032229661941528,3.983832836151123,0.14794334769248962
-2.3028457164764404,5.612732410430908,0.20696669816970825
-2.3516571521759033,5.6179375648498535,0.2056158483028412
-1.6183675527572632,3.7917721271514893,0.137752503156662
-1.6405682563781738,3.773761510848999,0.13598868250846863
