X,Y,Z
2.7739083766937256,5.167914867401123,0.45339882373809814
2.772897481918335,5.260468006134033,0.46677082777023315
2.7735707759857178,5.35180139541626,0.4798184931278229
2.546863317489624,4.999302387237549,0.4528225064277649
2.44362735748291,4.885149955749512,0.44668808579444885
2.415874719619751,4.920096397399902,0.45409321784973145
1.2239633798599243,2.5385663509368896,0.23640257120132446
1.20780348777771,2.5503382682800293,0.23955543339252472
1.1811987161636353,2.5410664081573486,0.24063840508460999
1.1656718254089355,2.5565288066864014,0.24399295449256897
1.1438829898834229,2.5575754642486572,0.24595907330513
1.1400256156921387,2.5973410606384277,0.2516099512577057
2.5445544719696045,5.910688877105713,0.5768108367919922
2.518052816390991,5.967958927154541,0.5862356424331665
2.483245611190796,6.007242202758789,0.5939285755157471
2.4606831073760986,6.07477331161499,0.6044036149978638
2.4310696125030518,6.12382698059082,0.6130382418632507
2.4015278816223145,6.176668643951416,0.6221680641174316
2.3717236518859863,6.233455181121826,0.6312631964683533
2.3426320552825928,6.293746471405029,0.6407877802848816
1.9624639749526978,5.3890557289123535,0.5515600442886353
2.281073808670044,6.4020490646362305,0.6586073040962219
2.249666452407837,6.457935810089111,0.6678292751312256
2.2205491065979004,6.525045871734619,0.6777822375297546
2.189265727996826,6.588399887084961,0.6874013543128967
2.158881902694702,6.655170917510986,0.6974264979362488
2.1076698303222656,6.654785633087158,0.7003931403160095
2.044280529022217,6.617119789123535,0.6994929909706116
1.982527256011963,6.582695484161377,0.6985434889793396
1.928610920906067,6.573974132537842,0.7001566886901855
1.8673887252807617,6.538682460784912,0.6989520192146301
1.8070591688156128,6.498756408691406,0.6971754431724548
1.7545452117919922,6.484550476074219,0.6981583833694458
1.6904622316360474,6.42886209487915,0.6946160793304443
1.6376254558563232,6.414105415344238,0.6950473785400391
1.5804166793823242,6.380071640014648,0.6934026479721069
0.793931782245636,3.3049063682556152,0.36024537682533264
0.7744172215461731,3.325309991836548,0.3635334074497223
1.4188849925994873,6.293514251708984,0.690099835395813
1.3620628118515015,6.246131420135498,0.6866610050201416
1.317641019821167,6.255370140075684,0.6892363429069519
1.2646483182907104,6.222427845001221,0.6871882677078247
1.2023026943206787,6.135593414306641,0.6791671514511108
1.1666553020477295,6.185667037963867,0.6863396167755127
1.101378083229065,6.071101188659668,0.6752265691757202
1.0644128322601318,6.112937927246094,0.6811184883117676
1.0185140371322632,6.104788303375244,0.6813759207725525
0.9672152400016785,6.061798572540283,0.6777680516242981
0.8055129647254944,5.289124011993408,0.5924416184425354
0.7268396019935608,5.006258964538574,0.5617727637290955
0.711093008518219,5.149467468261719,0.5789129734039307
0.6778262257575989,5.177303791046143,0.5827608108520508
0.6460709571838379,5.220343589782715,0.588323175907135
0.6101451516151428,5.23234224319458,0.5904229283332825
0.5730174779891968,5.236398220062256,0.5916615724563599
0.5325689911842346,5.201510429382324,0.5885091423988342
0.49558234214782715,5.197229862213135,0.5888411998748779
0.365581214427948,4.14105749130249,0.46951964497566223
0.33772093057632446,4.15893030166626,0.47189414501190186
0.3094275891780853,4.1805195808410645,0.4747231900691986
0.2780093252658844,4.147645950317383,0.47137922048568726
0.2517606317996979,4.1920247077941895,0.476838082075119
0.4100220203399658,7.724447727203369,0.8794553279876709
0.35791298747062683,7.765828609466553,0.8844245672225952
0.07662248611450195,1.9662686586380005,0.2239932417869568
0.06426198780536652,2.0094120502471924,0.2289808690547943
0.05049449950456619,2.0175554752349854,0.22999270260334015
0.03540360555052757,1.9596363306045532,0.22348251938819885
0.021141424775123596,1.9016084671020508,0.21696479618549347
0.007996679283678532,1.9754509925842285,0.22537048161029816
-0.005669581703841686,1.9444146156311035,0.22179169952869415
-0.018461501225829124,1.870595097541809,0.2133452594280243
-0.03185931220650673,1.8937087059020996,0.2159654200077057
-0.04502582922577858,1.8934454917907715,0.2159298062324524
-0.0574747696518898,1.8698151111602783,0.21323975920677185
-0.06921645253896713,1.8305954933166504,0.20867037773132324
-0.08329025655984879,1.8611115217208862,0.2120170146226883
-0.0954052060842514,1.845005989074707,0.21006132662296295
-0.10820995271205902,1.8443208932876587,0.20987248420715332
-0.12100976705551147,1.8435468673706055,0.2096836268901825
-0.13178600370883942,1.8116979598999023,0.20597043633460999
-0.14740681648254395,1.8494658470153809,0.21008694171905518
-0.15747103095054626,1.8175084590911865,0.20623520016670227
-0.17073796689510345,1.8241454362869263,0.2067752331495285
-0.18142318725585938,1.8036466836929321,0.2042497843503952
-0.1883537769317627,1.748325228691101,0.19779473543167114
-0.19960811734199524,1.7392984628677368,0.1965969055891037
-0.21160893142223358,1.7379246950149536,0.1961948722600937
-0.22353841364383698,1.736483097076416,0.195729598402977
-0.24069732427597046,1.7734261751174927,0.199593186378479
-0.25536274909973145,1.7871170043945312,0.20083361864089966
-0.26432371139526367,1.7623167037963867,0.19776290655136108
-0.2705601453781128,1.7221328020095825,0.19298475980758667
-0.2811669111251831,1.7126249074935913,0.191584512591362
-0.30207210779190063,1.7643048763275146,0.19696111977100372
-0.3100512623786926,1.7393295764923096,0.19378283619880676
-0.32650089263916016,1.7600886821746826,0.19569940865039825
-0.3600282371044159,1.8684288263320923,0.2073381394147873
-0.7292532920837402,3.6481361389160156,0.4040532410144806
-0.7550709843635559,3.647010087966919,0.40299224853515625
-0.7831519842147827,3.6571478843688965,0.40307408571243286
-0.9554124474525452,4.3154296875,0.47439903020858765
-0.9903764724731445,4.33165979385376,0.47497522830963135
-1.0133403539657593,4.2946367263793945,0.46972817182540894
-1.032121181488037,4.24241304397583,0.4628636837005615
-1.0582269430160522,4.224197864532471,0.45948526263237
-1.087377905845642,4.217033386230469,0.457231730222702
-1.1229106187820435,4.236091613769531,0.4578610956668854
-1.1563557386398315,4.243440628051758,0.4571990668773651
-1.1837960481643677,4.22804594039917,0.45409995317459106
-1.2109800577163696,4.2125020027160645,0.45099204778671265
-1.2355784177780151,4.18942928314209,0.44678279757499695
-1.2605230808258057,4.170086860656738,0.4430340528488159
-1.2866499423980713,4.154236793518066,0.4396701753139496
-1.3155237436294556,4.145461559295654,0.437046080827713
-1.3419345617294312,4.129090785980225,0.4336453974246979
-1.36573326587677,4.105192184448242,0.4292856752872467
-1.3958699703216553,4.103558540344238,0.42715689539909363
-1.4209012985229492,4.087028503417969,0.4234994947910309
-1.449167013168335,4.077400207519531,0.4205246865749359
-1.4696645736694336,4.045553684234619,0.4152710735797882
-1.5004628896713257,4.042838096618652,0.41299325227737427
-1.5253437757492065,4.025537490844727,0.40895259380340576
-1.557971715927124,4.030033588409424,0.4071824848651886
-1.5712512731552124,3.9834280014038086,0.4002390205860138
-1.5989079475402832,3.9727413654327393,0.39690911769866943
-1.6102758646011353,3.922264337539673,0.389642596244812
-1.6399039030075073,3.9187583923339844,0.38678836822509766
-1.682800531387329,3.947441577911377,0.3871281147003174
-1.7064768075942993,3.929136276245117,0.3828122913837433
-1.7259573936462402,3.899712562561035,0.3773811459541321
-1.743543267250061,3.86664080619812,0.3716380000114441
-1.7794338464736938,3.8763415813446045,0.36971744894981384
-1.7985754013061523,3.850693464279175,0.36447522044181824
-1.8081107139587402,3.8035500049591064,0.357176274061203
-1.831322193145752,3.7841620445251465,0.35245823860168457
-1.8644025325775146,3.7857203483581543,0.3496495187282562
-1.893424153327942,3.7803971767425537,0.3459716737270355
-1.9220209121704102,3.77506685256958,0.34235161542892456
-1.9338257312774658,3.734389066696167,0.33542177081108093
-1.970733404159546,3.7418711185455322,0.3328182101249695
-1.9883372783660889,3.715291976928711,0.32703426480293274
-2.0163772106170654,3.7094218730926514,0.32302436232566833
-1.7028530836105347,3.0821444988250732,0.2653372585773468
-1.7320817708969116,3.0840518474578857,0.26237204670906067
-0.8340569138526917,1.4618192911148071,0.1228400245308876
-0.8436301350593567,1.4564838409423828,0.12082657963037491
-0.8494430184364319,1.444237470626831,0.11821532249450684
-0.85966956615448,1.4383502006530762,0.1160474345088005
-0.8733950853347778,1.4393551349639893,0.11442916095256805
-0.8908652067184448,1.4471211433410645,0.11328969895839691
-0.8840764760971069,1.4148153066635132,0.1089620441198349
-0.9065072536468506,1.4285094738006592,0.10811744630336761
-0.8949669003486633,1.3897979259490967,0.10324673354625702
-0.8953651785850525,1.3711241483688354,0.09994945675134659
-0.8984851241111755,1.3552507162094116,0.0967240184545517
-2.4010610580444336,3.568866729736328,0.24914853274822235
-2.4194793701171875,3.5474331378936768,0.24198570847511292
-1.2530786991119385,1.7845284938812256,0.11547009646892548
-1.1839377880096436,1.8318219184875488,-0.10392909497022629
-1.222436785697937,1.9227712154388428,-0.11269717663526535
-1.196161150932312,1.911436915397644,-0.1154315322637558
-1.1496856212615967,1.8665961027145386,-0.11592727154493332
-1.8513842821121216,3.10538911819458,-0.20311345160007477
-0.8541326522827148,1.5057858228683472,-0.10546687245368958
-1.6472053527832031,2.9516189098358154,-0.21100673079490662
-1.597524881362915,2.9119160175323486,-0.21230937540531158
-1.5335423946380615,2.8442978858947754,-0.21138370037078857
-1.4785271883010864,2.7893881797790527,-0.2110988348722458
-1.4209197759628296,2.7268688678741455,-0.20997504889965057
-1.376084327697754,2.688289165496826,-0.2104828804731369
-1.3374764919281006,2.6594882011413574,-0.21159595251083374
-1.2791125774383545,2.5881381034851074,-0.20910269021987915
-1.2364864349365234,2.5479676723480225,-0.20898385345935822
-1.2028477191925049,2.5249338150024414,-0.21008934080600739
-1.174976110458374,2.511946678161621,-0.2119111865758896
-1.1297279596328735,2.4596481323242188,-0.2102920413017273
-1.0929183959960938,2.4247663021087646,-0.209989532828331
-1.0611764192581177,2.4002723693847656,-0.21047545969486237
-1.0314449071884155,2.3790018558502197,-0.21118174493312836
-0.9949640035629272,2.339313268661499,-0.21010743081569672
-0.9692903161048889,2.324514150619507,-0.21113321185112
-0.928985595703125,2.2735133171081543,-0.20875190198421478
-0.9027146100997925,2.2544949054718018,-0.20920391380786896
-0.8781141042709351,2.2388696670532227,-0.20994466543197632
-0.8469041585922241,2.2048213481903076,-0.20881104469299316
-0.8173827528953552,2.1741769313812256,-0.20787101984024048
-0.7965332269668579,2.165090322494507,-0.208940327167511
-0.7734794616699219,2.148409128189087,-0.20922164618968964
-0.7413322925567627,2.105945110321045,-0.20694522559642792
-0.7161510586738586,2.0815465450286865,-0.20624345541000366
-0.6988058686256409,2.0790133476257324,-0.2076869159936905
-0.6782140731811523,2.065154552459717,-0.20795179903507233
-0.6495530009269714,2.025190830230713,-0.20554609596729279
-0.6279672980308533,2.007357597351074,-0.20525416731834412
-0.6080243587493896,1.9929805994033813,-0.20524126291275024
-0.5917662382125854,1.9895660877227783,-0.20633567869663239
-0.5756955146789551,1.9859914779663086,-0.20740148425102234
-0.5532897710800171,1.9598764181137085,-0.20603910088539124
-0.5373018980026245,1.9560859203338623,-0.2069065123796463
-0.5141763687133789,1.9259394407272339,-0.20498816668987274
-0.5017140507698059,1.9330675601959229,-0.20698659121990204
-0.4853620231151581,1.9250484704971313,-0.20736968517303467
-0.46624067425727844,1.905623197555542,-0.20638082921504974
-0.4473852813243866,1.8860379457473755,-0.20533105731010437
-0.4304327964782715,1.8738865852355957,-0.20509041845798492
-0.36763301491737366,1.6530003547668457,-0.1818520575761795
-0.3560793995857239,1.6553980112075806,-0.18302810192108154
-0.3396802246570587,1.6349329948425293,-0.18155284225940704
-0.33961358666419983,1.6942775249481201,-0.18896588683128357
-0.32389047741889954,1.677463173866272,-0.1879202127456665
-0.33631256222724915,1.8093458414077759,-0.20358061790466309
-0.32089853286743164,1.7962526082992554,-0.20289835333824158
-0.30694565176963806,1.7907038927078247,-0.20298954844474792
-0.2912144660949707,1.773554801940918,-0.2017640620470047
-0.2828448414802551,1.8023096323013306,-0.20578093826770782
-0.2685582935810089,1.7926117181777954,-0.20541086792945862
-0.25159952044487,1.763620376586914,-0.20267684757709503
-0.24129967391490936,1.7806391716003418,-0.2052072435617447
-0.22488702833652496,1.751401424407959,-0.2024098038673401
-0.21082250773906708,1.7374284267425537,-0.20136848092079163
-0.2002783566713333,1.7542136907577515,-0.203895702958107
-0.1855231672525406,1.732357144355774,-0.20176038146018982
-0.17496024072170258,1.7489901781082153,-0.20411545038223267
-0.16273687779903412,1.7501046657562256,-0.20467309653759003
-0.15120047330856323,1.7588624954223633,-0.20613546669483185
-0.13626636564731598,1.7288898229599,-0.20301400125026703
-0.12417317926883698,1.7297574281692505,-0.2033797651529312
-0.11205999553203583,1.7305413484573364,-0.2037459909915924
-0.10002920031547546,1.7312355041503906,-0.2041095495223999
-0.08761496096849442,1.7240967750549316,-0.2035577893257141
-0.0752444639801979,1.720765233039856,-0.20337529480457306
-0.06240187585353851,1.6979671716690063,-0.20080091059207916
-0.05128065496683121,1.7216044664382935,-0.20372770726680756
-0.03931692615151405,1.7218984365463257,-0.20390358567237854
-0.02742772549390793,1.7259875535964966,-0.20453889667987823
-0.015053840354084969,1.7067372798919678,-0.20229297876358032
-0.0032147138845175505,1.7145603895187378,-0.20320063829421997
0.008707466535270214,1.7145427465438843,-0.20318876206874847
0.020722588524222374,1.7221996784210205,-0.204096257686615
0.03225547447800636,1.6987448930740356,-0.20132644474506378
0.044677626341581345,1.7217658758163452,-0.2039186656475067
0.056074775755405426,1.6981685161590576,-0.20096366107463837
0.06819731742143631,1.7055128812789917,-0.2016841471195221
0.07969691604375839,1.697270393371582,-0.20057111978530884
0.09297986328601837,1.723813533782959,-0.2035769373178482
0.10376054048538208,1.7038108110427856,-0.20090720057487488
0.11816462129354477,1.7379169464111328,-0.2046186625957489
0.12706035375595093,1.6945421695709229,-0.19922345876693726
0.13947945833206177,1.7013957500457764,-0.1997491419315338
0.15441282093524933,1.7352142333984375,-0.20340955257415771
0.16494818031787872,1.7187209129333496,-0.20102715492248535
0.1778779923915863,1.7253005504608154,-0.20134671032428741
0.1907060146331787,1.7318047285079956,-0.20167076587677002
0.2009381651878357,1.7150871753692627,-0.19930173456668854
0.2128356397151947,1.7137255668640137,-0.19866347312927246
0.22771234810352325,1.7353862524032593,-0.2005847990512848
0.23992609977722168,1.7338289022445679,-0.19981378316879272
0.25086748600006104,1.7245235443115234,-0.19816914200782776
0.2564220726490021,1.680616021156311,-0.19257420301437378
0.27356845140457153,1.7133928537368774,-0.1956748068332672
0.2853987514972687,1.7115675210952759,-0.19474969804286957
0.2998906672000885,1.724956750869751,-0.1955578476190567
0.30936065316200256,1.707612156867981,-0.19287274777889252
0.319094717502594,1.6940741539001465,-0.1906515210866928
0.3330446481704712,1.7033772468566895,-0.1908678263425827
0.3540637791156769,1.7468266487121582,-0.19486598670482635
0.3677651584148407,1.7520560026168823,-0.1945803016424179
0.3892660439014435,1.7912756204605103,-0.19803382456302643
0.40173250436782837,1.7886526584625244,-0.19684211909770966
0.4193222224712372,1.8086879253387451,-0.19800561666488647
0.4372069537639618,1.8285672664642334,-0.19913539290428162
0.4424760639667511,1.7954554557800293,-0.19449961185455322
0.4513736367225647,1.7773579359054565,-0.19150567054748535
0.46759840846061707,1.7893785238265991,-0.19170711934566498
0.49703043699264526,1.850076675415039,-0.19700366258621216
0.5097557306289673,1.8467758893966675,-0.19545161724090576
0.5289960503578186,1.8657727241516113,-0.19623738527297974
0.5444051027297974,1.8696026802062988,-0.19539698958396912
0.5683633685112,1.9032422304153442,-0.1975417286157608
0.5814242362976074,1.8994762897491455,-0.1957702487707138
0.6027237772941589,1.9215505123138428,-0.19663967192173004
0.6185160875320435,1.9248814582824707,-0.19556497037410736
0.6442369818687439,1.957599401473999,-0.19737619161605835
0.6576380729675293,1.9533390998840332,-0.19537736475467682
0.6798879504203796,1.9747215509414673,-0.1959301084280014
0.7040145397186279,1.9994734525680542,-0.19675160944461823
0.7311384677886963,2.0313124656677246,-0.19822798669338226
0.7423609495162964,2.019169330596924,-0.19527031481266022
0.7769058346748352,2.0688111782073975,-0.19821394979953766
0.7912477850914001,2.0635926723480225,-0.19586582481861115
0.822636067867279,2.1017332077026367,-0.19759543240070343
0.8428464531898499,2.110713243484497,-0.1964712142944336
0.8733289837837219,2.1448187828063965,-0.19759197533130646
0.9107170104980469,2.1928176879882812,-0.1998508870601654
0.9260619878768921,2.186628818511963,-0.1971253752708435
0.9628221988677979,2.230436086654663,-0.19883129000663757
0.9873819351196289,2.245473623275757,-0.19783413410186768
1.0170445442199707,2.2709078788757324,-0.19769403338432312
1.049338936805725,2.2993123531341553,-0.19765529036521912
1.089888095855713,2.3452203273773193,-0.19905918836593628
1.115691065788269,2.3592073917388916,-0.19759446382522583
1.1502577066421509,2.3904666900634766,-0.1975042074918747
1.1481001377105713,2.3441591262817383,-0.19093310832977295
1.1611621379852295,2.329292058944702,-0.18692024052143097
1.2543150186538696,2.474630355834961,-0.19557781517505646
1.2978549003601074,2.5183122158050537,-0.1959330439567566
1.2991440296173096,2.4784107208251953,-0.18967574834823608
1.3015402555465698,2.442167282104492,-0.18375900387763977
1.3141484260559082,2.426830291748047,-0.17941853404045105
1.3309496641159058,2.417947292327881,-0.17545725405216217
1.3078482151031494,2.337418794631958,-0.16637712717056274
1.3313902616500854,2.3423221111297607,-0.16342729330062866
1.3508542776107788,2.340432643890381,-0.15995760262012482
1.384781002998352,2.3615775108337402,-0.15788081288337708
1.4454041719436646,2.4256958961486816,-0.15842340886592865
1.461424708366394,2.41635799407959,-0.15408645570278168
1.49198579788208,2.4299890995025635,-0.15110976994037628
1.5130735635757446,2.4263994693756104,-0.1468806266784668
1.5730960369110107,2.485724687576294,-0.14631307125091553
1.6340280771255493,2.54433274269104,-0.14537246525287628
1.4897997379302979,2.2847273349761963,-0.1264040768146515
1.3888523578643799,2.099170207977295,-0.11229971796274185
1.4111882448196411,2.1032745838165283,-0.1086341068148613
1.4258440732955933,2.093604564666748,-0.10395342856645584
1.4444403648376465,2.090545415878296,-0.09951136261224747
1.4401243925094604,2.0557260513305664,-0.09361574798822403
1.431827187538147,2.014023780822754,-0.08723127841949463
1.444793939590454,2.0049493312835693,-0.0823250487446785
1.4466525316238403,1.9796861410140991,-0.07655838876962662
1.4646401405334473,1.9763445854187012,-0.07144462317228317
2.860896348953247,4.009954929351807,0.275463342666626
2.8279075622558594,4.0230712890625,0.2848818004131317
2.6178324222564697,3.7838144302368164,0.2757508456707001
2.601962089538574,3.8224165439605713,0.286139577627182
3.1373918056488037,4.678553104400635,0.35867342352867126
2.6534154415130615,4.021284580230713,0.3153521418571472
2.626561403274536,4.0474958419799805,0.32441088557243347
1.6264210939407349,2.5448615550994873,0.20795466005802155
1.6283923387527466,2.589348793029785,0.2155395895242691
1.5880780220031738,2.5681636333465576,0.21760736405849457
2.5643181800842285,4.2129292488098145,0.36278870701789856
2.5499818325042725,4.257350444793701,0.37247350811958313
2.9800992012023926,5.061279773712158,0.4493524730205536
2.9267771244049072,5.055592060089111,0.4552352726459503
2.914369821548462,5.115895748138428,0.46673837304115295
2.898561716079712,5.173302173614502,0.4780041575431824
2.8739843368530273,5.221844673156738,0.48842427134513855
2.8355648517608643,5.242092609405518,0.4960276484489441
2.822506904602051,5.30582857131958,0.5075605511665344
2.788261890411377,5.331992149353027,0.5154920816421509
2.6542716026306152,5.168435096740723,0.50468510389328
2.5172646045684814,4.992977142333984,0.49242454767227173
2.471822500228882,4.9889750480651855,0.496567040681839
1.2345645427703857,2.5360143184661865,0.25472021102905273
1.2107820510864258,2.534224510192871,0.25666406750679016
1.1886855363845825,2.535771131515503,0.2589344084262848
1.1738678216934204,2.550936460494995,0.26252633333206177
1.1524901390075684,2.551837682723999,0.26466357707977295
1.1516321897506714,2.5987932682037354,0.2715107202529907
2.562567710876465,5.898472309112549,0.6204707622528076
2.529921770095825,5.941491603851318,0.6292580366134644
2.503190517425537,5.994328022003174,0.6389737129211426
2.472214698791504,6.040140628814697,0.6480833888053894
2.444701910018921,6.096798419952393,0.658109188079834
2.4143009185791016,6.150065898895264,0.6676381826400757
2.381967544555664,6.1995320320129395,0.6768229007720947
2.35506272315979,6.259056091308594,0.6870249509811401
2.2944769859313965,6.231247901916504,0.6877367496490479
2.280355930328369,6.330916404724121,0.7022455334663391
2.266672372817993,6.438325881958008,0.7174901962280273
2.2377114295959473,6.5054168701171875,0.7283492684364319
2.2056615352630615,6.560886859893799,0.7378858923912048
2.1711103916168213,6.612720012664795,0.7471344470977783
2.137526035308838,6.667973518371582,0.7566468119621277
2.0743024349212646,6.634518146514893,0.7557306289672852
2.015068292617798,6.611647129058838,0.7560223937034607
1.9537841081619263,6.576868534088135,0.7549031376838684
1.8948068618774414,6.5451130867004395,0.7540886998176575
1.8366658687591553,6.516803741455078,0.753718376159668
1.7777507305145264,6.4843831062316895,0.7523685097694397
1.7201000452041626,6.455298900604248,0.7513183355331421
1.6621148586273193,6.421936988830566,0.7497713565826416
1.606850504875183,6.3915534019470215,0.748516321182251
0.7972758412361145,3.269055128097534,0.38404738903045654
0.7814769744873047,3.3045711517333984,0.3893764615058899
1.450761318206787,6.336056232452393,0.7484119534492493
1.3929609060287476,6.289052963256836,0.744712233543396
1.3296611309051514,6.211148262023926,0.7373378276824951
1.2840285301208496,6.212469100952148,0.7393771409988403
1.2232674360275269,6.1334075927734375,0.7318246960639954
1.1925818920135498,6.206308841705322,0.7421745657920837
1.1265637874603271,6.096092700958252,0.7303463220596313
1.092740774154663,6.157137870788574,0.7390570044517517
1.0435361862182617,6.133912563323975,0.7377031445503235
0.9877492189407349,6.060354232788086,0.7302687764167786
0.9396069049835205,6.028483867645264,0.7278652787208557
0.7553223967552185,5.079415798187256,0.6142615079879761
0.7319544553756714,5.17277193069458,0.6263859868049622
0.6958631277084351,5.185398101806641,0.6287958025932312
0.6634376049041748,5.220747947692871,0.6339783072471619
0.6270753145217896,5.225063800811768,0.6354230642318726
0.5889438390731812,5.213713645935059,0.6349904537200928
0.5499654412269592,5.194427490234375,0.6333557963371277
0.5095964074134827,5.159458160400391,0.6296361088752747
0.3736477494239807,4.08162784576416,0.4985658526420593
0.34901630878448486,4.130411624908447,0.5050066113471985
0.32295551896095276,4.1674394607543945,0.5100418925285339
0.2945316731929779,4.177222728729248,0.5117719769477844
0.2636794149875641,4.152015209197998,0.5090481042861938
0.23736734688282013,4.211804389953613,0.5165858864784241
0.3830403983592987,7.764423370361328,0.9527443051338196
0.08316444605588913,1.9639770984649658,0.2411106675863266
0.06717800348997116,1.8986139297485352,0.23321136832237244
0.05155371129512787,1.8137505054473877,0.2229175865650177
0.04002293199300766,1.8760751485824585,0.2306591123342514
0.026284227147698402,1.8297863006591797,0.22495564818382263
0.01339318323880434,1.8105382919311523,0.22258783876895905
0.0007685759337618947,1.740798830986023,0.21402302384376526
-0.011440841481089592,1.7562681436538696,0.21594439446926117
-0.024093622341752052,1.7716480493545532,0.21786631643772125
-0.03625135123729706,1.7636879682540894,0.21688970923423767
-0.05116130784153938,1.8603018522262573,0.22865831851959229
-0.06461118906736374,1.87541925907135,0.23041413724422455
-0.07538632303476334,1.8207099437713623,0.22360394895076752
-0.08746510744094849,1.8085423707962036,0.22203227877616882
-0.10023421049118042,1.807897686958313,0.22188541293144226
-0.1118127778172493,1.791698932647705,0.21982748806476593
-0.1252478063106537,1.806394338607788,0.22141894698143005
-0.1380063146352768,1.8093910217285156,0.2215847373008728
-0.14888276159763336,1.7891123294830322,0.21891231834888458
-0.16015510261058807,1.7726036310195923,0.21671068668365479
-0.16720066964626312,1.7174537181854248,0.20980574190616608
-0.17712901532649994,1.6970012187957764,0.2071561962366104
-0.1905301809310913,1.7112098932266235,0.20860335230827332
-0.2118760049343109,1.790785789489746,0.21800610423088074
-0.2335778921842575,1.8624277114868164,0.22642318904399872
-0.2485312819480896,1.8761999607086182,0.22780413925647736
-0.24600057303905487,1.7630960941314697,0.2138054370880127
-0.2537456154823303,1.7307002544403076,0.20962513983249664
-0.2679746150970459,1.7443230152130127,0.21089676022529602
-0.28258153796195984,1.7578071355819702,0.212128683924675
-0.2868988513946533,1.7100003957748413,0.2059878259897232
-0.30008795857429504,1.715684413909912,0.20630356669425964
-0.3217443823814392,1.7670601606369019,0.2121095210313797
-0.34340816736221313,1.8144075870513916,0.2174207866191864
-0.3647749423980713,1.8577929735183716,0.22211205959320068
-0.7422077059745789,3.6459898948669434,0.43486228585243225
-0.7662563920021057,3.6372363567352295,0.43281710147857666
-0.9319869875907898,4.276525497436523,0.5077109932899475
-0.9736810922622681,4.32315731048584,0.5120749473571777
-1.0072352886199951,4.331629753112793,0.5119271278381348
-1.0299952030181885,4.2946271896362305,0.5060544610023499
-1.0480268001556396,4.24257230758667,0.4984673857688904
-1.0806998014450073,4.250653266906738,0.4979792833328247
-1.1083154678344727,4.235783100128174,0.4947899281978607
-1.1418704986572266,4.2432122230529785,0.4942249357700348
-1.167614221572876,4.220373153686523,0.49006766080856323
-1.190887689590454,4.193995952606201,0.4852704703807831
-1.2225431203842163,4.197314262390137,0.4839347004890442
-1.2478344440460205,4.178015232086182,0.4800012409687042
-1.2768956422805786,4.169534683227539,0.4773043096065521
-1.2994035482406616,4.1384735107421875,0.472026526927948
-1.3300249576568604,4.137217998504639,0.4700222909450531
-1.3457567691802979,4.09160041809082,0.4628603160381317
-1.3856616020202637,4.119595050811768,0.46404966711997986
-1.4064862728118896,4.088235855102539,0.4585183262825012
-1.4375250339508057,4.086007118225098,0.45626428723335266
-1.4611300230026245,4.061465740203857,0.45148569345474243
-1.485676884651184,4.044643878936768,0.4473453164100647
-1.512827754020691,4.034934997558594,0.44401296973228455
-1.540279507637024,4.024906635284424,0.4406353533267975
-1.5654547214508057,4.007216453552246,0.43639257550239563
-1.5880839824676514,3.9819514751434326,0.43131715059280396
-1.6017441749572754,3.9391300678253174,0.4241894781589508
-1.6354628801345825,3.9466915130615234,0.42245572805404663
-1.6620317697525024,3.9359724521636963,0.41874951124191284
-1.695668339729309,3.9389450550079346,0.41641438007354736
-1.7158759832382202,3.909376382827759,0.41061297059059143
-1.7422717809677124,3.8981049060821533,0.40660393238067627
-1.7618287801742554,3.872645139694214,0.40105801820755005
-1.784613847732544,3.854051113128662,0.39623188972473145
-1.8048319816589355,3.827864408493042,0.3905565142631531
-1.831978440284729,3.81538462638855,0.3862568140029907
-1.8608081340789795,3.8105127811431885,0.3825616240501404
-1.8617610931396484,3.7497689723968506,0.3732798397541046
-1.904752254486084,3.772204637527466,0.3722192347049713
-1.9346524477005005,3.7661681175231934,0.3682348132133484
-1.9677963256835938,3.7669897079467773,0.36486244201660156
-1.9747979640960693,3.719787120819092,0.3566327393054962
-1.9992939233779907,3.7071373462677,0.35183021426200867
-1.6995327472686768,3.0995559692382812,0.2909712791442871
-1.713621973991394,3.074371099472046,0.2854279577732086
-1.726204752922058,3.0498433113098145,0.2798064351081848
-0.8422052264213562,1.4653135538101196,0.1327822208404541
-0.8523244857788086,1.4596515893936157,0.1305549144744873
-0.8586008548736572,1.447119116783142,0.12769821286201477
-0.8721789121627808,1.448279857635498,0.1259910613298416
-0.8816213607788086,1.442751169204712,0.1236824318766594
-0.8609284162521362,1.3870688676834106,0.11700712889432907
-0.8892969489097595,1.4108893871307373,0.1170809268951416
-0.8815704584121704,1.3790704011917114,0.11246746778488159
-0.8990340828895569,1.3865671157836914,0.11105641722679138
-0.8937321305274963,1.3576505184173584,0.10659964382648468
-0.9094715714454651,1.361453890800476,0.10466782748699188
-2.3871910572052,3.5251288414001465,0.26521679759025574
-1.3006763458251953,1.8927515745162964,0.13902264833450317
-1.458935260772705,2.1039743423461914,-0.1058584451675415
-1.2230730056762695,1.8202979564666748,-0.10002430528402328
-1.1907624006271362,1.799392580986023,-0.1026933491230011
-1.294567584991455,1.9876821041107178,-0.11763931065797806
-1.2697137594223022,2.01233172416687,-0.12705586850643158
-1.1213403940200806,1.805837869644165,-0.11741898953914642
-1.7858518362045288,2.9712719917297363,-0.2040039598941803
-0.8111109733581543,1.4177547693252563,-0.10449103266000748
-0.8508362770080566,1.5115382671356201,-0.11380454897880554
-1.5129634141921997,2.7351865768432617,-0.21026508510112762
-1.4726089239120483,2.708040475845337,-0.21230734884738922
-1.4241658449172974,2.662954807281494,-0.2126828283071518
-1.374203085899353,2.614103317260742,-0.2125609666109085
-1.3210457563400269,2.5579655170440674,-0.21164895594120026
-1.2655235528945923,2.494128942489624,-0.20986264944076538
-1.2341184616088867,2.474700450897217,-0.2115783840417862
-1.2007579803466797,2.4517464637756348,-0.21284699440002441
-1.1525232791900635,2.3969011306762695,-0.2112169712781906
-1.1206766366958618,2.3729310035705566,-0.21209295094013214
-1.081065058708191,2.3309640884399414,-0.2112632840871811
-1.0493388175964355,2.3066599369049072,-0.21189060807228088
-1.0072174072265625,2.2570154666900635,-0.21004511415958405
-0.9711022973060608,2.2173614501953125,-0.2089250236749649
-0.9493884444236755,2.2095131874084473,-0.21074098348617554
-0.918346107006073,2.180142641067505,-0.21034178137779236
-0.8860083222389221,2.146962881088257,-0.20954634249210358
-0.8534423112869263,2.1095612049102783,-0.2081512212753296
-0.8415133953094482,2.122439384460449,-0.2116890698671341
-0.8079960346221924,2.081007480621338,-0.20965629816055298
-0.7792192101478577,2.0501365661621094,-0.2086075246334076
-0.755054235458374,2.0298798084259033,-0.20857886970043182
-0.7381693720817566,2.0275495052337646,-0.2103274166584015
-0.7081034779548645,1.9885443449020386,-0.20813386142253876
-0.6862106323242188,1.9712836742401123,-0.20812807977199554
-0.6610239148139954,1.9427196979522705,-0.20686621963977814
-0.6373971104621887,1.9176260232925415,-0.20594091713428497
-0.6238911151885986,1.9218345880508423,-0.20805741846561432
-0.5926020741462708,1.8704456090927124,-0.20403136312961578
-0.5678687691688538,1.837263822555542,-0.20191892981529236
-0.5684566497802734,1.8856115341186523,-0.20876432955265045
-0.5366489291191101,1.825971245765686,-0.20364704728126526
-0.5309242010116577,1.8557385206222534,-0.20835576951503754
-0.517737865447998,1.8592621088027954,-0.21011967957019806
-0.4955510199069977,1.828918695449829,-0.2080252319574356
-0.4768398106098175,1.8096121549606323,-0.20714923739433289
-0.4583396911621094,1.7901675701141357,-0.20615598559379578
-0.44730985164642334,1.800778865814209,-0.20856265723705292
-0.42733463644981384,1.7735239267349243,-0.20655453205108643
-0.4087606966495514,1.7498376369476318,-0.20492513477802277
-0.3948346674442291,1.7449060678482056,-0.20547884702682495
-0.36842188239097595,1.6830521821975708,-0.19914227724075317
-0.35472041368484497,1.6779135465621948,-0.19949308037757874
-0.35151129961013794,1.7220240831375122,-0.20570342242717743
-0.3192526698112488,1.621514081954956,-0.19461147487163544
-0.3259821832180023,1.718852162361145,-0.20720885694026947
-0.3097154200077057,1.6980786323547363,-0.2054925411939621
-0.300237774848938,1.7154039144515991,-0.20840759575366974
-0.2824934422969818,1.682905673980713,-0.20525029301643372
-0.27075520157814026,1.6847093105316162,-0.20627033710479736
-0.2601371109485626,1.694117784500122,-0.20811541378498077
-0.2459869384765625,1.6804516315460205,-0.20707498490810394
-0.2329452633857727,1.6743746995925903,-0.20698031783103943
-0.223336860537529,1.6912246942520142,-0.20971697568893433
-0.21060632169246674,1.6849393844604492,-0.2095986157655716
-0.1979258507490158,1.6785876750946045,-0.2092936784029007
-0.18448805809020996,1.6644370555877686,-0.2080133855342865
-0.17287199199199677,1.665603518486023,-0.20865242183208466
-0.1610552817583084,1.6667063236236572,-0.20930206775665283
-0.14804519712924957,1.6522724628448486,-0.2079523652791977
-0.13648726046085358,1.6532115936279297,-0.20839568972587585
-0.12375589460134506,1.638611078262329,-0.20688723027706146
-0.11286560446023941,1.6471112966537476,-0.20830273628234863
-0.10025843232870102,1.6323397159576416,-0.20678912103176117
-0.08974020183086395,1.6484328508377075,-0.20909401774406433
-0.07713814824819565,1.6257623434066772,-0.20638993382453918
-0.06737718731164932,1.6649495363235474,-0.21155032515525818
-0.05503953993320465,1.6421085596084595,-0.208840474486351
-0.04322963207960129,1.634677767753601,-0.2081005871295929
-0.03185771778225899,1.634925365447998,-0.20820781588554382
-0.020480018109083176,1.6351007223129272,-0.20825998485088348
-0.009071863256394863,1.627447247505188,-0.20732481777668
0.0022342430893331766,1.6235895156860352,-0.20688295364379883
0.013754492625594139,1.6274011135101318,-0.2074294537305832
0.02500271610915661,1.6234077215194702,-0.20680992305278778
0.0359361432492733,1.6077165603637695,-0.20469723641872406
0.047574348747730255,1.6229387521743774,-0.2065304070711136
0.058596618473529816,1.6148407459259033,-0.20540520548820496
0.07034292072057724,1.6260290145874023,-0.2067171186208725
0.08165329694747925,1.6216635704040527,-0.2058844417333603
0.09314699470996857,1.62496817111969,-0.20604048669338226
0.10419322550296783,1.620456337928772,-0.20521539449691772
0.1154702678322792,1.6197340488433838,-0.2048804610967636
0.12763679027557373,1.6305346488952637,-0.2059416025876999
0.13915099203586578,1.6296600103378296,-0.2054046094417572
0.15045642852783203,1.628721833229065,-0.2048770785331726
0.16330234706401825,1.643131971359253,-0.20628586411476135
0.17471520602703094,1.6420245170593262,-0.2057526409626007
0.18522870540618896,1.6331498622894287,-0.20414693653583527
0.19672217965126038,1.631895661354065,-0.20342198014259338
0.20998091995716095,1.6459661722183228,-0.20462125539779663
0.2183385193347931,1.6214985847473145,-0.20103876292705536
0.23179347813129425,1.6353840827941895,-0.20222440361976624
0.24540162086486816,1.6491875648498535,-0.20324450731277466
0.25819650292396545,1.655195951461792,-0.2032654583454132
0.273435115814209,1.6764391660690308,-0.20516332983970642
0.285103440284729,1.6746076345443726,-0.20423583686351776
0.29674676060676575,1.6726995706558228,-0.20328417420387268
0.308298259973526,1.6707429885864258,-0.20218198001384735
0.3183898627758026,1.6610835790634155,-0.20016023516654968
0.334675669670105,1.6817539930343628,-0.20177605748176575
0.3369695246219635,1.6339201927185059,-0.19520801305770874
0.3466642498970032,1.6240953207015991,-0.19314265251159668
0.36622586846351624,1.6597049236297607,-0.1963810920715332
0.38370808959007263,1.6837745904922485,-0.19822487235069275
0.389449805021286,1.6547144651412964,-0.19379350543022156
0.4028272330760956,1.6596488952636719,-0.19338303804397583
0.4284157454967499,1.713477611541748,-0.19850796461105347
0.44022703170776367,1.7106540203094482,-0.19701240956783295
0.4620234966278076,1.7452633380889893,-0.19980494678020477
0.47443029284477234,1.7421118021011353,-0.19822850823402405
0.49178242683410645,1.7576435804367065,-0.1987600475549698
0.5124555826187134,1.7842689752578735,-0.2004057615995407
0.5357134938240051,1.8181480169296265,-0.2028243988752365
0.5438895225524902,1.7996928691864014,-0.19938020408153534
0.5589728355407715,1.8034021854400635,-0.19838055968284607
0.5796146392822266,1.8256369829177856,-0.19932429492473602
0.6017429232597351,1.8513906002044678,-0.20057395100593567
0.6121006011962891,1.8400192260742188,-0.19777832925319672
0.6374709010124207,1.8727034330368042,-0.19968850910663605
0.6568821668624878,1.8867961168289185,-0.1995411068201065
0.672644317150116,1.889725685119629,-0.1980675458908081
0.696220874786377,1.914527416229248,-0.19889295101165771
0.7177095413208008,1.93172025680542,-0.19885630905628204
0.7367119789123535,1.9414368867874146,-0.19802537560462952
0.7598141431808472,1.961982011795044,-0.19815804064273834
0.7820035219192505,1.9786126613616943,-0.19781015813350677
0.820461094379425,2.0347158908843994,-0.20133283734321594
0.8406028151512146,2.0435750484466553,-0.20009709894657135
0.8606650829315186,2.0523600578308105,-0.19875918328762054
0.8899179697036743,2.0824992656707764,-0.19940006732940674
0.9216302633285522,2.1157171726226807,-0.20018933713436127
0.9427353739738464,2.1237223148345947,-0.19855208694934845
0.9878235459327698,2.1848433017730713,-0.20174844563007355
1.00589120388031,2.185450315475464,-0.19921843707561493
1.0456534624099731,2.231666326522827,-0.20075422525405884
1.0816373825073242,2.2666423320770264,-0.20107412338256836
1.104030728340149,2.273453950881958,-0.19884628057479858
1.1383212804794312,2.3046679496765137,-0.1986427903175354
1.1750811338424683,2.3388853073120117,-0.19855713844299316
1.2109556198120117,2.3690619468688965,-0.19796396791934967
1.2451794147491455,2.39557147026062,-0.19693517684936523
1.2542850971221924,2.3735311031341553,-0.19179843366146088
1.2982590198516846,2.4166526794433594,-0.19186711311340332
1.3113799095153809,2.4010088443756104,-0.18716467916965485
1.325702428817749,2.388998031616211,-0.18271556496620178
1.2976208925247192,2.302300453186035,-0.1726657748222351
1.323591709136963,2.3102803230285645,-0.16960786283016205
1.3474797010421753,2.314804792404175,-0.16629154980182648
1.4084596633911133,2.3833117485046387,-0.1673945188522339
1.44465172290802,2.407461166381836,-0.16513241827487946
1.471638798713684,2.4142508506774902,-0.161469504237175
1.508669137954712,2.437601327896118,-0.1587335616350174
1.533055067062378,2.4410977363586426,-0.15468882024288177
1.6382182836532593,2.5687639713287354,-0.15798349678516388
1.6683764457702637,2.577542781829834,-0.15366676449775696
1.6894906759262085,2.5734176635742188,-0.14852820336818695
1.4046082496643066,2.1072115898132324,-0.11726845055818558
1.4232730865478516,2.1043455600738525,-0.11275532841682434
1.4413074254989624,2.101762294769287,-0.10822685807943344
1.438023567199707,2.066343069076538,-0.10174702107906342
1.4517664909362793,2.056959867477417,-0.09657750278711319
1.4335373640060425,2.0031118392944336,-0.08926728367805481
1.4452201128005981,1.9901154041290283,-0.0836191475391388
1.448589563369751,1.9685300588607788,-0.0776594802737236
3.117201805114746,4.3997039794921875,0.33313146233558655
2.630079984664917,3.7738990783691406,0.2944536805152893
2.5989179611206055,3.7852492332458496,0.3031344711780548
2.6964480876922607,3.991551160812378,0.32783541083335876
2.6763906478881836,4.027656555175781,0.3386586308479309
2.6650986671447754,4.071706295013428,0.3495529890060425
2.6391971111297607,4.097062587738037,0.3588000535964966
1.6362946033477783,2.5830647945404053,0.2305682748556137
1.5969910621643066,2.561307668685913,0.2326628565788269
1.5909066200256348,2.5920982360839844,0.23939216136932373
2.566901922225952,4.253909111022949,0.39907804131507874
2.5353803634643555,4.272042751312256,0.40680354833602905
2.9567947387695312,5.062203884124756,0.4888157844543457
2.926903009414673,5.096660137176514,0.4988563060760498
2.8921000957489014,5.124593734741211,0.5080235600471497
2.886957883834839,5.202463626861572,0.5219833254814148
2.850360155105591,5.221800804138184,0.5299673080444336
2.834412097930908,5.282711505889893,0.542057454586029
2.8140463829040527,5.341177940368652,0.5539602637290955
2.7931125164031982,5.395192623138428,0.565230131149292
2.6863656044006348,5.278716564178467,0.5583860278129578
2.575514554977417,5.1509504318237305,0.5499697327613831
2.569699764251709,5.235544681549072,0.5639055371284485
1.2229688167572021,2.5394132137298584,0.2759157121181488
1.2051992416381836,2.5475542545318604,0.27904006838798523
1.1791646480560303,2.537952423095703,0.28022173047065735
1.1686980724334717,2.5638298988342285,0.2851700484752655
1.152977705001831,2.5791218280792236,0.2889374792575836
1.1437575817108154,2.608372926712036,0.2942606806755066
2.5449578762054443,5.917534351348877,0.6721899509429932
2.513911724090576,5.959579944610596,0.6815060973167419
2.490896701812744,6.027417182922363,0.6934208273887634
2.459787368774414,6.077193737030029,0.7033471465110779
2.427799940109253,6.122776031494141,0.712758481502533
2.4052908420562744,6.193475246429443,0.7251704931259155
2.3783607482910156,6.253040313720703,0.7362741231918335
2.3300793170928955,6.2622480392456055,0.7410011291503906
1.9632141590118408,5.395538806915283,0.6416009068489075
2.2838189601898193,6.418213367462158,0.7669132351875305
2.250887393951416,6.470280647277832,0.7768738865852356
2.22061824798584,6.529282093048096,0.7876882553100586
2.1919095516204834,6.5997233390808105,0.7994912266731262
2.1572844982147217,6.655389785766602,0.8095144629478455
2.105846881866455,6.659017562866211,0.8132469654083252
2.0401790142059326,6.613882541656494,0.8109912872314453
1.9793715476989746,6.579086780548096,0.8099377155303955
1.921791911125183,6.555154323577881,0.8099530935287476
1.8628871440887451,6.527247428894043,0.8091593980789185
1.8054560422897339,6.502592086791992,0.8087823987007141
1.7484947443008423,6.47344446182251,0.8077959418296814
1.6887589693069458,6.432650566101074,0.8053767681121826
1.635244369506836,6.4099440574646,0.8051811456680298
1.5821404457092285,6.3908610343933105,0.8049434423446655
0.7917283177375793,3.2988080978393555,0.4165835380554199
1.4687154293060303,6.3175368309021,0.7999184131622314
1.4187287092208862,6.304681301116943,0.8004283905029297
1.3623449802398682,6.257187843322754,0.796516478061676
1.310585856437683,6.228216648101807,0.7949068546295166
1.263167142868042,6.221841335296631,0.7956811189651489
1.210632085800171,6.188493251800537,0.7930338978767395
1.1494609117507935,6.109118938446045,0.7845160961151123
1.1027348041534424,6.093763828277588,0.7841715216636658
1.0542876720428467,6.066603183746338,0.7823302149772644
1.0188573598861694,6.1155524253845215,0.7902178764343262
0.9688271880149841,6.080258369445801,0.7868084907531738
0.9157347083091736,6.025516510009766,0.7809218168258667
0.7382914423942566,5.099803447723389,0.6619719862937927
0.7186160683631897,5.21974515914917,0.6786068677902222
0.6786890625953674,5.197517395019531,0.6768108606338501
0.6466626524925232,5.236523628234863,0.6829145550727844
0.6048179268836975,5.198464393615723,0.6786156296730042
0.5721210837364197,5.244868278503418,0.6853896975517273
0.5277361869812012,5.17538595199585,0.677035927772522
0.49175143241882324,5.178772926330566,0.6782286167144775
0.3641209900379181,4.140125274658203,0.5428287982940674
0.33687102794647217,4.1617431640625,0.5462667346000671
0.3089205324649811,4.187138080596924,0.5498854517936707
0.2775138020515442,4.158208847045898,0.5463917851448059
0.2481435090303421,4.156110763549805,0.5464479327201843
0.10564503818750381,2.003412961959839,0.2635813057422638
0.09045422822237015,1.9769824743270874,0.2602858245372772
0.07407952100038528,1.9156179428100586,0.2523980438709259
0.05605098605155945,1.7689846754074097,0.23309633135795593
0.04368685185909271,1.7693239450454712,0.2331678569316864
0.0313398577272892,1.7695761919021606,0.2332393079996109
0.019196325913071632,1.7852321863174438,0.23535265028476715
0.006517515983432531,1.7775682210922241,0.23440445959568024
-0.005694567691534758,1.7310889959335327,0.22834591567516327
-0.017531108111143112,1.7116528749465942,0.22573240101337433
-0.029761869460344315,1.7308627367019653,0.2281918078660965
-0.041512563824653625,1.7190115451812744,0.2265668362379074
-0.054063208401203156,1.7380483150482178,0.229023739695549
-0.06664612144231796,1.7453755140304565,0.2299472838640213
-0.07842820882797241,1.7371447086334229,0.22883301973342896
-0.09127350896596909,1.7520551681518555,0.23067770898342133
-0.10293515771627426,1.74368417263031,0.2293974906206131
-0.11652519553899765,1.7661527395248413,0.23218408226966858
-0.12896864116191864,1.7653230428695679,0.23191386461257935
-0.14463485777378082,1.8068888187408447,0.2372230738401413
-0.15213331580162048,1.7479965686798096,0.22935596108436584
-0.16639438271522522,1.770084023475647,0.232060968875885
-0.17936605215072632,1.7766600847244263,0.2326364815235138
-0.1909622848033905,1.7677170038223267,0.23118670284748077
-0.20669937133789062,1.7972007989883423,0.23477405309677124
-0.21964505314826965,1.7996253967285156,0.2348310351371765
-0.2351144701242447,1.8211674690246582,0.23739024996757507
-0.23778727650642395,1.7466241121292114,0.22740378975868225
-0.24887335300445557,1.7373294830322266,0.2258075624704361
-0.2596230208873749,1.7279962301254272,0.22422732412815094
-0.2751085162162781,1.7492120265960693,0.2266174852848053
-0.2923041880130768,1.7779207229614258,0.22997386753559113
-0.2968083620071411,1.73009192943573,0.22344405949115753
-0.3217606246471405,1.8005502223968506,0.23216985166072845
-0.350578635931015,1.8860012292861938,0.24264918267726898
-0.37374815344810486,1.936940312385559,0.2486696094274521
-0.393869549036026,1.9686435461044312,0.25220656394958496
-0.7536908984184265,3.635911703109741,0.4648264944553375
-0.9342584013938904,4.354672431945801,0.5555671453475952
-0.9632076025009155,4.34067964553833,0.5525671243667603
-0.9848911166191101,4.30031681060791,0.5459549427032471
-1.0212632417678833,4.323988437652588,0.5474969148635864
-1.0434205532073975,4.287071228027344,0.5413880348205566
-1.0694533586502075,4.264956951141357,0.5371621251106262
-1.1034585237503052,4.272603988647461,0.5366882085800171
-1.1249586343765259,4.2352094650268555,0.5304883122444153
-1.1516122817993164,4.220334053039551,0.5268877148628235
-1.1759812831878662,4.197830677032471,0.5223707556724548
-1.2014997005462646,4.178825378417969,0.5183039903640747
-1.2344287633895874,4.181694984436035,0.5169147253036499
-1.2579690217971802,4.154748439788818,0.5118971467018127
-1.286370038986206,4.146401882171631,0.5089825987815857
-1.3167381286621094,4.145376205444336,0.5068299770355225
-1.3399525880813599,4.121987342834473,0.5019697546958923
