X,Y,Z
-1.314780831336975,2.4247710704803467,-0.2012915015220642
-1.3045035600662231,2.447598934173584,-0.20707646012306213
-1.2955886125564575,2.4739389419555664,-0.2131936401128769
-1.2850912809371948,2.4965476989746094,-0.21893829107284546
-1.267071008682251,2.5053374767303467,-0.22351659834384918
-1.233146071434021,2.482745885848999,-0.22511059045791626
-1.1621073484420776,2.382805109024048,-0.2194943130016327
-1.1773334741592407,2.4572153091430664,-0.22975224256515503
-1.194654941558838,2.5390799045562744,-0.24086672067642212
-1.1795012950897217,2.5543322563171387,-0.24571190774440765
-1.173622727394104,2.5908408164978027,-0.2526981234550476
-1.1459285020828247,2.577282667160034,-0.2546825110912323
-1.1633312702178955,2.666980504989624,-0.2668885588645935
-1.1119087934494019,2.5998103618621826,-0.2633557915687561
-1.1067759990692139,2.6395931243896484,-0.2705928385257721
-1.0938706398010254,2.661384105682373,-0.27603328227996826
-1.0779188871383667,2.6758713722229004,-0.28061044216156006
-1.0644086599349976,2.6976020336151123,-0.2858983278274536
-1.053521752357483,2.7264888286590576,-0.29198718070983887
-1.042618989944458,2.7552225589752197,-0.29806914925575256
-1.0348849296569824,2.7950518131256104,-0.3054136335849762
-1.0227584838867188,2.823920726776123,-0.31145650148391724
-1.0050605535507202,2.838107109069824,-0.3159288763999939
-0.9941021800041199,2.8703560829162598,-0.3223847448825836
-0.9739720225334167,2.8768463134765625,-0.3259598910808563
-0.9652946591377258,2.920306444168091,-0.3336229622364044
-0.9540150761604309,2.956275701522827,-0.3404628038406372
-0.9378794431686401,2.9773247241973877,-0.3456070125102997
-0.9227258563041687,3.001969337463379,-0.3512040674686432
-0.9103670716285706,3.0377912521362305,-0.3579520285129547
-0.8931302428245544,3.0586984157562256,-0.36294761300086975
-0.8827812075614929,3.105712890625,-0.3711397349834442
-0.8630752563476562,3.1189112663269043,-0.37528225779533386
-0.8511971831321716,3.1619932651519775,-0.3829464912414551
-0.8365938663482666,3.1976139545440674,-0.38960614800453186
-0.8139097690582275,3.2030932903289795,-0.39263227581977844
-0.7920674681663513,3.212186574935913,-0.39612922072410583
-0.5332440137863159,2.2290782928466797,-0.2765236496925354
-0.5192769169807434,2.2401046752929688,-0.27932092547416687
-0.5051739811897278,2.2510437965393066,-0.2821227014064789
-0.4844345152378082,2.231567859649658,-0.2811102569103241
-0.474159300327301,2.26127290725708,-0.28632622957229614
-0.45835086703300476,2.264310598373413,-0.2880599796772003
-0.44019874930381775,2.255859375,-0.2882029116153717
-0.4114544093608856,2.1901328563690186,-0.28099915385246277
-0.380296528339386,2.1050467491149902,-0.2712331712245941
-0.36269640922546387,2.0922281742095947,-0.27075448632240295
-0.35814934968948364,2.1557161808013916,-0.2799583077430725
-0.34784701466560364,2.188626766204834,-0.28521546721458435
-0.3342466354370117,2.202333450317383,-0.28799960017204285
-0.3200240135192871,2.2121059894561768,-0.2902851104736328
-0.3043513596057892,2.2141542434692383,-0.29152214527130127
-0.2853466272354126,2.189209222793579,-0.28899985551834106
-0.28093618154525757,2.2794253826141357,-0.30171528458595276
-0.265018492937088,2.281191349029541,-0.3027680516242981
-0.23692603409290314,2.171204090118408,-0.2889615595340729
-0.2343253493309021,2.2959682941436768,-0.3062475323677063
-0.21319007873535156,2.2473621368408203,-0.3003467619419098
-0.18627406656742096,2.121412515640259,-0.2840675711631775
-0.1752639263868332,2.168870687484741,-0.2909974753856659
-0.16073475778102875,2.177661657333374,-0.29276856780052185
-0.14400580525398254,2.155487298965454,-0.29012855887413025
-0.30075109004974365,5.039311408996582,-0.6790988445281982
-0.24036169052124023,4.561768531799316,-0.615492045879364
-0.20510001480579376,4.485856533050537,-0.6060115098953247
-0.17700040340423584,4.56829833984375,-0.6178044080734253
-0.14431506395339966,4.54228401184082,-0.6145337224006653
-0.11851173639297485,4.802415370941162,-0.6500259637832642
-0.08125770837068558,4.586329936981201,-0.621087908744812
-0.049969401210546494,4.6409196853637695,-0.6288241744041443
-0.018394099548459053,4.819204330444336,-0.6530223488807678
0.014848602935671806,4.737954139709473,-0.641814649105072
0.0485614575445652,4.757110595703125,-0.6442392468452454
0.08242306858301163,4.803128242492676,-0.6503340005874634
0.11295248568058014,4.682499885559082,-0.6338979005813599
0.1363723874092102,4.387637615203857,-0.5934382677078247
0.16364027559757233,4.301578044891357,-0.5812157988548279
0.19302506744861603,4.288830280303955,-0.5789401531219482
0.247904434800148,4.7591142654418945,-0.6418303847312927
0.27573198080062866,4.6685075759887695,-0.6289770603179932
0.3129701316356659,4.740063190460205,-0.6374915838241577
0.34582021832466125,4.737965106964111,-0.636114776134491
0.3784250020980835,4.731773376464844,-0.6342174410820007
0.40653952956199646,4.667445659637451,-0.6245538592338562
0.4389480650424957,4.664726734161377,-0.6229312419891357
0.46975472569465637,4.646414279937744,-0.6189467310905457
0.49987441301345825,4.624051094055176,-0.614465594291687
0.5302621722221375,4.605327129364014,-0.6105034947395325
0.5572129487991333,4.555583477020264,-0.6024534106254578
0.5947789549827576,4.598006248474121,-0.6062213182449341
0.5161521434783936,3.7842793464660645,-0.49734437465667725
0.5369084477424622,3.7425246238708496,-0.4902999997138977
0.5663986206054688,3.7619457244873047,-0.4912967383861542
0.5881699323654175,3.7275025844573975,-0.48520779609680176
0.6126642823219299,3.7160158157348633,-0.48179590702056885
0.6383410692214966,3.7120039463043213,-0.47938013076782227
0.6640812158584595,3.707798480987549,-0.47695571184158325
0.6899428367614746,3.7033865451812744,-0.47451701760292053
0.7134411931037903,3.6874237060546875,-0.4704410135746002
0.7393746376037598,3.6826765537261963,-0.4675740599632263
0.7648343443870544,3.677830696105957,-0.4647558033466339
0.7855440974235535,3.650029182434082,-0.4590575098991394
0.8109560012817383,3.644821882247925,-0.45623669028282166
0.834396481513977,3.6319615840911865,-0.45215943455696106
0.8580657839775085,3.6188724040985107,-0.4479985535144806
0.8831191658973694,3.6132333278656006,-0.4448184370994568
0.9083637595176697,3.6073639392852783,-0.44160881638526917
0.9276297092437744,3.578822135925293,-0.4355524182319641
0.9523316025733948,3.5727548599243164,-0.43203914165496826
0.9753885865211487,3.5589141845703125,-0.42756256461143494
1.0022538900375366,3.559929847717285,-0.42491981387138367
1.0227690935134888,3.538355588912964,-0.4196009039878845
1.04715096950531,3.531663179397583,-0.41582372784614563
1.0713979005813599,3.524832248687744,-0.41199877858161926
1.0984798669815063,3.5250775814056396,-0.40894314646720886
1.1939778327941895,3.739696979522705,-0.43059492111206055
1.3538845777511597,4.1415181159973145,-0.47315073013305664
1.3872597217559814,4.147401809692383,-0.46991392970085144
1.4081735610961914,4.116278648376465,-0.46251732110977173
1.4420493841171265,4.121558666229248,-0.4591716527938843
1.4661149978637695,4.0971221923828125,-0.45246052742004395
1.496850848197937,4.094847202301025,-0.44800928235054016
1.5249035358428955,4.085056781768799,-0.4427494406700134
1.5587610006332397,4.089475154876709,-0.4389856159687042
1.5760776996612549,4.050057411193848,-0.4305162727832794
1.6043837070465088,4.039520263671875,-0.42491647601127625
1.6319297552108765,4.029053211212158,-0.419356107711792
1.65966796875,4.018289089202881,-0.413741797208786
1.6907883882522583,4.0143208503723145,-0.4087679982185364
1.968564510345459,4.5857391357421875,-0.4616008400917053
2.02215576171875,4.62255859375,-0.4596857726573944
1.9809744358062744,4.4457855224609375,-0.43675127625465393
1.9557279348373413,4.308473110198975,-0.4179593622684479
1.5657881498336792,3.3876688480377197,-0.3243866264820099
1.5754786729812622,3.3493003845214844,-0.3164140582084656
2.103006362915039,4.3920369148254395,-0.4091394543647766
2.1661782264709473,4.444327354431152,-0.4080769419670105
2.2296535968780518,4.496222019195557,-0.4067345857620239
2.274071216583252,4.5095133781433105,-0.4016970098018646
2.304847478866577,4.494537353515625,-0.39406031370162964
2.3380911350250244,4.482409477233887,-0.3865284025669098
1.71938157081604,3.241661787033081,-0.27469488978385925
1.730060338973999,3.209928274154663,-0.26723623275756836
1.727746844291687,3.1540212631225586,-0.2577720582485199
1.7498607635498047,3.1422829627990723,-0.2518913447856903
1.7670936584472656,3.1241421699523926,-0.24545486271381378
1.3669968843460083,2.3791422843933105,-0.18303632736206055
1.3148177862167358,2.2520599365234375,-0.16946570575237274
0.950455904006958,1.6028494834899902,-0.11788127571344376
0.9530589580535889,1.5833605527877808,-0.11371834576129913
0.9679028391838074,1.5837091207504272,-0.11092814058065414
0.9791328310966492,1.577027678489685,-0.10750964283943176
0.989524245262146,1.5707542896270752,-0.10415483266115189
1.0042004585266113,1.570901870727539,-0.10118184983730316
1.0151805877685547,1.5640559196472168,-0.09760545194149017
1.0169100761413574,1.5445003509521484,-0.09325344860553741
1.0272659063339233,1.537847876548767,-0.0896243304014206
1.03801429271698,1.5308305025100708,-0.08583953231573105
2.5403683185577393,3.694807529449463,-0.1989860236644745
2.5603058338165283,3.671999216079712,-0.18935531377792358
2.590319871902466,3.6609530448913574,-0.17981654405593872
2.618750810623169,3.650761127471924,-0.1701376885175705
2.6480278968811035,3.639711618423462,-0.16005177795886993
2.6974446773529053,3.657200336456299,-0.1508360505104065
2.6115798950195312,3.6924729347229004,0.2784240245819092
2.587336540222168,3.7182469367980957,0.28882238268852234
2.554755926132202,3.7305145263671875,0.2978401780128479
1.0480990409851074,1.554215431213379,0.12724563479423523
1.0489050149917603,1.581499695777893,0.132546067237854
1.032826542854309,1.5824490785598755,0.13554620742797852
1.0174221992492676,1.58285391330719,0.13832302391529083
1.0052214860916138,1.5903407335281372,0.1416109949350357
0.9888412952423096,1.5911188125610352,0.14430122077465057
0.9776481986045837,1.5977479219436646,0.14728927612304688
0.9658274054527283,1.604646921157837,0.15024800598621368
0.9536360502243042,1.6116455793380737,0.15318554639816284
1.3707737922668457,2.3550469875335693,0.22702237963676453
1.3422536849975586,2.344153881072998,0.22908295691013336
1.7864384651184082,3.1746034622192383,0.31415754556655884
1.7736932039260864,3.207930326461792,0.32139718532562256
1.7749862670898438,3.264410972595215,0.3308197855949402
1.7557175159454346,3.2831406593322754,0.33643826842308044
2.3926737308502197,4.556356906890869,0.4718266725540161
2.3461387157440186,4.549195766448975,0.4758962392807007
2.317028045654297,4.572151184082031,0.4829294979572296
2.284911870956421,4.5876312255859375,0.4891096353530884
2.2478716373443604,4.59660005569458,0.4943344295024872
2.2198262214660645,4.626814842224121,0.5018675327301025
2.182727813720703,4.63520622253418,0.506919801235199
2.155104398727417,4.6603522300720215,0.513670802116394
2.1203649044036865,4.671382904052734,0.5187965631484985
2.0859313011169434,4.686269760131836,0.5240954756736755
2.056053638458252,4.711582660675049,0.5305970311164856
1.9958369731903076,4.665060997009277,0.5289474129676819
1.736128568649292,4.137449741363525,0.4722042679786682
1.6945563554763794,4.120580673217773,0.47317302227020264
1.6672464609146118,4.139610290527344,0.4781046509742737
1.642595887184143,4.165680885314941,0.48388952016830444
1.6125825643539429,4.176920413970947,0.48793908953666687
1.586061954498291,4.194904804229736,0.49273064732551575
1.5587270259857178,4.2129740715026855,0.4973752498626709
1.5293381214141846,4.227426528930664,0.5014755129814148
1.4985655546188354,4.237997531890869,0.5051409006118774
1.467995524406433,4.248249530792236,0.5087730884552002
1.440749168395996,4.265338897705078,0.5131820440292358
1.4129536151885986,4.282390117645264,0.5174773335456848
1.3867141008377075,4.306881904602051,0.5224659442901611
1.3555431365966797,4.316404819488525,0.525672972202301
1.3264529705047607,4.333156108856201,0.5297996997833252
1.2984442710876465,4.349350452423096,0.5338088870048523
1.2702736854553223,4.365360736846924,0.5378284454345703
1.2389403581619263,4.374017715454102,0.5405786633491516
1.2116525173187256,4.3974103927612305,0.5451764464378357
1.1820855140686035,4.413140296936035,0.5488609075546265
1.1467128992080688,4.406095027923584,0.5497259497642517
1.1226093769073486,4.439968585968018,0.5556914210319519
1.0931025743484497,4.454992294311523,0.5591765642166138
1.0612369775772095,4.462398529052734,0.5615032315254211
1.0310614109039307,4.477131366729736,0.564782977104187
1.000319242477417,4.491746425628662,0.5681002736091614
0.9689740538597107,4.498323917388916,0.5703780651092529
0.9375855922698975,4.5046820640563965,0.5726557970046997
0.7637835741043091,3.8040921688079834,0.4846027195453644
0.738211452960968,3.8168320655822754,0.487149178981781
0.8394544124603271,4.515378952026367,0.5774476528167725
0.8171806335449219,4.574353218078613,0.5861397385597229
0.7879032492637634,4.594978332519531,0.5899520516395569
0.7590539455413818,4.619230270385742,0.5942656993865967
0.7276124954223633,4.631936550140381,0.5967681407928467
0.696560800075531,4.652190208435059,0.6002251505851746
0.6636083126068115,4.656816482543945,0.6016855835914612
0.6340371966362,4.684207916259766,0.606113851070404
0.6033757328987122,4.703693866729736,0.6095492839813232
0.5720072388648987,4.719131946563721,0.6124951243400574
0.5387467741966248,4.722907066345215,0.6135563254356384
0.5082074999809265,4.757327079772949,0.6185888648033142
0.47540590167045593,4.768370628356934,0.6206092834472656
0.44272759556770325,4.779164791107178,0.6226252317428589
0.41078582406044006,4.797436714172363,0.6256449222564697
0.37855997681617737,4.815497398376465,0.6286726593971252
0.34477514028549194,4.825716972351074,0.6303299069404602
0.3126903772354126,4.8549981117248535,0.6344333291053772
0.27865907549858093,4.856996059417725,0.6350041031837463
0.24583587050437927,4.881962776184082,0.6386100053787231
0.2125510722398758,4.898958206176758,0.6412050127983093
0.1781822144985199,4.9080047607421875,0.642799437046051
0.1447545886039734,4.936197757720947,0.6465811133384705
0.11048037558794022,4.944816589355469,0.6477150321006775
0.07585494965314865,4.937705993652344,0.6468201279640198
0.019897006452083588,2.3702876567840576,0.31053096055984497
0.0030311953742057085,2.29677152633667,0.3009466528892517
-0.012902075424790382,2.2889838218688965,0.29998692870140076
-0.028496412560343742,2.2656118869781494,0.2968663275241852
-0.04406220093369484,2.2576358318328857,0.2956920862197876
-0.05718570202589035,2.160499334335327,0.28285956382751465
-0.0699966624379158,2.0942611694335938,0.2740938663482666
-0.08356191962957382,2.062772512435913,0.2698921263217926
-0.10250774025917053,2.158884286880493,0.2823982238769531
-0.11517996340990067,2.115607976913452,0.27659299969673157
-0.1300654262304306,2.11867094039917,0.27675190567970276
-0.14180727303028107,2.07525634765625,0.27085739374160767
-0.15585888922214508,2.0665242671966553,0.26950377225875854
-0.16766588389873505,2.034550905227661,0.26513931155204773
-0.18004968762397766,2.0140905380249023,0.26229292154312134
-0.1925109475851059,1.997421383857727,0.25989750027656555
-0.21382035315036774,2.0693321228027344,0.26890018582344055
-0.2308506816625595,2.090959310531616,0.2713593542575836
-0.24523863196372986,2.089390277862549,0.2708231210708618
-0.5046675205230713,4.056224822998047,0.5251333713531494
-0.5253024697303772,3.995129108428955,0.5166289210319519
-0.5466296672821045,3.9454758167266846,0.5095666646957397
-0.5686120986938477,3.9033963680267334,0.5032174587249756
-0.5889647006988525,3.8574395179748535,0.49642735719680786
-0.6093244552612305,3.8152120113372803,0.4901582896709442
-0.6300061345100403,3.7766690254211426,0.48439425230026245
-0.6495969295501709,3.734189510345459,0.47816166281700134
-0.6692754626274109,3.6954476833343506,0.47238320112228394
-0.6892163753509521,3.6604456901550293,0.4668298065662384
-0.7067703008651733,3.6178176403045654,0.4603647291660309
-0.7283892631530762,3.5979127883911133,0.4568277597427368
-0.7413859367370605,3.5360710620880127,0.4479927718639374
-0.7552754878997803,3.4817802906036377,0.4401624798774719
-0.7831935882568359,3.4917149543762207,0.44038403034210205
-0.798193633556366,3.4487674236297607,0.4337558448314667
-0.8144454956054688,3.413316249847412,0.42811429500579834
-0.8330286741256714,3.389096736907959,0.4239182770252228
-0.8508747220039368,3.3608970642089844,0.4192332625389099
-0.864923357963562,3.317481517791748,0.4126684367656708
-0.8797205686569214,3.2817184925079346,0.40699395537376404
-0.9009454846382141,3.272190570831299,0.4044441282749176
-0.9189164042472839,3.251325845718384,0.400519460439682
-0.9302886724472046,3.207974433898926,0.39385709166526794
-0.9508028626441956,3.194122314453125,0.3908032476902008
-0.9662625789642334,3.1654043197631836,0.38598451018333435
-0.977384090423584,3.1256937980651855,0.3796626925468445
-0.9937663078308105,3.1045095920562744,0.37556734681129456
-1.0098772048950195,3.083252429962158,0.37149688601493835
-1.022857666015625,3.05061411857605,0.3660341203212738
-1.0441317558288574,3.0436787605285645,0.36369451880455017
-1.0600123405456543,3.022019624710083,0.3595624566078186
-1.0672647953033447,2.97856068611145,0.3526917099952698
-1.084652304649353,2.9643025398254395,0.3493197560310364
-1.0952097177505493,2.9317173957824707,0.3438134491443634
-1.113227367401123,2.9169182777404785,0.34034982323646545
-1.1166446208953857,2.8659512996673584,0.33274132013320923
-1.031180500984192,2.595205307006836,0.2996235489845276
-1.143341302871704,2.8225324153900146,0.3240188956260681
-1.1548197269439697,2.797161340713501,0.3192777633666992
-1.1445114612579346,2.7175967693328857,0.30831703543663025
-1.140517234802246,2.656270980834961,0.29955482482910156
-1.1444438695907593,2.6167685985565186,0.29317355155944824
-1.1635336875915527,2.6129040718078613,0.29077091813087463
-1.1809953451156616,2.6053688526153564,0.28797265887260437
-1.188025951385498,2.572556972503662,0.28229820728302
-1.2374049425125122,2.6313483715057373,0.2866862416267395
-1.2448991537094116,2.6023123264312744,0.2813131809234619
-1.258730173110962,2.587338924407959,0.2774678170681
-1.2639175653457642,2.5548064708709717,0.27176278829574585
-1.28215754032135,2.546051502227783,0.26846498250961304
-1.2927253246307373,2.523576259613037,0.2637624740600586
-1.298661231994629,2.4945902824401855,0.25828462839126587
-1.3115441799163818,2.4793832302093506,0.2542719841003418
-1.3211158514022827,2.4569880962371826,0.24947673082351685
-1.3307710886001587,2.434396982192993,0.2446521520614624
-1.3340307474136353,2.4018545150756836,0.2387179285287857
-1.3459008932113647,2.38663649559021,0.23455722630023956
-1.3618643283843994,2.377912759780884,0.23098960518836975
-1.370706558227539,2.3551886081695557,0.2259572595357895
-1.3747190237045288,2.326113224029541,0.2202855795621872
-1.3901783227920532,2.3172688484191895,0.21645165979862213
-1.4339944124221802,2.3548460006713867,0.21689094603061676
-1.421809434890747,2.2987265586853027,0.20855893194675446
-1.453632116317749,2.3159801959991455,0.20683830976486206
-1.4518532752990723,2.2806029319763184,0.20038427412509918
-1.4569998979568481,2.254539966583252,0.1945980042219162
-1.438510775566101,2.192561388015747,0.18576426804065704
-1.469842791557312,2.2095911502838135,0.18357738852500916
-1.4885205030441284,2.206827163696289,0.17966239154338837
-1.4687567949295044,2.145242691040039,0.1707463562488556
-1.482947587966919,2.135835886001587,0.16594572365283966
-1.4897311925888062,2.1171867847442627,0.16049647331237793
-1.5000603199005127,2.100696563720703,0.15480852127075195
-1.5045183897018433,2.07865834236145,0.14869216084480286
-1.5131455659866333,2.0630922317504883,0.14299501478672028
-1.5182414054870605,2.0403218269348145,0.1363878697156906
-1.4844452142715454,2.0960679054260254,-0.09709939360618591
-1.473907470703125,2.112744092941284,-0.1031399518251419
-1.4620637893676758,2.1301422119140625,-0.10925273597240448
-1.4748985767364502,2.1824913024902344,-0.11701390147209167
-1.4718427658081055,2.2124321460723877,-0.12350630760192871
-1.4551504850387573,2.223137617111206,-0.128946453332901
-1.4711970090866089,2.282196044921875,-0.13697727024555206
-1.4396220445632935,2.2696568965911865,-0.14076077938079834
-1.4223804473876953,2.2801742553710938,-0.14596514403820038
-1.4125056266784668,2.2997353076934814,-0.15142837166786194
-1.395639181137085,2.3096890449523926,-0.15624864399433136
-1.3984018564224243,2.353161334991455,-0.16338998079299927
-1.385725736618042,2.3693604469299316,-0.1685093641281128
-1.375986933708191,2.3926947116851807,-0.17422214150428772
-1.3428666591644287,2.3753387928009033,-0.1768656224012375
-1.3334726095199585,2.398145914077759,-0.18233732879161835
-1.3202840089797974,2.413984775543213,-0.18723726272583008
-1.3062723875045776,2.430107355117798,-0.19212593138217926
-1.2973778247833252,2.4565701484680176,-0.19791372120380402
-1.2836836576461792,2.4721946716308594,-0.20269139111042023
-1.280045986175537,2.5087709426879883,-0.20919269323349
-1.2651762962341309,2.5246658325195312,-0.21399396657943726
-1.240209937095642,2.5193188190460205,-0.21692362427711487
-1.17646062374115,2.433077096939087,-0.21274137496948242
-1.162179946899414,2.448218584060669,-0.21717482805252075
-1.1706812381744385,2.5127179622650146,-0.2260650396347046
-1.1771489381790161,2.573702335357666,-0.23470817506313324
-1.1590585708618164,2.581547498703003,-0.23855406045913696
-1.1544461250305176,2.621584415435791,-0.24530194699764252
-1.127413272857666,2.611781597137451,-0.24746304750442505
-1.1150199174880981,2.6336569786071777,-0.25250813364982605
-1.1010103225708008,2.6518337726593018,-0.2572174370288849
-1.0848315954208374,2.666550397872925,-0.26146140694618225
-1.1016168594360352,2.7642741203308105,-0.2739609181880951
-1.078911542892456,2.7645022869110107,-0.2768935561180115
-1.0567655563354492,2.7643609046936035,-0.27971363067626953
-1.036989450454712,2.7714946269989014,-0.2831176519393921
-1.027785301208496,2.8077194690704346,-0.28951945900917053
-1.015769362449646,2.8365278244018555,-0.2951832711696625
-1.0007189512252808,2.857994318008423,-0.30014702677726746
-0.9867661595344543,2.883047342300415,-0.3053484559059143
-0.9711143970489502,2.9044113159179688,-0.31013837456703186
-0.9577314853668213,2.93304443359375,-0.31573861837387085
-0.9466229677200317,2.9689459800720215,-0.32214847207069397
-0.9299724102020264,2.99013352394104,-0.3269723057746887
-0.9165818095207214,3.0223631858825684,-0.3328453004360199
-0.9016778469085693,3.05081844329834,-0.338357150554657
-0.8846006393432617,3.0716493129730225,-0.343032568693161
-0.8725670576095581,3.1110680103302,-0.3498326241970062
-0.8546288013458252,3.1318302154541016,-0.3543393313884735
-0.8419621586799622,3.175121784210205,-0.3614708185195923
-0.8263931274414062,3.2069602012634277,-0.36730483174324036
-0.8077943325042725,3.227381944656372,-0.3718577027320862
-0.797984778881073,3.2854597568511963,-0.38067886233329773
-0.7783405184745789,3.305821418762207,-0.3850224018096924
-0.7606356739997864,3.3375015258789062,-0.39076292514801025
-0.7372846007347107,3.3424336910247803,-0.39335474371910095
-0.47514256834983826,2.227668046951294,-0.26351335644721985
-0.4625477194786072,2.2459840774536133,-0.2668512165546417
-0.4376266300678253,2.2033445835113525,-0.26292091608047485
-0.43206432461738586,2.25958251953125,-0.2708231210708618
-0.4211989641189575,2.289067506790161,-0.2755458652973175
-0.3910103440284729,2.2115678787231445,-0.26730164885520935
-0.3592284023761749,2.118513345718384,-0.2569500505924225
-0.34557387232780457,2.12849760055542,-0.2590704560279846
-0.3429321348667145,2.211228847503662,-0.27010613679885864
-0.3320707678794861,2.2441015243530273,-0.27509430050849915
-0.31855496764183044,2.261591911315918,-0.27806270122528076
-0.2965354323387146,2.2175259590148926,-0.27338480949401855
-0.2746800482273102,2.1694204807281494,-0.26818913221359253
-0.2632467746734619,2.201958656311035,-0.27296608686447144
-0.2476351261138916,2.203646183013916,-0.2739560306072235
-0.23060351610183716,2.1898114681243896,-0.27276360988616943
-0.21300064027309418,2.1681339740753174,-0.2705959975719452
-0.19926850497722626,2.184920310974121,-0.27323898673057556
-0.3532070219516754,4.1946516036987305,-0.5256404876708984
-0.3223182260990143,4.181429862976074,-0.5249615907669067
-0.2931247353553772,4.183465957641602,-0.5258558392524719
-0.3181098699569702,5.044015407562256,-0.6348250508308411
-0.2834150791168213,5.053711891174316,-0.6368754506111145
-0.2465514987707138,5.020586967468262,-0.6335545778274536
-0.20808584988117218,4.952412128448486,-0.6255137324333191
-0.17520585656166077,5.000158786773682,-0.6318568587303162
-0.14014838635921478,4.99345064163208,-0.6313517093658447
-0.10429394990205765,4.940001487731934,-0.6249619126319885
-0.06986170262098312,4.936673641204834,-0.6249392032623291
-0.034578826278448105,4.890539169311523,-0.6190727949142456
-0.0005495203076861799,4.859671115875244,-0.6150511503219604
0.033062078058719635,4.8246917724609375,-0.6105402112007141
0.06648131459951401,4.816607475280762,-0.6094631552696228
0.10043203830718994,4.839291572570801,-0.6122882962226868
0.13317090272903442,4.8075690269470215,-0.6077142953872681
0.1673746258020401,4.8143391609191895,-0.6080294251441956
0.175990492105484,4.216821670532227,-0.5321245789527893
0.20137587189674377,4.134275913238525,-0.5213005542755127
0.21938742697238922,3.939375162124634,-0.49622663855552673
0.24459393322467804,3.9030654430389404,-0.4908527135848999
0.2711346447467804,3.8858964443206787,-0.4879063665866852
0.2969647943973541,3.868581533432007,-0.4849853813648224
0.32386136054992676,3.8665454387664795,-0.48400625586509705
0.34753602743148804,3.8296122550964355,-0.4784488081932068
0.3733091354370117,3.819571018218994,-0.4760870337486267
0.40222883224487305,3.836300849914551,-0.4770638942718506
0.4267743229866028,3.8143184185028076,-0.4732626974582672
0.4514598846435547,3.796032428741455,-0.46995386481285095
0.47776681184768677,3.7930264472961426,-0.468214213848114
0.503005862236023,3.7821624279022217,-0.4654523432254791
0.5307340025901794,3.7864294052124023,-0.4645501971244812
0.5548154711723328,3.7675209045410156,-0.4608483910560608
0.579792857170105,3.7561371326446533,-0.45805567502975464
0.6032796502113342,3.7369911670684814,-0.4539923369884491
0.6291075944900513,3.7329957485198975,-0.45179837942123413
0.6502720713615417,3.7020676136016846,-0.4463745653629303
0.6764931082725525,3.697634696960449,-0.4441421926021576
0.7021382451057434,3.6931328773498535,-0.4417904019355774
0.727628231048584,3.6885015964508057,-0.43922868371009827
0.753057599067688,3.6836979389190674,-0.4366697371006012
0.7754782438278198,3.663484811782837,-0.43229472637176514
0.8031373023986816,3.665775775909424,-0.4305618703365326
0.8250643014907837,3.6453208923339844,-0.4259501099586487
0.8466882705688477,3.6247551441192627,-0.42129281163215637
0.8699429035186768,3.6115949153900146,-0.4175252616405487
0.8951274752616882,3.605771780014038,-0.41461271047592163
0.9206410646438599,3.599688768386841,-0.4115881621837616
0.9414736032485962,3.5786070823669434,-0.4066551625728607
0.980334997177124,3.624871015548706,-0.409365177154541
1.0085854530334473,3.6295759677886963,-0.4073420763015747
1.2044328451156616,4.220397472381592,-0.4706740379333496
1.2417094707489014,4.238382339477539,-0.46942761540412903
1.260753870010376,4.196727275848389,-0.4615372121334076
1.291892170906067,4.195836544036865,-0.4581683576107025
1.3165175914764404,4.172343730926514,-0.4523077607154846
1.350351333618164,4.178318977355957,-0.4496115744113922
1.3819304704666138,4.176665306091309,-0.4457729458808899
1.4055956602096558,4.152835369110107,-0.439655065536499
1.429312825202942,4.1287665367126465,-0.43351858854293823
1.4607338905334473,4.126486301422119,-0.4296736419200897
1.4864426851272583,4.109525680541992,-0.4241142272949219
1.517235517501831,4.107048034667969,-0.4200059473514557
1.5459916591644287,4.096817493438721,-0.4150255620479584
1.5690220594406128,4.071887016296387,-0.40859851241111755
1.5914676189422607,4.046957969665527,-0.4021081328392029
1.6161631345748901,4.029287338256836,-0.3962443768978119
1.6495264768600464,4.033066749572754,-0.3925011456012726
1.675231695175171,4.014549255371094,-0.38641947507858276
1.7670741081237793,4.153712272644043,-0.3954140245914459
2.004258632659912,4.624175071716309,-0.4351099729537964
1.9995170831680298,4.529129981994629,-0.4211782217025757
2.0055060386657715,4.458863735198975,-0.40960031747817993
2.0094869136810303,4.384959697723389,-0.3977152705192566
2.0868775844573975,4.474145889282227,-0.40051132440567017
2.1455271244049072,4.5202860832214355,-0.3992800712585449
2.1837480068206787,4.519848823547363,-0.3937125504016876
2.2255117893218994,4.5260820388793945,-0.38865238428115845
2.2495813369750977,4.497360706329346,-0.38034382462501526
2.290513277053833,4.503479480743408,-0.3750866949558258
2.3183507919311523,4.481042861938477,-0.36725273728370667
2.3620123863220215,4.48961877822876,-0.3619106411933899
1.7196913957595825,3.2164993286132812,-0.25486892461776733
1.7376716136932373,3.198373317718506,-0.24899859726428986
1.7415558099746704,3.1522367000579834,-0.24078084528446198
1.761092185974121,3.1373095512390137,-0.23504456877708435
1.7993847131729126,3.156364917755127,-0.23178932070732117
1.3676741123199463,2.3616597652435303,-0.16981805860996246
0.9451736211776733,1.606322169303894,-0.11298150569200516
0.9519942998886108,1.5934226512908936,-0.10948328673839569
0.9585452675819397,1.5805784463882446,-0.10604870319366455
0.9737059473991394,1.5806615352630615,-0.10334895551204681
0.9884898662567139,1.5808703899383545,-0.10062813013792038
0.9989096522331238,1.5745054483413696,-0.09747583419084549
1.0015288591384888,1.5545142889022827,-0.09332399070262909
1.016324758529663,1.554409384727478,-0.09039542078971863
1.026455044746399,1.547927975654602,-0.08708672970533371
1.0327270030975342,1.5345449447631836,-0.08324763178825378
1.051871657371521,1.540614128112793,-0.0803932249546051
2.552811861038208,3.6869709491729736,-0.18456894159317017
2.5782694816589355,3.669661045074463,-0.17545528709888458
2.597733736038208,3.6467535495758057,-0.16603480279445648
2.635100841522217,3.649188756942749,-0.15758578479290009
2.6602306365966797,3.6313321590423584,-0.14755356311798096
2.6947360038757324,3.630535840988159,-0.13818016648292542
2.6347408294677734,3.6971001625061035,0.2523198425769806
2.607381820678711,3.715792655944824,0.2617553472518921
2.591296672821045,3.7548158168792725,0.2725710868835449
1.0586895942687988,1.5573750734329224,0.11604736000299454
1.0556654930114746,1.5779608488082886,0.12050573527812958
1.0391212701797485,1.5793125629425049,0.12348085641860962
1.0319902896881104,1.5930231809616089,0.1272185742855072
1.0201435089111328,1.6003822088241577,0.13036930561065674
0.989200234413147,1.578195333480835,0.13104116916656494
0.9839848875999451,1.594961404800415,0.13476122915744781
0.9725378751754761,1.601726770401001,0.1375875324010849
0.9601208567619324,1.6089550256729126,0.14042910933494568
0.9481236338615417,1.615813970565796,0.14316222071647644
1.3710895776748657,2.3742613792419434,0.21330071985721588
1.8248131275177002,3.213496208190918,0.2925408184528351
1.7645900249481201,3.162048101425171,0.29154831171035767
1.7635447978973389,3.215571641921997,0.3001804053783417
1.75758957862854,3.2582614421844482,0.30769383907318115
1.7409708499908447,3.284372091293335,0.31355470418930054
2.3580260276794434,4.5292816162109375,0.4369755685329437
2.3319928646087646,4.559643268585205,0.44439342617988586
2.299419641494751,4.575575351715088,0.4503384828567505
2.2664194107055664,4.591446399688721,0.45605525374412537
2.2357370853424072,4.6145548820495605,0.4623580873012543
2.2049081325531006,4.637417793273926,0.46866512298583984
2.169080972671509,4.645161151885986,0.47325849533081055
2.1364359855651855,4.659724712371826,0.47855284810066223
2.1046860218048096,4.682151794433594,0.4844271242618561
2.071747064590454,4.700544357299805,0.4898582994937897
2.036322832107544,4.711246013641357,0.4944366216659546
1.7787117958068848,4.195107460021973,0.44326964020729065
1.7175390720367432,4.131805896759033,0.4394308030605316
1.6838194131851196,4.136842727661133,0.4426656663417816
1.6563879251480103,4.155850410461426,0.447374552488327
1.6296532154083252,4.174339771270752,0.4519822895526886
1.6004811525344849,4.1852030754089355,0.4557455778121948
1.5679795742034912,4.188793659210205,0.4585939943790436
1.5463138818740845,4.22542667388916,0.46493855118751526
1.511690378189087,4.225175857543945,0.4672139585018158
1.4854696989059448,4.246437072753906,0.47184544801712036
1.4557605981826782,4.2563395500183105,0.4752056300640106
1.4257276058197021,4.266129016876221,0.4784686863422394
1.399106502532959,4.290929794311523,0.4832284450531006
1.3680617809295654,4.30058479309082,0.4862789809703827
1.339620590209961,4.317320823669434,0.4901353716850281
1.3117097616195679,4.333662033081055,0.49393343925476074
1.2813963890075684,4.342383861541748,0.49689316749572754
1.2523353099822998,4.358630657196045,0.5004029273986816
1.2266967296600342,4.389797687530518,0.5056804418563843
1.1971163749694824,4.405696392059326,0.5092096328735352
1.1662952899932861,4.4136552810668945,0.51180100440979
1.1355078220367432,4.421376705169678,0.5143849849700928
1.1081128120422363,4.4440436363220215,0.518556535243988
1.0766702890396118,4.455493927001953,0.5212674140930176
1.0465871095657349,4.470367431640625,0.5243845582008362
1.016615629196167,4.484976768493652,0.5274902582168579
0.9886491298675537,4.506860733032227,0.5314626693725586
0.9507657885551453,4.4830169677734375,0.530063807964325
0.7993988990783691,3.907912254333496,0.4630603492259979
0.7498067021369934,3.80292010307312,0.45152556896209717
0.7227300405502319,3.8079774379730225,0.45305371284484863
0.8339106440544128,4.568465232849121,0.5446553230285645
0.8060635924339294,4.5968804359436035,0.5491883754730225
0.7741121053695679,4.606084823608398,0.5514689087867737
0.7439265251159668,4.6266021728515625,0.5547284483909607
0.7100049257278442,4.623909950256348,0.5552330017089844
0.6795281767845154,4.6439971923828125,0.558502197265625
0.6491421461105347,4.66383695602417,0.5617660880088806
0.6171067953109741,4.675835609436035,0.5641282796859741
0.5863829851150513,4.695258140563965,0.5673527717590332
0.5542098879814148,4.706851959228516,0.5692979693412781
0.5231318473815918,4.729794502258301,0.5726481080055237
0.4906100332736969,4.740952968597412,0.5746023058891296
0.45895153284072876,4.759583950042725,0.5774890184402466
0.4266541302204132,4.778036594390869,0.5803945064544678
0.3952755033969879,4.803964614868164,0.5841737985610962
0.36274605989456177,4.822012901306152,0.5866506695747375
0.32998284697532654,4.839840412139893,0.5891313552856445
0.2967507839202881,4.853573799133301,0.5911444425582886
0.26272013783454895,4.863227367401123,0.5926958322525024
0.22996819019317627,4.8881049156188965,0.5961267352104187
0.1965625137090683,4.90501594543457,0.5985835194587708
0.16256089508533478,4.913999557495117,0.5996920466423035
0.12884792685508728,4.938251972198486,0.6026933193206787
0.09409666806459427,4.958406925201416,0.6052259802818298
0.05938798561692238,4.943412780761719,0.6034964323043823
0.012449612841010094,2.454394817352295,0.2996990382671356
-0.004385898821055889,2.334211826324463,0.2850987911224365
-0.019960157573223114,2.2604713439941406,0.27598100900650024
-0.035590704530477524,2.2370266914367676,0.2730170786380768
-0.05096212401986122,2.228986978530884,0.27194976806640625
-0.06668581068515778,2.2363455295562744,0.27277427911758423
-0.07707647979259491,2.0963454246520996,0.25564175844192505
-0.09096895903348923,2.080277442932129,0.2536386251449585
-0.10909909754991531,2.1532115936279297,0.2623322904109955
-0.12290772050619125,2.1292004585266113,0.25919586420059204
-0.1358882039785385,2.101247549057007,0.2556004226207733
-0.15157990157604218,2.1157615184783936,0.25718358159065247
-0.16144400835037231,2.052835702896118,0.24936902523040771
-0.17639648914337158,2.059424877166748,0.2500153183937073
-0.18765421211719513,2.023432493209839,0.2453649491071701
-0.20277713239192963,2.0337212085723877,0.246309295296669
-0.20982269942760468,1.9667690992355347,0.23791828751564026
-0.23700135946273804,2.0847856998443604,0.2519065737724304
-0.2547351121902466,2.1100997924804688,0.25468432903289795
-0.5122494697570801,4.005008697509766,0.4828755259513855
-0.5341429114341736,3.9592397212982178,0.47661399841308594
-0.5569372177124023,3.924907684326172,0.47167879343032837
-0.5764293074607849,3.8712642192840576,0.46446114778518677
-0.5983589887619019,3.836676836013794,0.45956316590309143
-0.6198848485946655,3.7980358600616455,0.45419585704803467
-0.6397739052772522,3.755533218383789,0.4484158158302307
-0.6587823033332825,3.7130203247070312,0.44242972135543823
-0.6778359413146973,3.6742658615112305,0.4368506371974945
-0.6956973671913147,3.631603956222534,0.4308449625968933
-0.7176534533500671,3.6116812229156494,0.4275667667388916
-0.7345831990242004,3.564884662628174,0.42111700773239136
-0.7496461272239685,3.5143203735351562,0.41428035497665405
-0.7661262154579163,3.475205659866333,0.40858781337738037
-0.7863343954086304,3.4549708366394043,0.40510329604148865
-0.8116245269775391,3.4572904109954834,0.40428468585014343
-0.8221451640129089,3.395134449005127,0.39592963457107544
-0.8382794857025146,3.3593904972076416,0.3907078504562378
-0.857761800289154,3.3386385440826416,0.3872527778148651
-0.8744553327560425,3.3104445934295654,0.3827030062675476
-0.8877869248390198,3.2709264755249023,0.37688148021698
-0.9020111560821533,3.23502254486084,0.3714989423751831
-0.9265626072883606,3.236377000808716,0.37041619420051575
-0.9402925372123718,3.200272560119629,0.3650689721107483
-0.955595076084137,3.1716396808624268,0.3605152666568756
-0.9690030813217163,3.1393728256225586,0.3554288148880005
-0.9882259964942932,3.125473737716675,0.3524298071861267
-1.0023126602172852,3.0967397689819336,0.34780153632164
-1.0140749216079712,3.060431480407715,0.3423316478729248
-1.0291227102279663,3.035141944885254,0.33813267946243286
-1.0521620512008667,3.035714626312256,0.33662858605384827
-1.0570255517959595,2.984869956970215,0.32942143082618713
-1.077438235282898,2.9778225421905518,0.3270608186721802
-1.0926587581634521,2.955967426300049,0.32307812571525574
-1.1036441326141357,2.9230847358703613,0.3179168105125427
-1.1124534606933594,2.8867146968841553,0.3123105466365814
-1.1147425174713135,2.8360462188720703,0.30511757731437683
-1.1312105655670166,2.821415424346924,0.3018150329589844
-1.1461576223373413,2.8030519485473633,0.29812952876091003
-1.159727692604065,2.780895948410034,0.29404187202453613
-1.1468411684036255,2.698005199432373,0.2835279703140259
-1.1432124376296997,2.640604019165039,0.27566221356391907
-1.157979965209961,2.625938653945923,0.27228009700775146
-1.1727980375289917,2.611105442047119,0.268882691860199
-1.1975479125976562,2.617245674133301,0.2676140367984772
-1.208893895149231,2.595154047012329,0.26339447498321533
-1.2428407669067383,2.6224725246429443,0.2640926241874695
-1.253843903541565,2.600257158279419,0.2597629427909851
-1.2786238193511963,2.6058058738708496,0.25818172097206116
-1.2776727676391602,2.5588138103485107,0.25140276551246643
-1.2877167463302612,2.536628007888794,0.2469930201768875
-1.2937198877334595,2.5076215267181396,0.2419205904006958
-1.3104281425476074,2.4992268085479736,0.23884016275405884
-1.313557505607605,2.4626564979553223,0.23295022547245026
-1.3230562210083008,2.4401702880859375,0.2284405678510666
-1.3297094106674194,2.414656400680542,0.2235831320285797
-1.3455849885940552,2.4061460494995117,0.22032734751701355
-1.3545622825622559,2.3835155963897705,0.215669646859169
-1.3869949579238892,2.4011571407318115,0.2145697921514511
-1.3750674724578857,2.3453218936920166,0.20687292516231537
-1.4063068628311157,2.363368511199951,0.2057223916053772
-1.4266496896743774,2.3605759143829346,0.20256845653057098
-1.443009853363037,2.350935220718384,0.1987651139497757
-1.4420170783996582,2.31522798538208,0.19264723360538483
-1.4445658922195435,2.2863426208496094,0.18721051514148712
-1.4521453380584717,2.2633674144744873,0.18207572400569916
-1.4715957641601562,2.2604031562805176,0.1785159558057785
-1.4710813760757446,2.228433847427368,0.1726476103067398
-1.4559416770935059,2.173287868499756,0.16488099098205566
-1.457777738571167,2.144151210784912,0.15911419689655304
-1.4757976531982422,2.1415834426879883,0.1552707403898239
-1.483130693435669,2.122575044631958,0.15012384951114655
-1.4979465007781982,2.112478494644165,0.14535966515541077
-1.5069043636322021,2.096827983856201,0.14009039103984833
-1.5115426778793335,2.0745389461517334,0.13429014384746552
-1.5116794109344482,2.0457401275634766,0.1278485655784607
-1.4878435134887695,2.0844318866729736,-0.08872326463460922
-1.4817352294921875,2.1076548099517822,-0.09476195275783539
-1.494340419769287,2.1604714393615723,-0.10226493328809738
-1.4592951536178589,2.1416728496551514,-0.10599011927843094
-1.4715766906738281,2.1943531036376953,-0.11323455721139908
-1.4681224822998047,2.224506139755249,-0.1193600669503212
-1.4606518745422363,2.247786521911621,-0.12501201033592224
-1.4394642114639282,2.2518818378448486,-0.12952277064323425
-1.4229602813720703,2.262071132659912,-0.13425017893314362
-1.415228009223938,2.2850191593170166,-0.13958872854709625
-1.4083211421966553,2.3118674755096436,-0.14519518613815308
-1.399124264717102,2.3353590965270996,-0.15064087510108948
-1.3946037292480469,2.364982843399048,-0.1563211977481842
-1.361481785774231,2.3479204177856445,-0.15886619687080383
-1.3673018217086792,2.3982529640197754,-0.16598106920719147
-1.3352067470550537,2.3802802562713623,-0.1682143360376358
-1.3252521753311157,2.403362512588501,-0.1733667552471161
-1.314977765083313,2.426450252532959,-0.17847877740859985
-1.3049473762512207,2.4492416381835938,-0.1835184097290039
-1.2931381464004517,2.46840500831604,-0.18826575577259064
-1.2786335945129395,2.484416961669922,-0.19272664189338684
-1.2741742134094238,2.5213704109191895,-0.198927104473114
-1.2633707523345947,2.543910026550293,-0.20386765897274017
-1.2162189483642578,2.4929943084716797,-0.20283663272857666
-1.1643670797348022,2.4312238693237305,-0.20071262121200562
-1.1600276231765747,2.4674789905548096,-0.2066168189048767
-1.1835616827011108,2.5636374950408936,-0.21758702397346497
-1.1890740394592285,2.6250412464141846,-0.2257736474275589
-1.1463713645935059,2.5798730850219727,-0.22469423711299896
-1.1449743509292603,2.62697696685791,-0.23162516951560974
-1.112783670425415,2.602405071258545,-0.23219162225723267
-1.0822311639785767,2.581223964691162,-0.23293310403823853
-1.0869395732879639,2.6463987827301025,-0.24148455262184143
-1.1203056573867798,2.7837815284729004,-0.2567566931247711
-1.1122722625732422,2.820183515548706,-0.2628185451030731
-1.0923553705215454,2.8276453018188477,-0.266158789396286
-1.0789445638656616,2.853289842605591,-0.27114853262901306
-1.0689669847488403,2.8899335861206055,-0.2772786021232605
-1.0434787273406982,2.8823800086975098,-0.2790892720222473
-1.0362465381622314,2.9259769916534424,-0.2858491539955139
-1.0077011585235596,2.910945415496826,-0.28674766421318054
-0.9993825554847717,2.9545955657958984,-0.29345080256462097
-0.9733457565307617,2.946589946746826,-0.2950640916824341
-0.9503128528594971,2.9456264972686768,-0.29732760787010193
-0.9421850442886353,2.9928174018859863,-0.3043062388896942
-0.9253658652305603,3.0140411853790283,-0.3086729049682617
-0.9107338786125183,3.0425586700439453,-0.3138073682785034
-0.8916531801223755,3.0560126304626465,-0.3173983693122864
-0.8761605024337769,3.0844521522521973,-0.32250937819480896
-0.8677256107330322,3.139010429382324,-0.33024173974990845
-0.8494798541069031,3.159816265106201,-0.334480881690979
-0.8333008885383606,3.1879465579986572,-0.3395039141178131
-0.8196645379066467,3.2272891998291016,-0.345771461725235
-0.8001827001571655,3.247918128967285,-0.3498515188694
-0.7862372994422913,3.2910163402557373,-0.356350839138031
-0.7709798812866211,3.3302559852600098,-0.3624800145626068
-0.7511502504348755,3.3504440784454346,-0.36656588315963745
-0.7392088174819946,3.4085028171539307,-0.37473565340042114
-0.7187029123306274,3.432483434677124,-0.3790484070777893
-0.6991095542907715,3.4600601196289062,-0.3837672472000122
-0.6808748245239258,3.4951064586639404,-0.3893437087535858
-0.6715196371078491,3.5796663761138916,-0.40050649642944336
-0.408629834651947,2.2658352851867676,-0.25445976853370667
-0.39439597725868225,2.2800393104553223,-0.25698038935661316
-0.3650262951850891,2.20219087600708,-0.24909499287605286
-0.34542468190193176,2.1777102947235107,-0.24720671772956848
-0.34596022963523865,2.2835569381713867,-0.2601383924484253
-0.3210585415363312,2.2243492603302,-0.2540939152240753
-0.31360235810279846,2.2880001068115234,-0.2621098458766937
-0.2850964069366455,2.193805456161499,-0.2520294785499573
-0.27312248945236206,2.222594738006592,-0.256065309047699
-0.25671201944351196,2.2166378498077393,-0.2560330927371979
-0.43454787135124207,3.9967966079711914,-0.462583065032959
-0.4116498827934265,4.049781799316406,-0.46968188881874084
-0.38729044795036316,4.0988054275512695,-0.476380854845047
-0.364498496055603,4.166963577270508,-0.4853357672691345
-0.3301224410533905,4.1035332679748535,-0.47872206568717957
-0.30399128794670105,4.1404643058776855,-0.4836663007736206
-0.273247092962265,4.1152849197387695,-0.4813797175884247
-0.24436555802822113,4.120882987976074,-0.4827215075492859
-0.21569812297821045,4.12238073348999,-0.48359566926956177
-0.18507003784179688,4.081090927124023,-0.4790927469730377
-0.15810704231262207,4.120998859405518,-0.4840744137763977
-0.1289270520210266,4.106438159942627,-0.48268264532089233
-0.09853523224592209,4.0528998374938965,-0.4767327606678009
-0.07072078436613083,4.076713562011719,-0.4798738360404968
-0.0423462949693203,4.077108383178711,-0.479862242937088
-0.013796938583254814,4.026872634887695,-0.4739152789115906
0.014270443469285965,4.038511276245117,-0.475273460149765
0.042611055076122284,4.018914222717285,-0.4729790985584259
0.07064492255449295,4.026293754577637,-0.473770409822464
0.09747402369976044,3.9792182445526123,-0.46784883737564087
0.12435105443000793,3.9552321434020996,-0.4646715521812439
0.15078401565551758,3.927187204360962,-0.4610438048839569
0.17844827473163605,3.9338462352752686,-0.46151381731033325
0.20546135306358337,3.9170620441436768,-0.45906245708465576
0.23218470811843872,3.90789532661438,-0.4573049247264862
0.2577627897262573,3.8830602169036865,-0.453741192817688
0.2847428619861603,3.8812739849090576,-0.45289579033851624
0.3104996979236603,3.8638265132904053,-0.45024651288986206
0.3370884358882904,3.853938341140747,-0.4482234716415405
0.3630698323249817,3.8439266681671143,-0.44608163833618164
0.38889673352241516,3.833742618560791,-0.4439462125301361
0.41347184777259827,3.811797618865967,-0.4404723644256592
0.4399870038032532,3.8089709281921387,-0.43923383951187134
0.46683117747306824,3.8059580326080322,-0.4376383125782013
0.49216458201408386,3.79512357711792,-0.4351373612880707
0.5173702239990234,3.7841198444366455,-0.4326429069042206
