X,Y,Z
2.3716800212860107,3.629547119140625,-0.3219265341758728
2.387300729751587,3.6017842292785645,-0.30730965733528137
2.4033172130584717,3.5735037326812744,-0.29240235686302185
2.4460883140563965,3.5833323001861572,-0.2801722586154938
2.4523820877075195,3.5422613620758057,-0.26376423239707947
2.4810352325439453,3.532853126525879,-0.2495633065700531
2.5237808227539062,3.5418808460235596,-0.23604655265808105
2.5194244384765625,3.4883739948272705,-0.21846646070480347
2.5711171627044678,3.509636402130127,-0.20473457872867584
2.1712207794189453,2.9229419231414795,-0.15754325687885284
2.7959489822387695,3.9306931495666504,0.5880873799324036
2.755358934402466,3.9378604888916016,0.6026307344436646
2.7575883865356445,4.00461483001709,0.6258921027183533
2.700225591659546,3.9804940223693848,0.6341188549995422
2.6795332431793213,4.015403747558594,0.6512994766235352
2.647594690322876,4.034173965454102,0.6657591462135315
2.6222100257873535,4.0577216148376465,0.6801746487617493
2.5836381912231445,4.061880588531494,0.6909728646278381
2.576272964477539,4.119166851043701,0.7105725407600403
2.545081853866577,4.136354923248291,0.7230215072631836
2.5273497104644775,4.172253131866455,0.7383460998535156
2.4875404834747314,4.176033973693848,0.7478604316711426
2.4589827060699463,4.199790954589844,0.7605801224708557
2.427424669265747,4.216084957122803,0.7717264294624329
2.408600091934204,4.251527786254883,0.7860833406448364
2.3772122859954834,4.267204284667969,0.7966160178184509
2.2679550647735596,4.145061492919922,0.7810037732124329
2.240018844604492,4.167105197906494,0.7921856045722961
2.2030227184295654,4.1675944328308105,0.7988719940185547
2.190981864929199,4.215591907501221,0.8147379755973816
2.1730494499206543,4.257725238800049,0.8290279507637024
2.1401100158691406,4.272595405578613,0.8381625413894653
2.111975908279419,4.293434143066406,0.8482389450073242
2.086385726928711,4.317073345184326,0.858735203742981
2.052074432373047,4.323309898376465,0.8657277226448059
2.032496452331543,4.364883899688721,0.8793088793754578
1.9964438676834106,4.371429920196533,0.8859083652496338
1.9764689207077026,4.412575721740723,0.8995353579521179
1.9930616617202759,4.533867835998535,0.9294601082801819
1.974565029144287,4.578006267547607,0.9437410235404968
1.943468451499939,4.59812068939209,0.9525009989738464
1.918047308921814,4.632187366485596,0.9642322659492493
3.3921258449554443,8.365702629089355,1.7499343156814575
1.8604817390441895,4.681504249572754,0.9838151931762695
1.8274070024490356,4.693040370941162,0.9908173680305481
1.8069167137145996,4.740594863891602,1.0050384998321533
1.7719777822494507,4.75239372253418,1.011502742767334
1.349456548690796,3.702638626098633,0.7912435531616211
1.3101571798324585,3.675062656402588,0.7883747220039368
1.2867774963378906,3.690401315689087,0.7946888208389282
1.655924677848816,4.857464790344238,1.0500178337097168
1.6167837381362915,4.857320785522461,1.0532804727554321
1.5935969352722168,4.907995700836182,1.067700982093811
1.550795555114746,4.896393775939941,1.0685802698135376
1.5061017274856567,4.873134136199951,1.0668139457702637
1.5203903913497925,5.043451309204102,1.107555627822876
1.4644060134887695,4.98314905166626,1.0976823568344116
1.439826250076294,5.032983779907227,1.1113924980163574
1.4088135957717896,5.064464092254639,1.1211931705474854
1.3551466464996338,5.010780334472656,1.112126111984253
1.2936474084854126,4.919437885284424,1.0945852994918823
1.2610186338424683,4.934774398803711,1.1007750034332275
1.2346725463867188,4.975822448730469,1.112777590751648
1.1999666690826416,4.991275787353516,1.1183809041976929
1.1657683849334717,5.006343364715576,1.1239196062088013
1.1364469528198242,5.043503761291504,1.1344927549362183
1.1057649850845337,5.072889804840088,1.1433515548706055
1.0726511478424072,5.0908308029174805,1.1496845483779907
1.0341516733169556,5.086240291595459,1.1510266065597534
1.0061103105545044,5.1338677406311035,1.1636369228363037
1.490915298461914,7.905139446258545,1.794323205947876
1.4256336688995361,7.865732192993164,1.7880029678344727
1.3796387910842896,7.930899143218994,1.805530309677124
0.6923520565032959,4.15390682220459,0.9471372365951538
0.6658207774162292,4.173122406005859,0.9530087113380432
0.6377404928207397,4.184691905975342,0.9570185542106628
0.6080867052078247,4.188687324523926,0.9588399529457092
0.5784081220626831,4.192471981048584,0.9606611132621765
0.5521668791770935,4.226316452026367,0.9694427847862244
0.5225726366043091,4.22966194152832,0.9712557792663574
0.4939380884170532,4.240354537963867,0.9748015999794006
0.46600809693336487,4.258421421051025,0.9800962209701538
0.4368484914302826,4.2688469886779785,0.9832277894020081
0.40312129259109497,4.233649730682373,0.9756676554679871
0.3707546591758728,4.213403701782227,0.9716039896011353
0.3429242670536041,4.238409519195557,0.9780133366584778
0.312915176153183,4.232832431793213,0.9774066209793091
0.2829504907131195,4.227046489715576,0.9767977595329285
0.2501690685749054,4.171655654907227,0.9647602438926697
0.22088095545768738,4.180812358856201,0.967033326625824
0.09095501154661179,1.9846149682998657,0.4591365158557892
0.15929687023162842,4.103400707244873,0.94954514503479
0.18408462405204773,5.781774997711182,1.3383193016052246
0.1443004310131073,5.801780700683594,1.3434065580368042
0.10389812290668488,5.840544700622559,1.3529170751571655
0.0637858659029007,5.886680603027344,1.363963007926941
0.023115625604987144,5.98216438293457,1.3858027458190918
-0.018516508862376213,5.982227325439453,1.3856010437011719
-0.06048722192645073,6.008637428283691,1.3915677070617676
-0.10340356081724167,6.030936241149902,1.396648645401001
-0.14523053169250488,6.030120849609375,1.3964457511901855
-0.18889328837394714,6.0860700607299805,1.4094561338424683
-0.23110327124595642,6.084761142730713,1.4088175296783447
-0.27452170848846436,6.113693714141846,1.4147393703460693
-0.18798014521598816,3.626093864440918,0.8386746048927307
-0.21037781238555908,3.5716421604156494,0.8256986141204834
-0.4085790812969208,6.202354431152344,1.4332859516143799
-0.45644238591194153,6.26416540145874,1.447047233581543
-0.5017781853675842,6.283877372741699,1.451147198677063
-0.556446373462677,6.409627437591553,1.4790785312652588
-0.5170864462852478,5.507701873779297,1.2697762250900269
-0.5527418851852417,5.481703281402588,1.2626936435699463
-0.692202627658844,6.420867443084717,1.4778187274932861
-0.7403720021247864,6.446658611297607,1.482601284980774
-0.7806388735771179,6.404045104980469,1.4717251062393188
-0.8186537623405457,6.342205047607422,1.45650053024292
-0.8550414443016052,6.28429651260376,1.4412895441055298
-0.8966001868247986,6.267662525177002,1.435621976852417
-0.9436243176460266,6.288428783416748,1.4385846853256226
-0.99415123462677,6.327637672424316,1.4458060264587402
-1.047057867050171,6.370041847229004,1.45375657081604
-1.1005200147628784,6.415892124176025,1.4625663757324219
-1.1536428928375244,6.457698345184326,1.4701534509658813
-1.2096232175827026,6.514322757720947,1.4804648160934448
-1.258493423461914,6.5293145179748535,1.4813497066497803
-1.3189079761505127,6.6000237464904785,1.494902491569519
-1.371727705001831,6.6214118003845215,1.4972385168075562
-1.4259873628616333,6.649947643280029,1.501267671585083
-1.4657725095748901,6.611029148101807,1.4901427030563354
-1.4991257190704346,6.5499138832092285,1.4732977151870728
-1.5288664102554321,6.477581024169922,1.4538460969924927
-0.6822253465652466,2.8037900924682617,0.6279147267341614
-0.6950005292892456,2.773621082305908,0.6198359131813049
-0.7143422961235046,2.769216299057007,0.6175379157066345
-0.7258198857307434,2.7351455688476562,0.6086682677268982
-0.7557447552680969,2.7711410522460938,0.6152501702308655
-1.7321051359176636,6.184073448181152,1.3692104816436768
-1.7719314098358154,6.166157245635986,1.3615893125534058
-1.805111050605774,6.125978946685791,1.3491370677947998
-1.838097095489502,6.081586837768555,1.335739016532898
-1.8693504333496094,6.033380508422852,1.3216156959533691
-1.8970824480056763,5.973962783813477,1.3049331903457642
-1.928048014640808,5.933362007141113,1.2917743921279907
-1.9586098194122314,5.892577171325684,1.278670310974121
-1.9923375844955444,5.86251974105835,1.2679928541183472
-2.0208001136779785,5.8137664794921875,1.253231167793274
-2.0488548278808594,5.764820575714111,1.2385234832763672
-2.0859150886535645,5.7408223152160645,1.2290862798690796
-2.108752965927124,5.685098648071289,1.2122890949249268
-2.136354923248291,5.643630027770996,1.1986489295959473
-2.1772382259368896,5.637794494628906,1.1926569938659668
-2.236588716506958,5.673896312713623,1.1953473091125488
-2.30153226852417,5.719882488250732,1.199999213218689
-2.347018003463745,5.719677448272705,1.1947513818740845
-2.3736579418182373,5.677233695983887,1.1801797151565552
-2.4028351306915283,5.641723155975342,1.1671525239944458
-2.482590675354004,5.722047805786133,1.1779876947402954
-2.500491142272949,5.653254985809326,1.1578259468078613
-2.5247161388397217,5.6022443771362305,1.141561508178711
-2.559591054916382,5.579888820648193,1.130593180656433
-3.9346399307250977,8.430310249328613,1.6982098817825317
-2.629544734954834,5.538413047790527,1.1091512441635132
-2.655855178833008,5.493757247924805,1.093334436416626
-4.2161545753479,8.568934440612793,1.6947730779647827
-2.699727773666382,5.394776821136475,1.0599406957626343
-2.7287826538085938,5.36494255065918,1.0467076301574707
-2.775273561477661,5.369112014770508,1.0401368141174316
-2.784137010574341,5.297146797180176,1.0185834169387817
-2.8023712635040283,5.241688251495361,1.0001462697982788
-2.8585760593414307,5.261690139770508,0.9959185123443604
-2.8972785472869873,5.251472473144531,0.9856050610542297
-2.873732566833496,5.129970073699951,0.9546149969100952
-1.1984093189239502,2.1049954891204834,0.3881129026412964
-1.2059446573257446,2.083812713623047,0.3805631995201111
-1.204268217086792,2.049978733062744,0.3706267774105072
-1.2534409761428833,2.1025478839874268,0.37621796131134033
-2.9236464500427246,4.8307318687438965,0.8550617098808289
-2.9360015392303467,4.775714874267578,0.835654079914093
-3.0042498111724854,4.813046455383301,0.8319393396377563
-3.019434690475464,4.769275188446045,0.8140432238578796
-3.0474469661712646,4.744558334350586,0.799258291721344
-3.0454978942871094,4.6699018478393555,0.775595486164093
-3.0690438747406006,4.638297080993652,0.7590088248252869
-3.05888032913208,4.559078216552734,0.7343518137931824
-3.0681772232055664,4.508448600769043,0.714264988899231
-3.131406784057617,4.5333356857299805,0.705487072467804
-2.9057328701019287,4.149814605712891,0.6336942911148071
-2.8540420532226562,4.02244758605957,0.6023584008216858
-2.8788204193115234,3.997598648071289,0.5852326154708862
-2.9197165966033936,3.9990227222442627,0.5718972086906433
-2.906019926071167,3.929476261138916,0.5483456254005432
-2.482861280441284,3.4796485900878906,-0.23779639601707458
-2.434279680252075,3.4650790691375732,-0.2523159980773926
-2.877350330352783,4.157736778259277,-0.32023856043815613
-2.8585567474365234,4.197497844696045,-0.34083911776542664
-2.851820707321167,4.252275466918945,-0.36199212074279785
-2.8292248249053955,4.284465789794922,-0.3811109662055969
-2.8087031841278076,4.3241658210754395,-0.40133336186408997
-2.754448175430298,4.306559085845947,-0.41502055525779724
-2.741654872894287,4.354509353637695,-0.43487659096717834
-1.286769986152649,2.077486753463745,-0.21469612419605255
-2.705395460128784,4.43758487701416,-0.4733145833015442
-2.6767261028289795,4.462210655212402,-0.4906819760799408
-1.2208666801452637,2.0693776607513428,-0.23421941697597504
-2.6240553855895996,4.521210670471191,-0.5258528590202332
-2.599423408508301,4.551474571228027,-0.5431703329086304
-2.580937147140503,4.5957512855529785,-0.5622429847717285
-2.5555918216705322,4.63008975982666,-0.5804688930511475
-2.533670425415039,4.666708469390869,-0.5983390212059021
-2.5145010948181152,4.710299968719482,-0.6172377467155457
-2.4832992553710938,4.733555793762207,-0.6335196495056152
-2.4595770835876465,4.77007532119751,-0.651461124420166
-2.444227695465088,4.823718070983887,-0.6719234585762024
-2.3901150226593018,4.80109977722168,-0.6814178824424744
-1.078756332397461,2.2063400745391846,-0.3189195990562439
-1.0528249740600586,2.1921210289001465,-0.3224712312221527
-1.023931860923767,2.1706080436706543,-0.324810266494751
-1.0177732706069946,2.198153018951416,-0.3343855142593384
-1.0013916492462158,2.2046639919281006,-0.3409181833267212
-0.9998584985733032,2.2425425052642822,-0.35215166211128235
-0.982308566570282,2.2450709342956543,-0.3578944802284241
-0.9766858816146851,2.275989532470703,-0.36810705065727234
-0.9601743221282959,2.2819864749908447,-0.37436577677726746
-0.9465650320053101,2.294987440109253,-0.38180965185165405
-0.9301663637161255,2.300657033920288,-0.38794034719467163
-0.9220387935638428,2.3278234004974365,-0.3976179361343384
-0.9135953187942505,2.354947328567505,-0.4073929190635681
-0.899583637714386,2.3675403594970703,-0.41466036438941956
-0.8864312767982483,2.383760690689087,-0.4226737916469574
-0.8626958131790161,2.3709311485290527,-0.4252581298351288
-1.1128898859024048,3.1269216537475586,-0.5672649145126343
-1.0856834650039673,3.118809700012207,-0.5720909833908081
-1.0511871576309204,3.088624954223633,-0.5727631449699402
-1.0153964757919312,3.054694890975952,-0.5724019408226013
-0.9686781167984009,2.9837586879730225,-0.5648032426834106
-0.9602829217910767,3.029566764831543,-0.5792328715324402
-0.97857266664505,3.1634204387664795,-0.6108337044715881
-0.8029756546020508,2.6616694927215576,-0.518686830997467
-0.7796960473060608,2.651482343673706,-0.5214127898216248
-0.7605701684951782,2.655913829803467,-0.5270779132843018
-0.7397308349609375,2.6527247428894043,-0.5311508178710938
-0.7128692865371704,2.6272499561309814,-0.5304068326950073
-0.707900881767273,2.683091640472412,-0.5460652112960815
-0.7050884962081909,2.75006365776062,-0.5641902089118958
-0.6816257238388062,2.7390811443328857,-0.5665001273155212
-0.6451963782310486,2.6720826625823975,-0.5567487478256226
-0.614966094493866,2.6271488666534424,-0.5512757897377014
-0.5811905264854431,2.563293218612671,-0.5416841506958008
-0.5492019653320312,2.502866506576538,-0.5326418280601501
-0.524918258190155,2.4759104251861572,-0.5304725170135498
-0.5021207332611084,2.4525034427642822,-0.5286821722984314
-0.4744957983493805,2.40267276763916,-0.5211181044578552
-0.45334210991859436,2.382619619369507,-0.5199323296546936
-0.42903995513916016,2.3436431884765625,-0.514458417892456
-0.4057052731513977,2.3083395957946777,-0.5093863010406494
-0.3812783658504486,2.2615177631378174,-0.5016507506370544
-0.3575432300567627,2.2144930362701416,-0.4937792718410492
-0.3397196829319,2.201197385787964,-0.4933781325817108
-0.3165765404701233,2.15014386177063,-0.4839845597743988
-0.3012830317020416,2.1517810821533203,-0.4864642918109894
-0.28424349427223206,2.138170003890991,-0.4854687452316284
-0.2631259560585022,2.0904104709625244,-0.4766804873943329
-0.2485702633857727,2.091736078262329,-0.47867223620414734
-0.23315313458442688,2.0854132175445557,-0.47882696986198425
-0.21621842682361603,2.063833475112915,-0.47548186779022217
-0.1974911242723465,2.0232012271881104,-0.4677486717700958
-0.1806238740682602,1.9938441514968872,-0.4622788727283478
-0.16925302147865295,2.0250823497772217,-0.47066986560821533
-0.1551460176706314,2.0258960723876953,-0.4720284044742584
-0.14106561243534088,2.02660870552063,-0.4733838737010956
-0.12483798712491989,1.9969035387039185,-0.46747517585754395
-0.1118268370628357,2.0127110481262207,-0.4718928635120392
-0.09747973084449768,2.00563907623291,-0.4709724485874176
-0.08349381387233734,2.0060672760009766,-0.4718363583087921
-0.06924498826265335,1.9988141059875488,-0.47083738446235657
-0.0548618845641613,1.9915661811828613,-0.4694157540798187
-0.04044125974178314,1.965206503868103,-0.4635022282600403
-0.027040548622608185,1.984363317489624,-0.4683448076248169
-0.01316151861101389,1.9692120552062988,-0.4651127755641937
0.0005196509300731122,1.9654793739318848,-0.46410825848579407
0.014420467428863049,1.9654585123062134,-0.4639734625816345
0.027967525646090508,1.957739233970642,-0.46204674243927
0.041973043233156204,1.9765337705612183,-0.4663994610309601
0.054976001381874084,1.9497082233428955,-0.45962533354759216
0.06946606189012527,1.9760252237319946,-0.4652695953845978
0.0817645788192749,1.9414482116699219,-0.45660027861595154
0.09756139665842056,1.982750654220581,-0.46578800678253174
0.1113395169377327,1.9822343587875366,-0.4648946523666382
0.1215391680598259,1.9247279167175293,-0.45045244693756104
0.11151503026485443,1.590124249458313,-0.37137213349342346
0.12141365557909012,1.5743439197540283,-0.3669399917125702
0.13193769752979279,1.5660992860794067,-0.3641454577445984
0.14078499376773834,1.5426898002624512,-0.35761821269989014
0.15526962280273438,1.5798423290252686,-0.3651373088359833
0.2053433507680893,1.9501020908355713,-0.44938644766807556
0.22955165803432465,2.043607711791992,-0.4695064425468445
0.24992208182811737,2.0915889739990234,-0.47861188650131226
0.26642706990242004,2.105407238006592,-0.47989678382873535
0.28315240144729614,2.1190996170043945,-0.48114752769470215
0.29903513193130493,2.1251142024993896,-0.4806566834449768
0.31892257928848267,2.15750789642334,-0.48567482829093933
0.33663269877433777,2.1708743572235107,-0.48629552125930786
0.353036493062973,2.1766064167022705,-0.4852500259876251
0.3746170699596405,2.2123172283172607,-0.4908662438392639
0.3874397277832031,2.1952900886535645,-0.4844518005847931
0.4159284830093384,2.2645821571350098,-0.49689537286758423
0.43321627378463745,2.2698416709899902,-0.4952172338962555
0.464997261762619,2.346135139465332,-0.508901834487915
0.4860478639602661,2.366071939468384,-0.5100870728492737
0.5098053216934204,2.397101640701294,-0.513370931148529
0.5364853739738464,2.439136028289795,-0.5189256072044373
0.5578627586364746,2.4548187255859375,-0.5188062787055969
0.4145127236843109,1.7660936117172241,-0.37064313888549805
0.411618173122406,1.7005553245544434,-0.35421022772789
0.43097957968711853,1.7279996871948242,-0.35721826553344727
0.5012809038162231,1.951945424079895,-0.40045881271362305
0.528734564781189,2.0009853839874268,-0.40738120675086975
0.7391234040260315,2.719477891921997,-0.5489234924316406
0.7778133153915405,2.7855100631713867,-0.5575002431869507
0.805914580821991,2.8105833530426025,-0.5577167272567749
0.4811493456363678,1.6349610090255737,-0.32164353132247925
0.4926474988460541,1.6322227716445923,-0.31812620162963867
0.5043141841888428,1.6293562650680542,-0.31451907753944397
0.5216149687767029,1.6447551250457764,-0.31446078419685364
0.5225417017936707,1.6088056564331055,-0.30462446808815
0.5569003820419312,1.6751210689544678,-0.31395578384399414
0.5847670435905457,1.7192429304122925,-0.31885001063346863
0.6120520234107971,1.7594397068023682,-0.3228425681591034
0.605368971824646,1.7013334035873413,-0.3087579905986786
0.6318320035934448,1.7375829219818115,-0.3117997348308563
0.654751718044281,1.7627652883529663,-0.3126463294029236
1.5790526866912842,4.162911891937256,-0.7296300530433655
1.6224830150604248,4.189377784729004,-0.725446879863739
1.6653096675872803,4.21176815032959,-0.7201210856437683
1.6904325485229492,4.1911234855651855,-0.707388699054718
1.7198933362960815,4.180959224700928,-0.6964364647865295
1.7436068058013916,4.156210422515869,-0.6830275058746338
1.754696011543274,4.1029791831970215,-0.6649884581565857
1.4579458236694336,3.344646692276001,-0.5342178344726562
1.4876829385757446,3.349914789199829,-0.5272619128227234
1.5082732439041138,3.333665609359741,-0.5168351531028748
1.5317388772964478,3.324394702911377,-0.5074564218521118
1.5482637882232666,3.3010735511779785,-0.4958759844303131
1.571744680404663,3.291400194168091,-0.48621320724487305
1.595109462738037,3.2815563678741455,-0.47656571865081787
1.6129586696624756,3.261254072189331,-0.46538135409355164
1.6320267915725708,3.244454860687256,-0.4546913802623749
1.6547199487686157,3.2343053817749023,-0.44487640261650085
1.681309461593628,3.2306742668151855,-0.43581676483154297
1.7060191631317139,3.223452091217041,-0.4260527193546295
2.0995984077453613,3.9033632278442383,-0.5053761005401611
2.1233277320861816,3.8832621574401855,-0.49201062321662903
2.132067918777466,3.835679531097412,-0.4751826822757721
2.1221096515655518,3.7581894397735596,-0.4548709988594055
2.1444334983825684,3.7380404472351074,-0.4415341913700104
2.1945037841796875,3.764457941055298,-0.43339303135871887
2.2010011672973633,3.717010021209717,-0.41674283146858215
2.222276449203491,3.696671962738037,-0.4032368063926697
2.268254041671753,3.715707302093506,-0.39370375871658325
2.2746353149414062,3.667520761489868,-0.3765910565853119
2.299516201019287,3.6533210277557373,-0.3632720410823822
2.3243777751922607,3.6388676166534424,-0.3498634099960327
2.3417210578918457,3.6105000972747803,-0.3346576690673828
2.370619058609009,3.602187156677246,-0.32137051224708557
2.4080557823181152,3.6066524982452393,-0.3089315891265869
2.4160869121551514,3.564913749694824,-0.2920195460319519
2.440415143966675,3.549481153488159,-0.2773442566394806
2.4906411170959473,3.5727312564849854,-0.2655602693557739
2.4977991580963135,3.530722141265869,-0.24798132479190826
2.508239269256592,3.4956319332122803,-0.2308114469051361
2.5588297843933105,3.517843723297119,-0.21742136776447296
2.24076247215271,3.035971164703369,-0.17374522984027863
2.784285306930542,3.947350025177002,0.6274853348731995
2.760894775390625,3.9798779487609863,0.6465697288513184
2.718675136566162,3.978245496749878,0.6586897373199463
2.709552764892578,4.028609752655029,0.6794121265411377
2.6644060611724854,4.0282745361328125,0.691137969493866
2.6256959438323975,4.03276252746582,0.7028891444206238
2.6090304851531982,4.068770885467529,0.7197795510292053
2.597670078277588,4.119399070739746,0.7389070987701416
2.560472011566162,4.131095886230469,0.7512962222099304
2.534674882888794,4.153794765472412,0.764677107334137
2.5124480724334717,4.183039665222168,0.7792816162109375
2.464191436767578,4.1736531257629395,0.786140501499176
2.4529402256011963,4.227131366729736,0.8049176335334778
2.4218969345092773,4.24285364151001,0.8161258697509766
2.3952157497406006,4.264695167541504,0.8283821940422058
2.3495848178863525,4.25718355178833,0.8343757390975952
2.259964942932129,4.168150424957275,0.82415771484375
2.2146592140197754,4.155604362487793,0.8286059498786926
2.2165415287017822,4.230972766876221,0.8505730628967285
2.1907896995544434,4.255435466766357,0.8620997667312622
2.156653642654419,4.266665458679199,0.8705964088439941
2.117342233657837,4.2672858238220215,0.8769535422325134
2.1017706394195557,4.311676502227783,0.8920385837554932
2.070470094680786,4.324971675872803,0.9008317589759827
2.0517284870147705,4.366093158721924,0.9150292873382568
2.0156190395355225,4.372711658477783,0.9217632412910461
1.9858393669128418,4.393006801605225,0.9314324855804443
2.0056865215301514,4.521094799041748,0.9638859629631042
3.6136269569396973,8.300895690917969,1.7794113159179688
3.505864143371582,8.214906692504883,1.7702500820159912
1.934370517730713,4.626083850860596,1.0016005039215088
1.9056545495986938,4.65291690826416,1.0121880769729614
1.8790864944458008,4.682750225067139,1.0233749151229858
1.8389232158660889,4.676543235778809,1.026634931564331
1.805257797241211,4.688046455383301,1.0338951349258423
1.788221836090088,4.746298789978027,1.0507498979568481
1.7452411651611328,4.736367225646973,1.0525567531585693
1.3384581804275513,3.715380907058716,0.8288317918777466
1.3045679330825806,3.7020137310028076,0.8289055228233337
1.2680240869522095,3.681262731552124,0.8273752331733704
1.6184110641479492,4.807803630828857,1.0843993425369263
1.6225576400756836,4.937963962554932,1.1171354055404663
1.5817556381225586,4.933839321136475,1.1196229457855225
1.5481445789337158,4.951186656951904,1.1270172595977783
1.5127211809158325,4.960837364196777,1.132667064666748
1.4604229927062988,4.911561965942383,1.1248217821121216
1.4382805824279785,4.96455717086792,1.1401921510696411
1.4281842708587646,5.065497875213623,1.1661311388015747
1.3813527822494507,5.03781270980835,1.162554144859314
1.3144915103912354,4.932346343994141,1.1409955024719238
1.2783139944076538,4.936824798583984,1.144828200340271
1.246455192565918,4.955685138702393,1.1520097255706787
1.2206487655639648,5.000281810760498,1.16514253616333
1.1863975524902344,5.015434741973877,1.1707913875579834
1.1502903699874878,5.022922992706299,1.1747145652770996
1.1168593168258667,5.045131206512451,1.1821836233139038
1.0901175737380981,5.0929107666015625,1.195644497871399
1.0559951066970825,5.106963634490967,1.2012568712234497
0.8058112263679504,4.038393020629883,0.9517764449119568
0.7843007445335388,4.080775260925293,0.9631731510162354
0.7546105980873108,4.085776329040527,0.9656859040260315
0.7267839908599854,4.097962856292725,0.969923734664917
0.6926333904266357,4.0724287033081055,0.9652658104896545
0.6691340804100037,4.106618881225586,0.974789023399353
0.6451436281204224,4.1406731605529785,0.9843510985374451
0.6122335195541382,4.122058391571045,0.9812781810760498
0.5867332220077515,4.152220726013184,0.9893367886543274
0.5624008178710938,4.19351863861084,1.0001107454299927
0.5365065932273865,4.227133750915527,1.0091195106506348
0.5068956017494202,4.2303571701049805,1.0109184980392456
0.4782165586948395,4.240915775299072,1.0145180225372314
0.4533064365386963,4.292890548706055,1.0281094312667847
0.4239354431629181,4.303193092346191,1.0313142538070679
0.3890831172466278,4.256612300872803,1.0206726789474487
0.3571932315826416,4.236258506774902,1.0163607597351074
0.3273645341396332,4.238396167755127,1.0174921751022339
0.29843592643737793,4.255490303039551,1.0222705602645874
0.2633238136768341,4.1700029373168945,1.0024325847625732
0.2330857813358307,4.1487135887146,0.9980560541152954
0.20127904415130615,4.093215465545654,0.9848772883415222
0.08450472354888916,2.0035698413848877,0.4821547269821167
0.14116421341896057,4.027113914489746,0.9693112373352051
0.11346638947725296,4.043083667755127,0.973395049571991
0.0856972262263298,4.058859348297119,0.9774798154830933
0.08292492479085922,5.859147548675537,1.4115194082260132
0.04266898334026337,5.93160343170166,1.4294489622116089
0.0006603761576116085,5.924234867095947,1.4273161888122559
-0.040849726647138596,5.9621429443359375,1.4361662864685059
-0.08265902101993561,5.988368034362793,1.4422696828842163
-0.12530075013637543,6.03328275680542,1.4529414176940918
-0.1670261174440384,6.024745941162109,1.4508106708526611
-0.20995520055294037,6.0538763999938965,1.4578205347061157
-0.2538148760795593,6.07894229888916,1.4636447429656982
-0.17620663344860077,3.6190922260284424,0.870857298374176
-0.1999933123588562,3.5952115058898926,0.8646336197853088
-0.22677886486053467,3.624248743057251,0.8711771368980408
-0.4414469599723816,6.347421169281006,1.525058627128601
-0.5850019454956055,7.632298946380615,1.833003044128418
-0.5582290291786194,6.674405097961426,1.6023705005645752
-0.4947015345096588,5.460014820098877,1.3100022077560425
-0.534508228302002,5.479643821716309,1.3134589195251465
-0.5781629085540771,5.5329999923706055,1.325044870376587
-0.7214179635047913,6.46596097946167,1.5471140146255493
-0.7636398077011108,6.438714981079102,1.5393279790878296
-0.8018022179603577,6.381012439727783,1.524347186088562
-0.8406988978385925,6.334387302398682,1.51210355758667
-0.8780406713485718,6.283971309661865,1.4983446598052979
-0.9230603575706482,6.285996437072754,1.4968045949935913
-0.9742873311042786,6.332909107208252,1.5060425996780396
-1.0268793106079102,6.383167266845703,1.5161113739013672
-1.0763936042785645,6.406664848327637,1.519846796989441
-1.1282538175582886,6.441028594970703,1.52621328830719
-1.182692289352417,6.4862141609191895,1.5351932048797607
-1.2356600761413574,6.5199995040893555,1.5404242277145386
-1.2927290201187134,6.575921535491943,1.5509521961212158
-1.3468220233917236,6.612734794616699,1.5570021867752075
-1.4074305295944214,6.675114154815674,1.5690739154815674
-1.450687289237976,6.651353359222412,1.5609296560287476
-1.4853712320327759,6.586260795593262,1.5431407690048218
-1.523958683013916,6.547335624694824,1.5311797857284546
-0.6718294024467468,2.8004567623138428,0.653478741645813
-0.6890828609466553,2.788966178894043,0.6493825912475586
-0.7015148997306824,2.758899688720703,0.6410079598426819
-0.7211154699325562,2.7544097900390625,0.6385622024536133
-0.7423939108848572,2.757206916809082,0.6378535628318787
-0.7749019861221313,2.8002734184265137,0.6464676260948181
-1.75558602809906,6.181870937347412,1.4232094287872314
-1.7933763265609741,6.156578540802002,1.4135175943374634
-1.8250114917755127,6.108935832977295,1.3987319469451904
-1.8572545051574707,6.064759731292725,1.3848447799682617
-1.8860628604888916,6.009337902069092,1.3684579133987427
-1.9176244735717773,5.96470832824707,1.3546488285064697
-1.9511759281158447,5.9312744140625,1.3427836894989014
-1.9798682928085327,5.8831071853637695,1.3273699283599854
-2.0085582733154297,5.838616847991943,1.3129749298095703
-2.0386669635772705,5.797382354736328,1.2993459701538086
-2.0664360523223877,5.748561859130859,1.2840499877929688
-2.1002085208892822,5.717556953430176,1.27283775806427
-2.128495216369629,5.676135540008545,1.2587717771530151
-2.1619787216186523,5.64886474609375,1.247576117515564
-2.2112622261047363,5.664375305175781,1.2459568977355957
-2.2745091915130615,5.711167335510254,1.2510771751403809
-2.3292832374572754,5.732236385345459,1.2504241466522217
-2.3492119312286377,5.667935371398926,1.2312309741973877
-2.397263765335083,5.674724578857422,1.2266745567321777
-2.43557071685791,5.6603522300720215,1.2175832986831665
-3.5629920959472656,8.131505966186523,1.7405855655670166
-2.522804021835327,5.651205062866211,1.203505039215088
-2.5531771183013916,5.614306449890137,1.1895182132720947
-2.5927929878234863,5.598217010498047,1.1796165704727173
-2.6139376163482666,5.548106670379639,1.1622151136398315
-3.9534389972686768,8.250349998474121,1.7181257009506226
-2.6673622131347656,5.471392631530762,1.1324985027313232
-2.6993906497955322,5.440701007843018,1.1190767288208008
-2.7229509353637695,5.392446994781494,1.101965308189392
-2.7239530086517334,5.307916641235352,1.0770381689071655
-2.7595412731170654,5.291714191436768,1.0661132335662842
-2.7993533611297607,5.281713485717773,1.0563204288482666
-2.820561647415161,5.233428478240967,1.0386371612548828
-2.8427765369415283,5.188604354858398,1.0217143297195435
-2.8629636764526367,5.1446614265441895,1.0042535066604614
-1.2032253742218018,2.1295855045318604,0.41211554408073425
-1.1969027519226074,2.08540415763855,0.39989998936653137
-5.107530117034912,8.757267951965332,1.6634026765823364
-1.245856761932373,2.1034996509552,0.395591676235199
-2.7526707649230957,4.578942775726318,0.8519856929779053
-2.9460389614105225,4.82949161529541,0.8890361189842224
-2.9765357971191406,4.80418586730957,0.8741481900215149
-3.0105466842651367,4.785433769226074,0.8604267835617065
-3.0337202548980713,4.754960060119629,0.8441179990768433
-3.0508875846862793,4.71428108215332,0.8259143233299255
-3.031464099884033,4.6141839027404785,0.7968757748603821
-3.064152956008911,4.595113754272461,0.781903862953186
-3.0941436290740967,4.577541351318359,0.7667284607887268
-3.0981812477111816,4.521166801452637,0.74501633644104
-3.1623616218566895,4.545501232147217,0.7352455258369446
-2.8293800354003906,4.010525703430176,0.636442244052887
-2.945523500442505,4.120540142059326,0.6409774422645569
-2.903804302215576,4.005070686340332,0.6093636751174927
-2.9456827640533447,4.005861282348633,0.5951602458953857
-2.9318912029266357,3.9365222454071045,0.5703558325767517
-2.4516806602478027,3.4625818729400635,-0.24957449734210968
-2.900522470474243,4.160820007324219,-0.31872761249542236
-2.879239559173584,4.192981243133545,-0.3390975594520569
-2.8507347106933594,4.220174312591553,-0.35952141880989075
-2.834989070892334,4.261940002441406,-0.3800899088382721
-2.8167641162872314,4.300306797027588,-0.40014445781707764
-2.771437406539917,4.3001508712768555,-0.4166514277458191
-2.7484960556030273,4.331571578979492,-0.43550604581832886
-2.7370951175689697,4.382922649383545,-0.45656681060791016
-2.7203304767608643,4.4280571937561035,-0.4769323468208313
-2.687948703765869,4.445924282073975,-0.4940009117126465
-1.220668077468872,2.0511906147003174,-0.23471108078956604
-2.6442196369171143,4.517849922180176,-0.5318090915679932
-2.6218643188476562,4.555750846862793,-0.5512154698371887
-2.6046297550201416,4.599384307861328,-0.5707421898841858
-2.5765793323516846,4.626450538635254,-0.5883128643035889
-2.5533981323242188,4.663751602172852,-0.6072869300842285
-2.5271353721618652,4.693576812744141,-0.6250014901161194
-2.5036723613739014,4.730311870574951,-0.6439019441604614
-2.4811930656433105,4.770573616027832,-0.6630949378013611
-2.4425852298736572,4.779536724090576,-0.677936315536499
-1.0920233726501465,2.1740469932556152,-0.3143678605556488
-1.0916881561279297,2.21213436126709,-0.32591718435287476
-1.0430614948272705,2.1529781818389893,-0.32311949133872986
-1.0307592153549194,2.1664533615112305,-0.3308980464935303
-1.025112509727478,2.1937551498413086,-0.34078627824783325
-1.015641450881958,2.2141456604003906,-0.34963464736938477
-0.999479353427887,2.2204341888427734,-0.3562680184841156
-0.9912960529327393,2.2441768646240234,-0.36568886041641235
-0.9811524748802185,2.264385223388672,-0.374676376581192
-0.9647597074508667,2.2703418731689453,-0.38114315271377563
-0.9571753144264221,2.2975635528564453,-0.3912224769592285
-0.9407046437263489,2.303257703781128,-0.39763715863227844
-0.9357412457466125,2.337427854537964,-0.4090283215045929
-0.9185939431190491,2.3430912494659424,-0.4154433608055115
-0.9113434553146362,2.373711347579956,-0.42623522877693176
-0.8740370273590088,2.3249592781066895,-0.4226839542388916
-1.1659245491027832,3.1680734157562256,-0.5830163359642029
-1.1431702375411987,3.174865245819092,-0.591074526309967
-1.1122961044311523,3.1598398685455322,-0.5951072573661804
-1.114776849746704,3.2388968467712402,-0.616832435131073
-1.0942208766937256,3.252473831176758,-0.6262588500976562
-1.0590062141418457,3.2222015857696533,-0.6269234418869019
-1.0136972665786743,3.1587326526641846,-0.6208468675613403
-0.9575573801994324,3.058285713195801,-0.6072729229927063
-0.8652271628379822,2.8324387073516846,-0.5680388808250427
-0.7947231531143188,2.668182373046875,-0.5401480793952942
-0.7650313973426819,2.6357741355895996,-0.5384529232978821
-0.7421303391456604,2.625215768814087,-0.5411433577537537
-0.7337186932563782,2.666149377822876,-0.5544959306716919
-0.7026312351226807,2.6258037090301514,-0.5508361458778381
-0.6715011596679688,2.581458330154419,-0.5459092855453491
-0.6372830867767334,2.5220017433166504,-0.5376254916191101
-0.6103696823120117,2.4882242679595947,-0.5346588492393494
-0.5813050866127014,2.4430909156799316,-0.5289916396141052
-0.5551729202270508,2.408989906311035,-0.5253723859786987
-0.5281928181648254,2.367158889770508,-0.5199008584022522
-0.49946328997612,2.3138926029205322,-0.5117767453193665
-0.47850653529167175,2.2940220832824707,-0.5108783841133118
-0.45260873436927795,2.247877359390259,-0.5036695003509521
-0.4278320074081421,2.2052974700927734,-0.4972103536128998
-0.40462416410446167,2.1662232875823975,-0.4913990795612335
-0.38806483149528503,2.1607179641723633,-0.493156373500824
-0.3645056188106537,2.1138808727264404,-0.4849812686443329
-0.34845399856567383,2.1081883907318115,-0.4861917495727539
-0.32748234272003174,2.072317600250244,-0.480456680059433
-0.30330201983451843,2.0099053382873535,-0.4684264659881592
-0.2903297245502472,2.01894211769104,-0.4726208746433258
-0.27520549297332764,2.012829542160034,-0.47319597005844116
-0.2572169601917267,1.9839777946472168,-0.46841469407081604
-0.24334600567817688,1.985181212425232,-0.4707218408584595
-0.22664199769496918,1.963712215423584,-0.46738025546073914
-0.20844458043575287,1.923247218132019,-0.4592747986316681
-0.19656985998153687,1.939348816871643,-0.4646790623664856
-0.18162600696086884,1.9251121282577515,-0.46283650398254395
-0.16688966751098633,1.9108175039291382,-0.4607568383216858
-0.1551939696073532,1.934343934059143,-0.46756675839424133
-0.1378539502620697,1.8820432424545288,-0.4560340940952301
-0.12296570092439651,1.8561322689056396,-0.4508742094039917
-0.11115975677967072,1.8756159543991089,-0.45661020278930664
-0.0979139655828476,1.8723602294921875,-0.4564799666404724
-0.08260326832532883,1.8273162841796875,-0.44617798924446106
-0.07018492370843887,1.8352413177490234,-0.44880539178848267
-0.05695027858018875,1.8203413486480713,-0.44580134749412537
-0.044490642845630646,1.8282060623168945,-0.4479576349258423
-0.03179257735610008,1.8283977508544922,-0.4482564330101013
-0.018699171021580696,1.8133279085159302,-0.4448383152484894
-0.006092941388487816,1.8133412599563599,-0.4451349079608917
0.006514460779726505,1.8133825063705444,-0.44496122002601624
0.019362205639481544,1.8360992670059204,-0.4503635764122009
0.031862348318099976,1.8207918405532837,-0.44646015763282776
0.04413749650120735,1.8053996562957764,-0.4425599277019501
0.057156626135110855,1.8127679824829102,-0.44384071230888367
0.07035131007432938,1.8276535272598267,-0.4468960464000702
0.08306653797626495,1.827280879020691,-0.446237176656723
0.09778061509132385,1.8647197484970093,-0.4548218846321106
0.10761618614196777,1.811187982559204,-0.4409148395061493
0.11190582811832428,1.6818639039993286,-0.40849411487579346
0.11804785579442978,1.6055617332458496,-0.38910210132598877
0.12281674146652222,1.5254513025283813,-0.3688890337944031
0.13476544618606567,1.5399692058563232,-0.37139782309532166
0.14835205674171448,1.5695720911026,-0.3773323893547058
0.15564942359924316,1.531010627746582,-0.36688193678855896
0.19465315341949463,1.7909096479415894,-0.42782729864120483
0.22595149278640747,1.9522913694381714,-0.46476924419403076
0.24098479747772217,1.9625004529953003,-0.46528974175453186
0.25470206141471863,1.961282730102539,-0.4631127715110779
0.26296013593673706,1.9184834957122803,-0.451149046421051
0.2807110846042633,1.9472492933273315,-0.45599091053009033
0.30516520142555237,2.0173537731170654,-0.47004926204681396
0.3234662115573883,2.0421195030212402,-0.4734523296356201
0.3390182852745056,2.047950029373169,-0.4724496006965637
0.35983946919441223,2.0837020874023438,-0.4783194363117218
0.3787725567817688,2.104337453842163,-0.48016247153282166
0.39985668659210205,2.1360979080200195,-0.48454228043556213
0.4177494943141937,2.148965835571289,-0.4845982789993286
0.440365731716156,2.1841325759887695,-0.48963701725006104
0.4595937430858612,2.2005066871643066,-0.4900393486022949
0.48017632961273193,2.2204251289367676,-0.49105674028396606
0.5091174244880676,2.2774932384490967,-0.5002501606941223
0.5199751257896423,2.2523953914642334,-0.49136418104171753
0.41005584597587585,1.7215954065322876,-0.3727931082248688
0.42400529980659485,1.7268126010894775,-0.37103840708732605
0.47203534841537476,1.8653854131698608,-0.3976573050022125
0.5189405679702759,1.992400884628296,-0.4214308559894562
0.6409536600112915,2.3926339149475098,-0.501943051815033
0.7066127061843872,2.566359758377075,-0.5337355136871338
0.7351059913635254,2.5993146896362305,-0.5358943343162537
0.7783833742141724,2.679779291152954,-0.5475546717643738
0.8027704358100891,2.6937785148620605,-0.545431911945343
0.49326804280281067,1.6143083572387695,-0.32372352480888367
0.4954744875431061,1.5822231769561768,-0.31421491503715515
0.49728456139564514,1.5501457452774048,-0.30482786893844604
0.508423388004303,1.5472453832626343,-0.30116668343544006
0.5364542007446289,1.5953474044799805,-0.3072305917739868
0.5951938629150391,1.7304160594940186,-0.3296665847301483
0.6151285767555237,1.7487198114395142,-0.3295128643512726
0.6197225451469421,1.7233929634094238,-0.3211483061313629
0.6265314817428589,1.705356240272522,-0.3140577971935272
0.6414411067962646,1.7088531255722046,-0.31089895963668823
0.6756330728530884,1.762611985206604,-0.31678804755210876
1.5687220096588135,4.008853912353516,-0.7116339206695557
1.6383408308029175,4.1034722328186035,-0.7190037369728088
1.6947880983352661,4.161665916442871,-0.7196114659309387
1.7336622476577759,4.172704219818115,-0.7116400003433228
1.7542814016342163,4.14088773727417,-0.6965329647064209
1.7802129983901978,4.123349666595459,-0.6836624145507812
1.7903715372085571,4.070279121398926,-0.6650253534317017
1.4841232299804688,3.3116955757141113,-0.5329587459564209
1.5193544626235962,3.327026605606079,-0.5270586609840393
1.5425931215286255,3.3178651332855225,-0.5172166228294373
1.5591092109680176,3.294546604156494,-0.5052139163017273
1.5824445486068726,3.284921407699585,-0.49523892998695374
1.6023902893066406,3.2681140899658203,-0.4841911792755127
1.6237117052078247,3.254755973815918,-0.47341132164001465
1.646269679069519,3.244861602783203,-0.46331891417503357
1.665809988975525,3.2276201248168945,-0.4519837200641632
1.6886966228485107,3.217146635055542,-0.4416031539440155
1.7109253406524658,3.2067980766296387,-0.43118855357170105
1.7535494565963745,3.233731746673584,-0.42565038800239563
2.136869430541992,3.874990701675415,-0.4985559582710266
2.112708568572998,3.770134210586548,-0.4739898443222046
2.1501097679138184,3.777362823486328,-0.46370139718055725
2.160959482192993,3.736889600753784,-0.44738516211509705
2.1836304664611816,3.716242790222168,-0.4333529770374298
2.2255048751831055,3.729137420654297,-0.42294809222221375
2.2307817935943604,3.682072162628174,-0.4059843420982361
2.2691922187805176,3.68746018409729,-0.3943595588207245
2.2989611625671387,3.6796114444732666,-0.3812433183193207
2.3029510974884033,3.632514476776123,-0.3641687333583832
2.33298659324646,3.623983860015869,-0.3504031300544739
2.371314764022827,3.628343343734741,-0.3377969264984131
2.3827245235443115,3.5941691398620605,-0.3216187357902527
2.4030678272247314,3.572504758834839,-0.3063350021839142
2.4415173530578613,3.5759670734405518,-0.2927413284778595
2.44783091545105,3.53501033782959,-0.27532875537872314
2.4898622035980225,3.5449042320251465,-0.2616885304450989
2.514796495437622,3.5284299850463867,-0.2454078048467636
2.519601583480835,3.4876623153686523,-0.22759367525577545
2.566598415374756,3.5027809143066406,-0.21263955533504486
2.1714987754821777,2.9224021434783936,-0.16360603272914886
2.8014655113220215,3.941159963607788,0.6502127647399902
2.760319709777832,3.9483063220977783,0.6655950546264648
2.7343413829803467,3.9729502201080322,0.6830785870552063
2.7010462284088135,3.9836342334747314,0.6975038051605225
2.6904494762420654,4.034621238708496,0.7185299396514893
2.6544301509857178,4.046473979949951,0.7324528694152832
2.620359420776367,4.056863784790039,0.7453802227973938
2.602034330368042,4.09356689453125,0.7627313733100891
2.5777907371520996,4.1245293617248535,0.7788281440734863
2.546556234359741,4.141409873962402,0.7918944954872131
2.5166006088256836,4.157286643981934,0.8043707013130188
2.4884755611419678,4.18073034286499,0.8181248307228088
2.4635603427886963,4.210929870605469,0.8328894972801208
2.424132823944092,4.213672161102295,0.8419578075408936
2.4184162616729736,4.272278308868408,0.8619134426116943
2.383099317550659,4.28102970123291,0.8716636896133423
2.283115863800049,4.175873756408691,0.8577585220336914
2.243759870529175,4.177552700042725,0.8654531240463257
2.224538564682007,4.211869716644287,0.8794856667518616
2.1978516578674316,4.232456684112549,0.8907407522201538
2.17464542388916,4.2639875411987305,0.9038177728652954
2.151857852935791,4.299256801605225,0.9177863001823425
2.119671106338501,4.313232898712158,0.9270656108856201
2.092247724533081,4.333215713500977,0.9373974204063416
2.061354875564575,4.3460798263549805,0.9462462067604065
2.031979560852051,4.366518020629883,0.9561448693275452
1.9959220886230469,4.372867584228516,0.9629628658294678
1.989426851272583,4.445381164550781,0.9844991564750671
2.0224483013153076,4.604814529418945,1.0252548456192017
1.9699705839157104,4.571557998657227,1.0232867002487183
1.9451686143875122,4.605354309082031,1.0357805490493774
1.9137258529663086,4.625074863433838,1.044978141784668
1.9029680490493774,4.697941780090332,1.0664035081863403
1.8553866147994995,4.674174785614014,1.0656704902648926
1.8361159563064575,4.721131801605225,1.0810892581939697
1.8104779720306396,4.753907680511475,1.0931771993637085
1.7540225982666016,4.708352088928223,1.0866711139678955
1.3333500623703003,3.661820888519287,0.8483113646507263
1.3194080591201782,3.7062177658081055,0.8617486357688904
1.2856781482696533,3.692671060562134,0.8616706132888794
1.6651499271392822,4.891870021820068,1.1456013917922974
1.6408360004425049,4.934803485870361,1.1594361066818237
1.5840874910354614,4.8838324546813965,1.1508842706680298
1.5506006479263306,4.901193141937256,1.1584045886993408
1.5433082580566406,5.001900672912598,1.1857026815414429
1.5058884620666504,5.003990173339844,1.18965744972229
1.459938645362854,4.97656774520874,1.1866244077682495
1.423332929611206,4.981940269470215,1.1910372972488403
1.3875691890716553,4.994777679443359,1.1969009637832642
1.3503211736679077,4.999858856201172,1.200923204421997
1.2969331741333008,4.9420390129089355,1.1898382902145386
1.2697527408599854,4.979373931884766,1.201632022857666
1.2366825342178345,4.994391918182373,1.2081154584884644
1.2007728815078735,5.002037048339844,1.2127021551132202
0.9297890067100525,3.998775005340576,0.9711547493934631
0.9043434262275696,4.019425392150879,0.9779118895530701
0.8722333312034607,4.010194778442383,0.9774463176727295
0.8417227268218994,4.004314422607422,0.9777951240539551
0.8132373690605164,4.0094380378723145,0.980898380279541
0.7866373658180237,4.021734237670898,0.9857784509658813
0.7601064443588257,4.037806510925293,0.9910541772842407
0.736724853515625,4.072410583496094,1.0008376836776733
0.7076467871665955,4.076959609985352,1.003297209739685
0.6832818984985352,4.111288547515869,1.0131584405899048
0.6510292887687683,4.092866897583008,1.0100290775299072
0.6298975348472595,4.145481586456299,1.0244886875152588
0.5997341275215149,4.141726493835449,1.0248897075653076
0.575579047203064,4.183012008666992,1.0359684228897095
0.5464494824409485,4.194118022918701,1.0396498441696167
0.5194905996322632,4.220028400421143,1.0470468997955322
0.8689213991165161,7.489345073699951,1.8600037097930908
0.46915918588638306,4.305154800415039,1.0702781677246094
0.4360763430595398,4.277692794799805,1.0645729303359985
0.4075244665145874,4.295391082763672,1.069738507270813
0.38107597827911377,4.3470139503479,1.0831011533737183
0.34773504734039307,4.3152995109558105,1.0757466554641724
0.3168046474456787,4.30980110168457,1.0749752521514893
0.28099414706230164,4.224639415740967,1.0543659925460815
0.24891261756420135,4.180819511413574,1.0441044569015503
0.21671299636363983,4.133004188537598,1.0328935384750366
0.09149353206157684,2.014139175415039,0.5034643411636353
0.15497079491615295,4.033151149749756,1.0082545280456543
0.12625190615653992,4.018890857696533,1.004846453666687
0.09603060781955719,3.932445526123047,0.9834336042404175
0.06860696524381638,3.9556665420532227,0.9894946217536926
0.020219190046191216,1.943874478340149,0.48639869689941406
0.013496837578713894,3.91437029838562,0.9798007011413574
-0.02075820229947567,5.919006824493408,1.4812140464782715
-0.06237008422613144,5.968084335327148,1.4931241273880005
-0.10565739870071411,6.028223037719727,1.5078623294830322
-0.14758451282978058,6.027447700500488,1.5074397325515747
