X,Y,Z
0.14580024778842926,1.7751288414001465,-0.4289504885673523
0.16121269762516022,1.8084510564804077,-0.43577995896339417
0.1738220602273941,1.807664394378662,-0.4341942369937897
0.18822504580020905,1.8218905925750732,-0.43619853258132935
0.20260006189346313,1.8360267877578735,-0.4382055103778839
0.22031182050704956,1.8765310049057007,-0.4462648630142212
0.23345008492469788,1.8754398822784424,-0.44416725635528564
0.25252336263656616,1.9195095300674438,-0.4527449905872345
0.26407119631767273,1.9031050205230713,-0.4470236897468567
0.28068435192108154,1.9243379831314087,-0.4500335454940796
0.29301217198371887,1.9154006242752075,-0.4456980228424072
0.314258337020874,1.962778925895691,-0.45444056391716003
0.28589966893196106,1.70942223072052,-0.3938119113445282
0.2978748083114624,1.707920789718628,-0.39144352078437805
0.3073502480983734,1.691365122795105,-0.3853216767311096
0.3220582902431488,1.704749584197998,-0.3860808312892914
0.32962730526924133,1.6805869340896606,-0.3783654272556305
0.40988871455192566,2.015331506729126,-0.4510311484336853
0.45789381861686707,2.1737937927246094,-0.48318931460380554
0.48404842615127563,2.219817876815796,-0.48999834060668945
0.5063877105712891,2.2470266819000244,-0.4926217198371887
0.5352111458778381,2.300095558166504,-0.5008068084716797
0.5549795031547546,2.3120975494384766,-0.4995843172073364
0.5850446224212646,2.364781141281128,-0.5070261359214783
0.6133432984352112,2.406010866165161,-0.5118001103401184
0.5778254866600037,2.202716588973999,-0.4649190902709961
0.5374771356582642,1.992538571357727,-0.4170214831829071
0.551476001739502,1.9895868301391602,-0.4128163158893585
0.560255229473114,1.9680906534194946,-0.4048060476779938
0.7927849888801575,2.7118265628814697,-0.5528006553649902
0.8350564241409302,2.7845287322998047,-0.5623454451560974
0.870490312576294,2.8311808109283447,-0.5662649869918823
0.8593279719352722,2.7274036407470703,-0.5402171015739441
0.8538537621498108,2.6457438468933105,-0.5189071893692017
0.8885119557380676,2.6882004737854004,-0.5217536687850952
0.9049577116966248,2.675853729248047,-0.5138459205627441
0.9212878942489624,2.6633827686309814,-0.5059641599655151
0.9427280426025391,2.6652657985687256,-0.5008004903793335
1.07010817527771,2.9601430892944336,-0.5499489903450012
1.097571849822998,2.972001075744629,-0.54567950963974
1.137826681137085,3.0159406661987305,-0.5470707416534424
1.1329421997070312,2.940877676010132,-0.526975691318512
1.0606589317321777,2.697420597076416,-0.477316677570343
0.9862807393074036,2.458563804626465,-0.4294067323207855
1.0035253763198853,2.452730655670166,-0.42275822162628174
1.0123330354690552,2.4252102375030518,-0.41227248311042786
1.0279607772827148,2.4155709743499756,-0.40494027733802795
1.0356372594833374,2.3881890773773193,-0.39459937810897827
1.0492188930511475,2.374919891357422,-0.38667795062065125
1.0597662925720215,2.354398012161255,-0.3775492310523987
1.0734527111053467,2.3407979011535645,-0.3694472014904022
1.0864989757537842,2.327320098876953,-0.36144161224365234
1.0994168519973755,2.3137450218200684,-0.3534681797027588
1.1125056743621826,2.299947500228882,-0.3453989028930664
1.1218427419662476,2.279205083847046,-0.3363017141819
1.1622188091278076,2.320756196975708,-0.33616870641708374
1.1889673471450806,2.3343329429626465,-0.3318846821784973
1.2287660837173462,2.3715927600860596,-0.3306800127029419
1.2380818128585815,2.3502767086029053,-0.32118168473243713
1.2506517171859741,2.3358421325683594,-0.31268101930618286
1.2577314376831055,2.3109865188598633,-0.30277615785598755
1.2744699716567993,2.3028218746185303,-0.2948895990848541
1.2826706171035767,2.281442880630493,-0.2854400873184204
1.2944788932800293,2.2667758464813232,-0.2769037187099457
1.306627869606018,2.251772880554199,-0.2681662142276764
1.3184136152267456,2.2368080615997314,-0.2594473361968994
1.3299344778060913,2.2218410968780518,-0.25064677000045776
1.3412716388702393,2.206810235977173,-0.2419058382511139
1.356945514678955,2.1980948448181152,-0.2337009459733963
1.3635656833648682,2.1765024662017822,-0.22417165338993073
1.374093770980835,2.16147518157959,-0.2154008150100708
1.385481834411621,2.145777940750122,-0.20611269772052765
1.3937265872955322,2.127274990081787,-0.19675329327583313
1.4123010635375977,2.125115156173706,-0.18892717361450195
1.4184812307357788,2.1029880046844482,-0.17900493741035461
1.4284284114837646,2.087541103363037,-0.1696506291627884
1.4425054788589478,2.078549385070801,-0.1607096791267395
1.44807767868042,2.0563230514526367,-0.15048107504844666
1.4098323583602905,1.9741390943527222,-0.13612300157546997
1.4616613388061523,2.0191497802734375,-0.13062991201877594
1.4666942358016968,1.996785283088684,-0.11992476880550385
1.4540969133377075,1.9532819986343384,-0.10815487802028656
1.4388163089752197,2.03105092048645,0.3367060422897339
1.4695665836334229,2.107271671295166,0.3568185269832611
1.4625802040100098,2.129455804824829,0.3675784766674042
1.4497143030166626,2.146087408065796,0.37723758816719055
1.4414821863174438,2.1687374114990234,0.3878255784511566
1.434190034866333,2.1906590461730957,0.39791053533554077
1.4208520650863647,2.2070975303649902,0.4068950414657593
1.4053804874420166,2.2201309204101562,0.41515636444091797
1.3970853090286255,2.242213010787964,0.42478257417678833
1.3846559524536133,2.2576282024383545,0.43303340673446655
1.3749048709869385,2.2802743911743164,0.44245630502700806
1.360646367073059,2.296402931213379,0.4507709741592407
1.3438570499420166,2.3049983978271484,0.45721834897994995
1.338560938835144,2.33347225189209,0.4675704836845398
1.324249505996704,2.3492109775543213,0.4751354157924652
1.30604088306427,2.358120918273926,0.4813600480556488
1.3011183738708496,2.3902781009674072,0.49228349328041077
1.2839621305465698,2.3983359336853027,0.4981031119823456
1.2730636596679688,2.4203364849090576,0.5065876245498657
1.261595606803894,2.442455768585205,0.5150690078735352
1.2463865280151367,2.4576706886291504,0.5221567153930664
1.2353469133377075,2.479250431060791,0.5304694771766663
1.2243618965148926,2.5006484985351562,0.5387355089187622
1.2054558992385864,2.5087296962738037,0.5437765121459961
1.183201551437378,2.5097365379333496,0.5473100543022156
1.1788034439086914,2.5487499237060547,0.5591745376586914
1.1701408624649048,2.5769410133361816,0.5685871839523315
1.1576777696609497,2.5982489585876465,0.5766135454177856
1.1412876844406128,2.6128344535827637,0.5827243328094482
1.1247103214263916,2.627319812774658,0.5888623595237732
1.1124404668807983,2.6522622108459473,0.5974006652832031
1.0993170738220215,2.6732826232910156,0.6049869656562805
1.08285391330719,2.687225818634033,0.6110607981681824
1.0716032981872559,2.7154476642608643,0.6200844645500183
1.051451325416565,2.722383975982666,0.6241554021835327
1.0393521785736084,2.750598669052124,0.6331589221954346
1.0233150720596313,2.7678921222686768,0.6396629810333252
1.0060365200042725,2.7814154624938965,0.6453133821487427
0.9799554347991943,2.769578456878662,0.6450255513191223
0.9633913040161133,2.786673069000244,0.6510758399963379
0.9295200705528259,2.753089666366577,0.645301878452301
0.9093480706214905,2.7590010166168213,0.6487869024276733
0.8892547488212585,2.764727830886841,0.6522508263587952
0.8765882253646851,2.7919483184814453,0.6607704758644104
0.8868497610092163,2.8956706523895264,0.6874047517776489
0.8842426538467407,2.9633636474609375,0.7052531242370605
0.8690085411071777,2.9909145832061768,0.713636040687561
0.8492758870124817,3.003732919692993,0.7185595035552979
0.8325939178466797,3.0273847579956055,0.7261142730712891
0.8113288283348083,3.0324137210845947,0.7291958928108215
0.7975959777832031,3.066786050796509,0.7393031716346741
0.777356743812561,3.079185724258423,0.7437347769737244
0.7605624198913574,3.106228828430176,0.751758337020874
0.7403996586799622,3.122159719467163,0.7571743130683899
0.7284053564071655,3.171154737472534,0.7706276774406433
0.7078261971473694,3.1829543113708496,0.775083601474762
0.6927098631858826,3.220618486404419,0.7858965992927551
0.6742857098579407,3.2472610473632812,0.7935997247695923
0.6535895466804504,3.2664377689361572,0.7994882464408875
0.6330632567405701,3.2854080200195312,0.805357813835144
0.6165258288383484,3.326633930206299,0.816740095615387
0.5952721834182739,3.341533899307251,0.82169109582901
0.577038586139679,3.375001907348633,0.8312644362449646
0.5565596222877502,3.4010207653045654,0.8388223648071289
0.5347276926040649,3.419466972351074,0.8442265391349792
0.5132212042808533,3.4415225982666016,0.8505731225013733
0.49413368105888367,3.4822158813476562,0.8615825176239014
0.4746994972229004,3.522775650024414,0.8726147413253784
0.4521118700504303,3.544431686401367,0.879032552242279
0.4319244623184204,3.5847229957580566,0.8901147246360779
0.4092155694961548,3.609973430633545,0.8969962000846863
0.382924884557724,3.604933261871338,0.8963157534599304
0.3638302683830261,3.6713950634002686,0.9134677648544312
0.3393450677394867,3.6886677742004395,0.9184391498565674
0.31794169545173645,3.7473435401916504,0.9337851405143738
0.29420021176338196,3.7793972492218018,0.9425457119941711
0.2699943482875824,3.8113226890563965,0.9512243866920471
0.24446530640125275,3.8318779468536377,0.9565795660018921
0.2205943763256073,3.886317253112793,0.970445454120636
0.1956920027732849,3.944408893585205,0.9852855801582336
0.16904285550117493,3.9682376384735107,0.9916166663169861
0.14374379813671112,4.033538818359375,1.0083658695220947
0.11749614775180817,4.098672866821289,1.0251373052597046
0.08897168934345245,4.099287986755371,1.0255504846572876
0.060135144740343094,4.114968776702881,1.0293539762496948
0.03134935349225998,4.107706546783447,1.027470350265503
0.00272669130936265,4.115401268005371,1.0293779373168945
-0.0260003712028265,4.1304755210876465,1.0331814289093018
-0.055489424616098404,4.187028884887695,1.047411561012268
-0.08673342317342758,4.266091346740723,1.06732976436615
-0.11502256244421005,4.216238021850586,1.054619312286377
-0.1437608003616333,4.200352668762207,1.0501750707626343
-0.17680563032627106,4.294084072113037,1.073180079460144
-0.20582394301891327,4.277780055999756,1.0687291622161865
-0.2359767109155655,4.2839813232421875,1.0699518918991089
-0.264852911233902,4.259677886962891,1.0636039972305298
-0.2931562662124634,4.238991737365723,1.0582187175750732
-0.32073336839675903,4.21448278427124,1.0513677597045898
-0.3479404151439667,4.18983268737793,1.044382929801941
-0.3789002299308777,4.210317134857178,1.0486986637115479
-0.4047965705394745,4.170151710510254,1.0379480123519897
-0.42941442131996155,4.1260857582092285,1.0262991189956665
-0.4580942690372467,4.12332820892334,1.0249804258346558
-0.48141729831695557,4.075174331665039,1.0124331712722778
-0.5150486826896667,4.117415904998779,1.0217037200927734
-0.53788161277771,4.0690789222717285,1.0085185766220093
-0.5658237934112549,4.065769195556641,1.0065762996673584
-0.5937456488609314,4.0622663497924805,1.0046337842941284
-0.801962673664093,5.2325639724731445,1.2927147150039673
-0.834845781326294,5.204986095428467,1.2846224308013916
-0.8671799302101135,5.173449993133545,1.2753586769104004
-0.8999719619750977,5.153247833251953,1.2683683633804321
-0.9386951327323914,5.166444301605225,1.2696537971496582
-0.9691888689994812,5.13457727432251,1.2599267959594727
-1.0015960931777954,5.113687038421631,1.2529616355895996
-1.0296921730041504,5.070167541503906,1.240506649017334
-1.0585877895355225,5.0301032066345215,1.2289540767669678
-1.0979965925216675,5.04591178894043,1.2305868864059448
-1.1332435607910156,5.043000221252441,1.2274211645126343
-1.1529912948608398,4.973196983337402,1.2080638408660889
-1.190454363822937,4.980977535247803,1.2076281309127808
-1.1974050998687744,4.8589959144592285,1.1757581233978271
-1.2173445224761963,4.796176433563232,1.1583631038665771
-1.2487505674362183,4.781224727630615,1.1524792909622192
-1.2733983993530273,4.74433708190918,1.1407268047332764
-1.3096851110458374,4.751358509063721,1.1395984888076782
-1.3363293409347534,4.721338748931885,1.1295944452285767
-1.370909571647644,4.720467567443848,1.126644492149353
-1.110353946685791,3.7264363765716553,0.8872271180152893
-1.1297487020492554,3.6976113319396973,0.8782497644424438
-1.1549538373947144,3.6908159255981445,0.8740394711494446
-1.481581449508667,4.6237969398498535,1.091602087020874
-1.499890685081482,4.575051307678223,1.0768378973007202
-1.5650262832641602,4.667194843292236,1.0952264070510864
-1.6386816501617432,4.776440143585205,1.1174216270446777
-1.659637689590454,4.730144500732422,1.1032239198684692
-1.6649658679962158,4.644674301147461,1.0794813632965088
-1.6995584964752197,4.641743183135986,1.074751853942871
-1.7363399267196655,4.645875930786133,1.071755290031433
-3.149458408355713,8.257339477539062,1.8978708982467651
-3.2492544651031494,8.344388961791992,1.910609245300293
-1.8304572105407715,4.605875015258789,1.0506248474121094
-3.3656983375549316,8.30378532409668,1.8857733011245728
-1.8802080154418945,4.551839828491211,1.0290992259979248
-1.9049577713012695,4.526547908782959,1.0188229084014893
-1.9330791234970093,4.507909774780273,1.0100210905075073
-1.938915729522705,4.4361443519592285,0.9893043041229248
-1.9783869981765747,4.441329479217529,0.9856361746788025
-1.9972143173217773,4.405221939086914,0.972368597984314
-2.047776937484741,4.438586711883545,0.9744480848312378
-2.0678958892822266,4.405598163604736,0.9619825482368469
-2.080817222595215,4.354621887207031,0.9454552531242371
-2.112251043319702,4.341279029846191,0.9370739459991455
-2.160442352294922,4.366487979888916,0.93657386302948
-2.196601390838623,4.36747932434082,0.9307194352149963
-2.1962103843688965,4.296384811401367,0.9095988869667053
-2.2368812561035156,4.303253650665283,0.9048286080360413
-2.253180503845215,4.26195764541626,0.8898691534996033
-2.3063881397247314,4.29221773147583,0.8893179297447205
-2.2430202960968018,4.1099653244018555,0.8448829054832458
-2.235095500946045,4.032855987548828,0.8224788904190063
-2.282381534576416,4.05247688293457,0.8195405006408691
-2.3190109729766846,4.051384449005127,0.8122678995132446
-2.3544399738311768,4.050819396972656,0.8044243454933167
-2.3618462085723877,4.003902435302734,0.7875272035598755
-2.3967926502227783,4.003103256225586,0.7796690464019775
-2.4214999675750732,3.9813456535339355,0.7672722935676575
-2.4531893730163574,3.9731268882751465,0.757270097732544
-2.475879430770874,3.9521350860595703,0.7443989515304565
-2.4979348182678223,3.931234359741211,0.731756865978241
-2.5134329795837402,3.8960816860198975,0.7158861756324768
-2.5449438095092773,3.887079954147339,0.7046471238136292
-2.0875673294067383,3.145016670227051,0.5620421171188354
-2.071906805038452,3.0782976150512695,0.5420204401016235
-2.0940747261047363,3.0651931762695312,0.53098064661026
-2.0644123554229736,2.9795150756835938,0.5073798894882202
-2.0860800743103027,2.97096848487854,0.4969625174999237
-2.1040449142456055,2.9554193019866943,0.4850098490715027
-1.0752540826797485,1.4882704019546509,0.23908981680870056
-1.0848464965820312,1.4822787046432495,0.23289789259433746
-1.0946245193481445,1.4760605096817017,0.22655317187309265
-2.0529839992523193,2.8848280906677246,-0.2082013189792633
-2.0877299308776855,2.978532552719116,-0.22876940667629242
-2.0603389739990234,2.986905336380005,-0.24315127730369568
-2.042984962463379,3.0070581436157227,-0.2577227056026459
-2.011796474456787,3.008070230484009,-0.2704576551914215
-1.9523441791534424,2.966789722442627,-0.2791353762149811
-1.9306952953338623,2.9796817302703857,-0.29209399223327637
-1.9188292026519775,3.009162664413452,-0.30656740069389343
-1.889792561531067,3.0123801231384277,-0.31840386986732483
-1.8682221174240112,3.0245068073272705,-0.33051052689552307
-1.8377976417541504,3.023562431335449,-0.3411361873149872
-1.810702919960022,3.029406785964966,-0.3526618778705597
-1.792672872543335,3.047757148742676,-0.3651055693626404
-1.7742968797683716,3.066067934036255,-0.3774969279766083
-1.743679404258728,3.064283609390259,-0.3873901665210724
-1.7287180423736572,3.0891005992889404,-0.4004971385002136
-1.7099212408065796,3.1069247722625732,-0.4126989543437958
-1.6831718683242798,3.1111905574798584,-0.4228862524032593
-1.6655375957489014,3.1323235034942627,-0.43539997935295105
-2.0434482097625732,3.9086062908172607,-0.5549046993255615
-2.0079526901245117,3.907636880874634,-0.5662438273429871
-1.9855848550796509,3.9344394207000732,-0.5817579627037048
-1.9602398872375488,3.9538092613220215,-0.5959644317626953
-1.9082508087158203,3.917038917541504,-0.6013635993003845
-1.832960844039917,3.831165313720703,-0.5987359881401062
-1.7128547430038452,3.6465513706207275,-0.5798572897911072
-1.655728816986084,3.590299129486084,-0.5805850028991699
-1.5563124418258667,3.4384939670562744,-0.5653386116027832
-1.4528632164001465,3.2715396881103516,-0.5463860630989075
-1.3704137802124023,3.145890474319458,-0.5335534811019897
-1.3098901510238647,3.06534481048584,-0.5277071595191956
-1.2297848463058472,2.934351921081543,-0.5125648975372314
-1.180294394493103,2.874067783355713,-0.5092135071754456
-1.1320918798446655,2.8131539821624756,-0.5053247809410095
-1.0681275129318237,2.708669662475586,-0.49311262369155884
-1.0251495838165283,2.653794527053833,-0.4894790053367615
-0.9801111221313477,2.5913896560668945,-0.4839816987514496
-0.9357119798660278,2.5286219120025635,-0.4782240092754364
-0.8993222713470459,2.483330726623535,-0.4753555655479431
-0.857231855392456,2.4195809364318848,-0.4686357080936432
-0.8272848725318909,2.3881611824035645,-0.4677528142929077
-0.7867639064788818,2.3237273693084717,-0.4601931869983673
-0.7566635608673096,2.2880899906158447,-0.45817798376083374
-0.7286074161529541,2.255749225616455,-0.4565350115299225
-0.6928994655609131,2.1976239681243896,-0.44925346970558167
-0.6659266352653503,2.1648011207580566,-0.4469703733921051
-0.6406479477882385,2.1353797912597656,-0.4452431797981262
-0.6083216071128845,2.080005645751953,-0.43791064620018005
-0.5932940244674683,2.083346366882324,-0.4426228404045105
-0.5672623515129089,2.045963764190674,-0.43855997920036316
-0.5407921075820923,2.0046558380126953,-0.43351683020591736
-0.515903651714325,1.9668083190917969,-0.42908209562301636
-0.500061571598053,1.9621284008026123,-0.43149080872535706
-0.47031548619270325,1.9017609357833862,-0.42160260677337646
-0.45329612493515015,1.8893295526504517,-0.42215967178344727
-0.4347592890262604,1.8693243265151978,-0.4209769070148468
-0.4123583436012268,1.8306238651275635,-0.41518691182136536
-0.38646477460861206,1.7731144428253174,-0.4049515426158905
-0.3800337016582489,1.8049098253250122,-0.41513583064079285
-0.3582262098789215,1.7619765996932983,-0.4080764353275299
-0.3407168984413147,1.7376031875610352,-0.4049427807331085
-0.3285319209098816,1.7392857074737549,-0.4077792167663574
-0.30951157212257385,1.7034430503845215,-0.4017898738384247
-0.29603296518325806,1.6974469423294067,-0.4028390944004059
-0.284123957157135,1.6988805532455444,-0.405362993478775
-0.2746340334415436,1.715266227722168,-0.41136404871940613
-0.25801974534988403,1.6865155696868896,-0.40654388070106506
-0.24513542652130127,1.6801855564117432,-0.4070976674556732
-0.23425571620464325,1.6888750791549683,-0.41111111640930176
-0.21704699099063873,1.6485787630081177,-0.40297096967697144
-0.2093157172203064,1.679706335067749,-0.4122995436191559
-0.19667024910449982,1.6731071472167969,-0.41241976618766785
-0.17913363873958588,1.6212178468704224,-0.40114110708236694
-0.16781532764434814,1.622054934501648,-0.40264859795570374
-0.15775080025196075,1.6379201412200928,-0.4079418182373047
-0.14565883576869965,1.631049633026123,-0.4075741171836853
-0.13243858516216278,1.6090232133865356,-0.40324726700782776
-0.12239715456962585,1.6247485876083374,-0.4081190824508667
-0.10955963283777237,1.60260808467865,-0.40349456667900085
-0.09913821518421173,1.6181920766830444,-0.4084021747112274
-0.08666196465492249,1.5959103107452393,-0.40361642837524414
-0.07557372003793716,1.5963104963302612,-0.40426164865493774
-0.06480108946561813,1.6042002439498901,-0.40682515501976013
-0.05364665016531944,1.6044472455978394,-0.40747398138046265
-0.04210224375128746,1.5970748662948608,-0.4061099886894226
-0.03173840045928955,1.6351250410079956,-0.4159505069255829
-0.02019892819225788,1.6201096773147583,-0.41231387853622437
-0.009002008475363255,1.6352978944778442,-0.4163846969604492
0.0022898372262716293,1.5633602142333984,-0.3982159495353699
0.013926088809967041,1.627712368965149,-0.41437679529190063
0.025507090613245964,1.6427743434906006,-0.4180026650428772
0.03606102988123894,1.6047674417495728,-0.4081486761569977
0.04597797244787216,1.5629174709320068,-0.39730483293533325
0.060003358870744705,1.6497516632080078,-0.41875290870666504
0.07112821936607361,1.6419005393981934,-0.41615793108940125
0.08236736059188843,1.6339653730392456,-0.4135560393333435
0.09591769427061081,1.6713379621505737,-0.4224298596382141
0.10927730053663254,1.697377324104309,-0.4279676377773285
0.1192401722073555,1.6704087257385254,-0.42015987634658813
0.13086915016174316,1.6698224544525146,-0.41902750730514526
0.14398913085460663,1.6842474937438965,-0.42165690660476685
0.15608449280261993,1.6873658895492554,-0.4210425615310669
0.1708724945783615,1.7168142795562744,-0.42696887254714966
0.1812565177679062,1.7008925676345825,-0.42161989212036133
0.19912214577198029,1.752751350402832,-0.4330642819404602
0.21071064472198486,1.744258999824524,-0.42915409803390503
0.22390812635421753,1.7507762908935547,-0.42892807722091675
0.23870551586151123,1.7684863805770874,-0.4314417541027069
0.2564068138599396,1.8048862218856812,-0.43848201632499695
0.27353933453559875,1.8337037563323975,-0.44327858090400696
0.2907377779483795,1.8586267232894897,-0.44694891571998596
0.3025512993335724,1.8496702909469604,-0.44251081347465515
0.2988921105861664,1.7506614923477173,-0.4166792631149292
0.30587926506996155,1.7192054986953735,-0.4068259000778198
0.31244972348213196,1.6877371072769165,-0.3969527781009674
0.32720857858657837,1.701101303100586,-0.3976680636405945
0.34681910276412964,1.7367316484451294,-0.40349870920181274
0.41076231002807617,1.9849424362182617,-0.4581286907196045
0.4415014088153839,2.0611138343811035,-0.4723998010158539
0.46261194348335266,2.0886073112487793,-0.47536414861679077
0.4866980314254761,2.1270759105682373,-0.48073387145996094
0.5107458233833313,2.161613702774048,-0.4848540425300598
0.5359534621238708,2.1997408866882324,-0.48952242732048035
0.5607766509056091,2.2339444160461426,-0.4932088851928711
0.5727050304412842,2.216136932373047,-0.4854017198085785
0.5352962613105774,2.0135507583618164,-0.4373932480812073
0.5436956286430359,1.9884997606277466,-0.42809271812438965
0.5597946047782898,1.9929239749908447,-0.42525503039360046
0.6025291681289673,2.0891637802124023,-0.4418197572231293
0.7509719729423523,2.5375354290008545,-0.5317302942276001
0.7922467589378357,2.6104190349578857,-0.5416730046272278
0.8303400278091431,2.6681888103485107,-0.5481328964233398
0.8632354140281677,2.7073817253112793,-0.5506529211997986
0.8657636046409607,2.6514556407928467,-0.5338069200515747
0.8990880250930786,2.690297842025757,-0.535801887512207
0.9180710315704346,2.685230255126953,-0.5289894938468933
0.9269739389419556,2.6509740352630615,-0.5164868235588074
0.9706846475601196,2.714315891265869,-0.5228086709976196
1.1019971370697021,3.015782117843628,-0.5739944577217102
1.112474799156189,2.9806301593780518,-0.56051105260849
1.1445633172988892,3.0029356479644775,-0.5578189492225647
1.1658825874328613,2.996227979660034,-0.5496776103973389
1.1631168127059937,2.9285054206848145,-0.5301296710968018
1.1692169904708862,2.8860137462615967,-0.5155301094055176
1.0056284666061401,2.433692216873169,-0.42884787917137146
1.0184857845306396,2.4170095920562744,-0.4200187623500824
1.0263161659240723,2.389740467071533,-0.4092876613140106
1.0402963161468506,2.3764796257019043,-0.40094009041786194
1.0571446418762207,2.370220422744751,-0.39385998249053955
1.0676153898239136,2.349733591079712,-0.3844321370124817
1.0743000507354736,2.3223228454589844,-0.3738563656806946
1.0905447006225586,2.3158798217773438,-0.3667237162590027
1.1039060354232788,2.3021202087402344,-0.3582781255245209
1.1117640733718872,2.2779455184936523,-0.3483491837978363
1.1172857284545898,2.250438690185547,-0.33795803785324097
1.1451778411865234,2.2678639888763428,-0.33431556820869446
1.2002485990524292,2.3365559577941895,-0.33783280849456787
1.2220994234085083,2.339437484741211,-0.33156701922416687
1.2421960830688477,2.338726758956909,-0.3245973289012909
1.2529360055923462,2.3208556175231934,-0.3153479993343353
1.2657629251480103,2.306117296218872,-0.30641257762908936
1.2818422317504883,2.2982728481292725,-0.298401802778244
1.293849229812622,2.2836430072784424,-0.2895317077636719
1.3023695945739746,2.261920213699341,-0.279597669839859
1.310565710067749,2.240196704864502,-0.26976704597473145
1.321916937828064,2.225451707839966,-0.2608192265033722
1.3371165990829468,2.217294931411743,-0.2526836693286896
1.3447672128677368,2.1953938007354736,-0.24273410439491272
1.3560904264450073,2.180192470550537,-0.23346765339374542
1.3667255640029907,2.165227174758911,-0.22440728545188904
1.3860747814178467,2.163025379180908,-0.21643920242786407
1.3927267789840698,2.141056537628174,-0.2063845545053482
1.4007012844085693,2.1226868629455566,-0.19677776098251343
1.4112358093261719,2.107146978378296,-0.1871749311685562
1.41728675365448,2.085055112838745,-0.17694500088691711
1.4355891942977905,2.08272123336792,-0.16844353079795837
1.4497740268707275,2.0736048221588135,-0.1591726541519165
1.4551959037780762,2.0514276027679443,-0.14861510694026947
1.450655460357666,2.0170068740844727,-0.13720589876174927
1.469059705734253,2.0139570236206055,-0.12776944041252136
1.4688271284103394,1.985701560974121,-0.11647120863199234
1.458207130432129,2.075413703918457,0.36427557468414307
1.4737827777862549,2.1289618015289307,0.3809947669506073
1.4566025733947754,2.139160633087158,0.3898349702358246
1.4475761651992798,2.1622421741485596,0.40116506814956665
1.4360837936401367,2.177657127380371,0.4103338122367859
1.427756428718567,2.200042486190796,0.4207006096839905
1.4102176427841187,2.209813117980957,0.42857515811920166
1.3994449377059937,2.228837490081787,0.4380589425563812
1.3829872608184814,2.2376420497894287,0.44537854194641113
1.3775599002838135,2.266650915145874,0.45638740062713623
1.3636813163757324,2.282569646835327,0.46479207277297974
1.354254126548767,2.304647445678711,0.4743121862411499
1.3414340019226074,2.319667100906372,0.48224154114723206
1.3271805047988892,2.335339307785034,0.49014461040496826
1.3184003829956055,2.3609886169433594,0.5000532269477844
1.300376057624817,2.369628429412842,0.5063431859016418
1.2905893325805664,2.39115834236145,0.5151911377906799
1.276561975479126,2.406096935272217,0.522534966468811
1.2719303369522095,2.44191837310791,0.5343222618103027
1.2531987428665161,2.450314998626709,0.540112316608429
1.238632082939148,2.465064287185669,0.5471786856651306
1.224372148513794,2.4795186519622803,0.5541324019432068
1.209317684173584,2.494232654571533,0.5609326958656311
1.1868020296096802,2.4953718185424805,0.5646092891693115
1.1856921911239624,2.5412473678588867,0.5784246921539307
1.176764965057373,2.5695104598999023,0.5882050395011902
1.161579966545105,2.5836617946624756,0.594756543636322
1.1457172632217407,2.597989082336426,0.6011514663696289
1.1353377103805542,2.626455068588257,0.6106861233711243
1.1197854280471802,2.644461154937744,0.6179097890853882
1.1033440828323364,2.658557176589966,0.6241559386253357
1.0902349948883057,2.679399013519287,0.6319496035575867
1.0795140266418457,2.707350492477417,0.6414029598236084
1.0649596452713013,2.728506326675415,0.6489331722259521
1.0498089790344238,2.7496917247772217,0.6565753221511841
1.0307384729385376,2.7599642276763916,0.6616224646568298
1.0189650058746338,2.787719964981079,0.670809805393219
0.9992376565933228,2.7938807010650635,0.674842894077301
0.9740136861801147,2.7857234477996826,0.6751691102981567
0.9445679187774658,2.7668116092681885,0.6727139949798584
0.9170129895210266,2.7511374950408936,0.6710101366043091
0.9039496779441833,2.778609275817871,0.6798567175865173
0.8900986909866333,2.8021962642669678,0.6877424716949463
0.8770844340324402,2.8293421268463135,0.6965662240982056
0.8881868720054626,2.9404296875,0.7258860468864441
0.8753349781036377,2.97520112991333,0.7362893223762512
0.8588840961456299,2.998962879180908,0.7440359592437744
0.8411793112754822,3.0189530849456787,0.7509012222290039
0.8239310383796692,3.038668155670166,0.7576934099197388
0.808382511138916,3.0656211376190186,0.7663506865501404
0.7861307263374329,3.070662021636963,0.7693132162094116
0.7740130424499512,3.1160967350006104,0.7821794152259827
0.7515079975128174,3.120914936065674,0.7849103808403015
0.737589955329895,3.1625139713287354,0.7969509363174438
0.7186394333839417,3.1817495822906494,0.8033847808837891
0.7008190155029297,3.2083230018615723,0.8117485642433167
0.6805548071861267,3.2236506938934326,0.8171681761741638
0.6650086641311646,3.265026330947876,0.8288131356239319
0.646022379398346,3.291445732116699,0.8367232084274292
0.6252467036247253,3.3103089332580566,0.8427711725234985
0.6026884913444519,3.32161021232605,0.8469563126564026
0.5853214859962463,3.358762264251709,0.857749342918396
0.5643041133880615,3.377146005630493,0.8638128042221069
0.5481780767440796,3.4291934967041016,0.8781121969223022
0.5260487794876099,3.4475369453430176,0.8836818337440491
0.5054555535316467,3.4807722568511963,0.8931407332420349
0.4827515780925751,3.4988298416137695,0.8987477421760559
0.4617023468017578,3.5279483795166016,0.9072359800338745
0.4427195191383362,3.5757014751434326,0.9205760359764099
0.42126888036727905,3.608332872390747,0.9300355315208435
0.39704036712646484,3.622192621231079,0.934134840965271
0.37259072065353394,3.6396901607513428,0.9392328858375549
0.35049712657928467,3.6795802116394043,0.9501558542251587
0.32823559641838074,3.7230966091156006,0.9620751142501831
0.3047734797000885,3.7551400661468506,0.9710819125175476
0.2820003032684326,3.8021178245544434,0.984013020992279
0.2567952275276184,3.830169916152954,0.9918864965438843
0.23266486823558807,3.877018451690674,1.0042314529418945
0.20648975670337677,3.8972761631011963,1.0097417831420898
0.18060992658138275,3.928684949874878,1.018194317817688
0.15592025220394135,4.001482963562012,1.037432312965393
0.12734970450401306,3.994760513305664,1.0361157655715942
0.09978353977203369,4.002945423126221,1.0387080907821655
0.07257447391748428,4.04127311706543,1.048805832862854
0.0450638122856617,4.098401069641113,1.0634894371032715
0.016316121444106102,4.057033061981201,1.052664875984192
-0.012725024484097958,4.159143447875977,1.0791189670562744
-0.042069144546985626,4.192990303039551,1.087914228439331
-0.07273484021425247,4.279556751251221,1.1104422807693481
-0.10343031585216522,4.316755771636963,1.120217204093933
-0.13295908272266388,4.300943851470947,1.1157989501953125
-0.16439278423786163,4.341672420501709,1.1258434057235718
-0.19323879480361938,4.299041271209717,1.1143174171447754
-0.22387079894542694,4.312892436981201,1.1174975633621216
-0.3129352927207947,5.315662860870361,1.3768820762634277
-0.35437965393066406,5.381522178649902,1.3935630321502686
-0.3063085973262787,4.206012725830078,1.0889180898666382
-0.33467355370521545,4.189005374908447,1.0837301015853882
-0.3603091835975647,4.149270534515381,1.0725902318954468
-0.392427921295166,4.1847124099731445,1.0809367895126343
-0.4190346598625183,4.159677982330322,1.0737085342407227
-0.44586697220802307,4.13822078704834,1.0674587488174438
-0.4734397232532501,4.1202874183654785,1.062162160873413
-0.49846142530441284,4.08719539642334,1.0530277490615845
-0.5265704989433289,4.084193229675293,1.0509953498840332
-0.5526139736175537,4.06599760055542,1.0450901985168457
-0.5805743336677551,4.062623977661133,1.0430487394332886
-0.5994394421577454,3.9953389167785645,1.0246469974517822
-0.631949782371521,4.021517276763916,1.030280351638794
-0.6574867367744446,4.002594470977783,1.0244048833847046
-0.6801249980926514,3.96862530708313,1.0145933628082275
-0.7185220718383789,4.027968406677246,1.0281283855438232
-0.9609026908874512,5.182307243347168,1.3207190036773682
-0.9848135709762573,5.113122940063477,1.301084041595459
-1.0139641761779785,5.07737922668457,1.2900861501693726
-1.0463238954544067,5.056209564208984,1.282838225364685
-1.0847901105880737,5.064489364624023,1.2831246852874756
-1.113968849182129,5.031955718994141,1.2726601362228394
-1.1387875080108643,4.980807304382324,1.257142186164856
-1.1710435152053833,4.966588020324707,1.2510770559310913
-1.2049492597579956,4.959528923034668,1.2468775510787964
-1.2088534832000732,4.830635070800781,1.212133765220642
-1.234025478363037,4.790041923522949,1.1996614933013916
-1.2544282674789429,4.730833530426025,1.182550072669983
-1.298491358757019,4.767386436462402,1.1886922121047974
-1.3288377523422241,4.752343654632568,1.1819965839385986
-1.3589859008789062,4.7371134757995605,1.1753226518630981
-1.0770683288574219,3.6606218814849854,0.9060215353965759
-1.108691692352295,3.672006845474243,0.9065602421760559
-1.1502054929733276,3.715944528579712,0.9151774644851685
-1.4779132604599,4.662574768066406,1.1450303792953491
-1.490792989730835,4.595905303955078,1.1252071857452393
-1.5339922904968262,4.623146057128906,1.1284444332122803
-1.5940759181976318,4.696723937988281,1.1428974866867065
-1.6270347833633423,4.68684720993042,1.136982798576355
-1.6472406387329102,4.640825271606445,1.1223771572113037
-1.6921908855438232,4.66667366027832,1.1247904300689697
-1.7237062454223633,4.656704902648926,1.118233561515808
-1.741737723350525,4.610839366912842,1.103133201599121
-1.7899125814437866,4.643013000488281,1.106680989265442
-1.8226149082183838,4.631905555725098,1.0998296737670898
-1.8439664840698242,4.592200756072998,1.0862563848495483
-1.8538161516189575,4.528125762939453,1.0665972232818604
-1.884415626525879,4.517204284667969,1.0592602491378784
-1.9065121412277222,4.484781742095947,1.0468708276748657
-1.956784725189209,4.5189690589904785,1.0501011610031128
-1.971869945526123,4.468291282653809,1.0334583520889282
-2.0066659450531006,4.462932109832764,1.0273902416229248
-2.024092197418213,4.423315525054932,1.012821912765503
-2.0479705333709717,4.397339344024658,1.0013350248336792
-2.0661356449127197,4.361062526702881,0.9876938462257385
-2.1182405948638916,4.393218994140625,0.9893706440925598
-2.1427433490753174,4.366208553314209,0.9776355624198914
-2.1694207191467285,4.346442699432373,0.9672127366065979
-2.2095112800598145,4.354061126708984,0.9624893665313721
-2.20536732673645,4.276374340057373,0.9391237497329712
-2.234919786453247,4.26303768157959,0.9298492670059204
-2.2762253284454346,4.269325256347656,0.9246523976325989
-2.2528769969940186,4.157631874084473,0.8937548995018005
-2.241877555847168,4.073873519897461,0.868834912776947
-2.254671335220337,4.033730983734131,0.8533042073249817
-2.3092844486236572,4.0668158531188965,0.8531339168548584
-2.340322971343994,4.055651664733887,0.8434219360351562
-2.362135171890259,4.031829357147217,0.8307082653045654
-2.3929145336151123,4.024803638458252,0.8213049173355103
-2.412191867828369,3.9975333213806152,0.8076926469802856
-2.4449777603149414,3.9889414310455322,0.7973945140838623
-2.4732022285461426,3.9738404750823975,0.785664439201355
-2.483142614364624,3.933573007583618,0.7686082124710083
-2.5175869464874268,3.9322593212127686,0.7592277526855469
-2.5374021530151367,3.9035892486572266,0.7438651323318481
-2.565216541290283,3.8878259658813477,0.7309073209762573
-2.067077159881592,3.090277910232544,0.572627067565918
-2.0960757732391357,3.0913097858428955,0.5644434094429016
-2.0588955879211426,2.9924263954162598,0.537586510181427
-2.075680732727051,2.9734444618225098,0.5249103903770447
-2.095052480697632,2.9618284702301025,0.5134992599487305
-2.1126842498779297,2.946542739868164,0.5011920928955078
-1.0636309385299683,1.4619160890579224,0.2434433549642563
-1.0937966108322144,1.484083652496338,0.24161994457244873
-1.0941991806030273,1.465545654296875,0.23306307196617126
-2.046576738357544,2.898081064224243,-0.2201145440340042
-2.0851573944091797,2.9983973503112793,-0.2418140023946762
-2.048797845840454,2.9938132762908936,-0.25541114807128906
-2.0311214923858643,3.0139732360839844,-0.27040427923202515
-1.9869368076324463,2.995370388031006,-0.2815011739730835
-1.9363980293273926,2.966696262359619,-0.29133880138397217
-1.9193577766418457,2.985713243484497,-0.30494022369384766
-1.9074474573135376,3.0150256156921387,-0.3197079598903656
-1.8739351034164429,3.0116522312164307,-0.33124828338623047
-1.8441675901412964,3.010369300842285,-0.3421168923377991
-1.8259108066558838,3.029135227203369,-0.35523727536201477
-1.8031448125839233,3.041271448135376,-0.3676130175590515
-1.7809849977493286,3.0528345108032227,-0.3796020746231079
-1.7583534717559814,3.064411163330078,-0.3916368782520294
-1.739253282546997,3.0826756954193115,-0.40437114238739014
-1.7165087461471558,3.0938456058502197,-0.41607865691185
-1.6998597383499146,3.114736318588257,-0.4288751184940338
-1.6804897785186768,3.1324424743652344,-0.4412543773651123
-2.0488693714141846,3.887232542037964,-0.5600810050964355
-2.027953624725342,3.913644552230835,-0.5758424401283264
-2.0031704902648926,3.9330499172210693,-0.5905494689941406
-1.9534425735473633,3.9040637016296387,-0.5978190898895264
-1.8821003437042236,3.8294126987457275,-0.5977268815040588
-1.7868541479110718,3.701699733734131,-0.5886667370796204
-1.6936405897140503,3.5729291439056396,-0.5783806443214417
-1.6021733283996582,3.4432272911071777,-0.5671205520629883
-1.4872713088989258,3.2562060356140137,-0.5454051494598389
-1.4118444919586182,3.1487674713134766,-0.5360353589057922
-1.3330461978912354,3.0300850868225098,-0.5239682793617249
-1.2693450450897217,2.942579984664917,-0.5168275833129883
-1.1985526084899902,2.832890272140503,-0.5050376653671265
-1.1413637399673462,2.7508628368377686,-0.49760597944259644
-1.090977668762207,2.6826364994049072,-0.49207255244255066
-1.0387463569641113,2.6067535877227783,-0.4847566485404968
-0.9931153059005737,2.5447113513946533,-0.47971057891845703
-0.9543377161026001,2.4964468479156494,-0.4768334925174713
-0.9107323884963989,2.433507204055786,-0.4706486761569977
-0.8746835589408875,2.3881678581237793,-0.46760672330856323
-0.8329533338546753,2.324374198913574,-0.46065661311149597
-0.8021011352539062,2.2892088890075684,-0.4592204689979553
-0.7657644748687744,2.2356104850769043,-0.4535304009914398
-0.7314508557319641,2.1852962970733643,-0.448275089263916
-0.7015293836593628,2.1455655097961426,-0.4449717104434967
-0.6734345555305481,2.109189748764038,-0.4421781003475189
-0.6410313844680786,2.0580637454986572,-0.43590793013572693
-0.6274328231811523,2.0651633739471436,-0.44180089235305786
-0.5920791625976562,1.99879789352417,-0.4318462908267975
-0.5714966654777527,1.9798489809036255,-0.4319591820240021
-0.5542991161346436,1.9718201160430908,-0.4341283440589905
-0.5190972089767456,1.897339940071106,-0.4214867055416107
-0.4995024800300598,1.8779124021530151,-0.4209562838077545
-0.47666096687316895,1.843488335609436,-0.41689184308052063
-0.4552655816078186,1.812621831893921,-0.4132438600063324
-0.4370514154434204,1.7926914691925049,-0.41195428371429443
-0.4173727333545685,1.7651947736740112,-0.40885546803474426
-0.39872634410858154,1.7412813901901245,-0.4065643548965454
-0.3848077952861786,1.7358148097991943,-0.40822044014930725
-0.36620408296585083,1.707930326461792,-0.4044816195964813
-0.34954163432121277,1.687343955039978,-0.4024079144001007
-0.33764615654945374,1.6889954805374146,-0.4056234061717987
-0.31909656524658203,1.6570481061935425,-0.4005316495895386
-0.30469369888305664,1.643625259399414,-0.3996991813182831
-0.29582419991493225,1.6600003242492676,-0.40613284707069397
-0.28607505559921265,1.6725749969482422,-0.411700576543808
-0.2737366557121277,1.6701533794403076,-0.41336819529533386
-0.2559783160686493,1.6339678764343262,-0.40652066469192505
-0.24455079436302185,1.6351242065429688,-0.40889933705329895
-0.21973015367984772,1.542380690574646,-0.38769933581352234
-0.214544415473938,1.5846689939498901,-0.400176078081131
-0.19626176357269287,1.5292781591415405,-0.38780540227890015
-0.19198612868785858,1.5827714204788208,-0.40306195616722107
-0.1747218817472458,1.5309361219406128,-0.39154866337776184
-0.16807538270950317,1.569324016571045,-0.40287527441978455
-0.15564820170402527,1.5550098419189453,-0.40049248933792114
-0.14553222060203552,1.5632061958312988,-0.4039205014705658
-0.13332994282245636,1.5487240552902222,-0.40150561928749084
-0.12234727293252945,1.549288272857666,-0.4028240740299225
-0.11157815158367157,1.5498251914978027,-0.4038841128349304
-0.10031686723232269,1.5427424907684326,-0.4029734432697296
-0.08957578241825104,1.5431270599365234,-0.40403008460998535
-0.07845983654260635,1.5359333753585815,-0.40293368697166443
-0.06693924963474274,1.5211846828460693,-0.399601012468338
-0.05666053295135498,1.529001235961914,-0.4022033214569092
-0.046482283622026443,1.5442981719970703,-0.4068021774291992
-0.036260947585105896,1.5671204328536987,-0.41323551535606384
-0.024873260408639908,1.5370718240737915,-0.4054562449455261
-0.013553851284086704,1.488060712814331,-0.3926893472671509
-0.003431672928854823,1.5824921131134033,-0.41779792308807373
0.007037288509309292,1.4729448556900024,-0.38890355825424194
0.018098467960953712,1.5446829795837402,-0.407593697309494
0.02925058640539646,1.567246675491333,-0.41331255435943604
0.04054576903581619,1.5821782350540161,-0.4170326590538025
0.049549542367458344,1.5140033960342407,-0.39870622754096985
0.06220054626464844,1.5666518211364746,-0.4119201600551605
0.07348461449146271,1.5739140510559082,-0.4131951332092285
0.08401886373758316,1.5660037994384766,-0.4105094373226166
0.09262674301862717,1.5278780460357666,-0.3997896611690521
0.10754752904176712,1.587823748588562,-0.4144059121608734
0.11889975517988205,1.5911074876785278,-0.41422921419143677
0.12782754004001617,1.5641587972640991,-0.40621721744537354
0.14575719833374023,1.6426783800125122,-0.42543765902519226
0.15435804426670074,1.611913800239563,-0.4160212576389313
0.16156309843063354,1.5697875022888184,-0.40373292565345764
0.18287688493728638,1.6630884408950806,-0.4262755215167999
0.1953832060098648,1.6697463989257812,-0.42641428112983704
0.2094373255968094,1.687662124633789,-0.4290919601917267
0.22521866858005524,1.716741919517517,-0.4345766305923462
0.23640823364257812,1.708139419555664,-0.4304901957511902
0.24508652091026306,1.6844977140426636,-0.4225956201553345
0.2660854160785675,1.743351936340332,-0.4350332021713257
0.2795308232307434,1.7495837211608887,-0.43427324295043945
0.29492560029029846,1.7669473886489868,-0.4362680912017822
0.2975759208202362,1.7093955278396606,-0.4197598993778229
0.3125405013561249,1.7229033708572388,-0.42039912939071655
0.32750096917152405,1.736318826675415,-0.42103657126426697
0.33533424139022827,1.7123137712478638,-0.41263723373413086
0.36479827761650085,1.7963502407073975,-0.43015196919441223
0.39863669872283936,1.895085096359253,-0.45055902004241943
0.4211868643760681,1.9339662790298462,-0.45645686984062195
0.45070621371269226,2.002418279647827,-0.46923765540122986
0.4700007140636444,2.0223681926727295,-0.47049880027770996
0.49140429496765137,2.0496459007263184,-0.47302061319351196
0.5132147669792175,2.0767412185668945,-0.47541344165802
0.5422799587249756,2.1294801235198975,-0.4834742546081543
0.559280514717102,2.1340060234069824,-0.480563759803772
0.5346422791481018,1.9836151599884033,-0.4427116811275482
0.5517387986183167,1.9918469190597534,-0.44055402278900146
0.5679440498352051,1.9962575435638428,-0.4375322461128235
0.6606106758117676,2.2610976696014404,-0.4909887909889221
0.729324460029602,2.433483123779297,-0.5232440233230591
0.7600283622741699,2.4734599590301514,-0.5265478491783142
0.8040188550949097,2.5533268451690674,-0.5380850434303284
0.8491944670677185,2.632758617401123,-0.5491926670074463
0.8861922025680542,2.682617664337158,-0.5534679293632507
0.907630205154419,2.6849939823150635,-0.5478687286376953
0.9103696942329407,2.632784843444824,-0.5312370657920837
0.9405990839004517,2.6602225303649902,-0.5307241678237915
1.0677577257156372,2.9547553062438965,-0.5825262069702148
1.1032636165618896,2.9883954524993896,-0.5820368528366089
1.1302270889282227,2.9963912963867188,-0.5763078927993774
1.1488434076309204,2.9826791286468506,-0.5664882659912109
1.1615041494369507,2.9546000957489014,-0.5538594722747803
1.185238242149353,2.9550650119781494,-0.5465602278709412
1.175545334815979,2.873314380645752,-0.5242294669151306
1.1028780937194824,2.6422295570373535,-0.4752710461616516
1.0279442071914673,2.415846347808838,-0.42830872535705566
1.0403454303741455,2.3992209434509277,-0.41909483075141907
1.0448246002197266,2.3648390769958496,-0.4068770408630371
1.0584992170333862,2.351538896560669,-0.3983505964279175
1.0720957517623901,2.338142156600952,-0.38965311646461487
1.0884634256362915,2.3317947387695312,-0.38224101066589355
1.0982774496078491,2.3112964630126953,-0.372516393661499
1.1080677509307861,2.290651559829712,-0.3627774715423584
1.1189935207366943,2.273590326309204,-0.35361364483833313
1.1282273530960083,2.252902030944824,-0.3438398241996765
1.151182770729065,2.259803533554077,-0.33833184838294983
1.1868878602981567,2.2905027866363525,-0.3361864387989044
1.213620662689209,2.303910493850708,-0.3312806189060211
1.2460741996765137,2.3273074626922607,-0.32767346501350403
1.2607436180114746,2.3161280155181885,-0.31896764039993286
1.2698907852172852,2.294553518295288,-0.30870917439460754
1.2857297658920288,2.2868130207061768,-0.3004763424396515
1.2938941717147827,2.2654123306274414,-0.29046630859375
1.3061773777008057,2.25045108795166,-0.28114455938339233
1.313917636871338,2.2289624214172363,-0.2710626423358917
1.3294795751571655,2.2207419872283936,-0.2625204920768738
1.3410171270370483,2.2057013511657715,-0.25316834449768066
1.352436900138855,2.1905643939971924,-0.24375052750110626
1.3590285778045654,2.169084310531616,-0.23371067643165588
1.3697253465652466,2.154048204421997,-0.22435471415519714
1.3832411766052246,2.14169979095459,-0.214868426322937
1.397733449935913,2.133150577545166,-0.20594185590744019
1.399191975593567,2.1050362586975098,-0.19519737362861633
1.4229016304016113,2.1087615489959717,-0.1869804859161377
1.4283998012542725,2.086991310119629,-0.176518976688385
1.4381133317947388,2.071607828140259,-0.16654594242572784
1.4438444375991821,2.049342393875122,-0.15569178760051727
1.4054416418075562,1.9673388004302979,-0.14067839086055756
1.4528311491012573,2.0059804916381836,-0.1343454271554947
1.467000126838684,1.9963140487670898,-0.12395826727151871
1.4449585676193237,1.940428376197815,-0.1109582781791687
1.43985116481781,2.034494638442993,0.36837202310562134
1.4844084978103638,2.1290059089660645,0.39305227994918823
1.4633435010910034,2.132493734359741,0.4009570777416229
1.4459872245788574,2.142594575881958,0.4099757671356201
1.4383134841918945,2.164680242538452,0.4208517372608185
1.4263666868209839,2.1802027225494385,0.43022575974464417
1.4232063293457031,2.2127766609191895,0.4429008960723877
1.4056578874588013,2.222356081008911,0.45090529322624207
1.3976185321807861,2.2440762519836426,0.4609336853027344
1.3846267461776733,2.2596383094787598,0.46958598494529724
1.3747131824493408,2.28214693069458,0.4795699715614319
1.3566169738769531,2.291414976119995,0.4868529438972473
