X,Y,Z
1.3051594495773315,2.278211832046509,-0.19496497511863708
1.3090860843658447,2.2493765354156494,-0.18824730813503265
1.339943528175354,2.2678308486938477,-0.1854614019393921
1.3976404666900635,2.329144239425659,-0.1858644038438797
1.4646764993667603,2.402907609939575,-0.18687023222446442
1.5034973621368408,2.4298274517059326,-0.18388234078884125
1.584107756614685,2.522429943084717,-0.1855926811695099
1.6458016633987427,2.580747127532959,-0.18419691920280457
1.6906630992889404,2.612638473510742,-0.18065904080867767
1.716470718383789,2.614888906478882,-0.17492161691188812
1.7308003902435303,2.5965282917022705,-0.16731898486614227
1.4007517099380493,2.0714592933654785,-0.12844105064868927
1.4143773317337036,2.0625250339508057,-0.12277684360742569
1.4288345575332642,2.0528883934020996,-0.11673682928085327
1.4423257112503052,2.0437660217285156,-0.1107407659292221
1.4379781484603882,2.008882522583008,-0.10314113646745682
1.447296142578125,1.9928611516952515,-0.09639982134103775
1.453019618988037,1.9744693040847778,-0.08959735929965973
2.7947850227355957,3.9458134174346924,0.345691055059433
2.678875684738159,3.845254898071289,0.3468400537967682
2.5965704917907715,3.782827377319336,0.3498804271221161
2.6940367221832275,3.9887428283691406,0.37800508737564087
2.686821699142456,4.0441131591796875,0.39203551411628723
2.6581809520721436,4.0620436668396,0.4017806649208069
2.636526584625244,4.093696117401123,0.41279804706573486
1.6261903047561646,2.56772518157959,0.2637408673763275
1.6115132570266724,2.5855464935302734,0.2701292335987091
1.5504086017608643,2.5266973972320557,0.26824915409088135
2.5597901344299316,4.243173122406006,0.45730799436569214
2.5398333072662354,4.281364917755127,0.4681447148323059
2.948784589767456,5.050452709197998,0.5596631765365601
2.9309754371643066,5.104609966278076,0.5731245875358582
2.9094600677490234,5.156051158905029,0.585988461971283
2.886439085006714,5.203505992889404,0.5983307957649231
2.860849618911743,5.243172645568848,0.6095656752586365
2.8359951972961426,5.286515712738037,0.6211768984794617
2.813589096069336,5.341384410858154,0.6340492367744446
2.78820538520813,5.388668060302734,0.6459324955940247
2.7607979774475098,5.427933692932129,0.6566243171691895
2.7485971450805664,5.498322486877441,0.6711937189102173
2.7178728580474854,5.538561820983887,0.6817208528518677
1.2192087173461914,2.5323963165283203,0.3143095076084137
1.1978037357330322,2.533573627471924,0.3169112503528595
1.1767162084579468,2.5344531536102295,0.3194408118724823
1.1553056240081787,2.535336971282959,0.321880578994751
0.6901611089706421,1.5444544553756714,0.19741496443748474
0.6911769509315491,1.5776913166046143,0.20303070545196533
0.67989581823349,1.5823372602462769,0.20495545864105225
0.6567271947860718,1.5582318305969238,0.20311997830867767
0.6425378322601318,1.5555148124694824,0.20396819710731506
0.6281976103782654,1.5527727603912354,0.20474494993686676
0.6168015599250793,1.5571085214614868,0.20645929872989655
0.6112973690032959,1.5756990909576416,0.2100534439086914
0.5919955968856812,1.557978630065918,0.20879210531711578
0.5754694938659668,1.5474193096160889,0.20840436220169067
0.5549181699752808,1.525875449180603,0.20644181966781616
0.5502852201461792,1.5479304790496826,0.2103845328092575
0.5340940952301025,1.5369970798492432,0.20984189212322235
0.5220725536346436,1.5368387699127197,0.2107483148574829
0.5088164210319519,1.5329285860061646,0.2111191749572754
0.4953214228153229,1.529028296470642,0.21136216819286346
0.48891037702560425,1.5471694469451904,0.2146669626235962
0.47765597701072693,1.550504207611084,0.21593953669071198
0.4623505175113678,1.5388025045394897,0.2150905579328537
0.4559372365474701,1.556687593460083,0.21838779747486115
0.44271597266197205,1.5522910356521606,0.21847286820411682
0.4387739896774292,1.5813945531845093,0.22323302924633026
0.431411474943161,1.59930419921875,0.22644194960594177
0.41604548692703247,1.5872178077697754,0.22541053593158722
0.408770352602005,1.604933500289917,0.2286072075366974
0.4049831032752991,1.6376451253890991,0.2339702993631363
0.38425108790397644,1.6027393341064453,0.22952499985694885
0.3762873113155365,1.6203876733779907,0.23259752988815308
0.36278367042541504,1.6154017448425293,0.23244592547416687
0.3646402955055237,1.6782433986663818,0.24206054210662842
0.352936327457428,1.6806104183197021,0.24298416078090668
0.34502559900283813,1.701855182647705,0.24664421379566193
0.3373466730117798,1.7269309759140015,0.25071319937705994
0.3398326635360718,1.8090230226516724,0.26310640573501587
0.326962947845459,1.8112759590148926,0.2639138102531433
0.3196304142475128,1.8438698053359985,0.26915308833122253
0.3004501760005951,1.807793378829956,0.26437920331954956
0.29270628094673157,1.8402732610702515,0.2696297764778137
0.28294843435287476,1.8651708364486694,0.2736183702945709
0.272518515586853,1.8861628770828247,0.2770499587059021
0.26864007115364075,1.9568812847137451,0.28781646490097046
0.6752033233642578,5.185908317565918,0.7637633681297302
0.6400303244590759,5.19790506362915,0.766592264175415
0.6078424453735352,5.23653507232666,0.7733952403068542
0.5678490996360779,5.217517852783203,0.771208643913269
0.5260211825370789,5.171231269836426,0.7649813294410706
0.48560136556625366,5.132314682006836,0.7598708868026733
0.3628048598766327,4.142203330993652,0.6138250231742859
0.33524131774902344,4.159897804260254,0.6170231699943542
0.3063376247882843,4.169736385345459,0.6191008687019348
0.2756046950817108,4.148558139801025,0.6162528991699219
0.24701304733753204,4.158028602600098,0.6178810596466064
0.4051893651485443,7.7365217208862305,1.150112271308899
0.3505731225013733,7.723585605621338,1.1487095355987549
0.29501643776893616,7.702572822570801,1.1461682319641113
0.24057933688163757,7.677274227142334,1.1430312395095825
0.18642769753932953,7.647790431976318,1.138905644416809
0.13254399597644806,7.6179890632629395,1.1343746185302734
0.07912535220384598,7.591673851013184,1.1304184198379517
0.025288032367825508,7.576578617095947,1.1281887292861938
-0.027278952300548553,7.545651912689209,1.123656153678894
-0.07949720323085785,7.514361381530762,1.1191229820251465
-0.13158513605594635,7.505916118621826,1.1178728342056274
-0.1824449896812439,7.454718112945557,1.109665036201477
-0.23377415537834167,7.437930583953857,1.106636881828308
-0.285692423582077,7.420760631561279,1.1036005020141602
-0.3376210629940033,7.4264235496521,1.104021430015564
-0.28302672505378723,5.398223876953125,0.8022391200065613
-0.32008782029151917,5.388490676879883,0.8005641102790833
-0.3573265075683594,5.3863043785095215,0.7995220422744751
-0.39291292428970337,5.352993488311768,0.7938410639762878
-0.42926809191703796,5.342607498168945,0.791615903377533
-0.46432793140411377,5.316561222076416,0.7871088981628418
-0.43444302678108215,4.605434417724609,0.6812986135482788
-0.465675413608551,4.594750881195068,0.6792219281196594
-0.4966490566730499,4.5800299644470215,0.6762625575065613
-0.5272732377052307,4.569030284881592,0.6737319827079773
-0.5558424592018127,4.542485237121582,0.6689482927322388
-0.584266722202301,4.515738010406494,0.6641699075698853
-0.6166738867759705,4.519434452056885,0.6639001369476318
-0.647498607635498,4.507519721984863,0.6613559126853943
-0.6751511096954346,4.48023796081543,0.656405508518219
-0.7058147192001343,4.475778579711914,0.6545682549476624
-0.7345635890960693,4.4596638679504395,0.6510601043701172
-0.7613028883934021,4.431908130645752,0.6458867788314819
-0.7907941937446594,4.419155597686768,0.6429246664047241
-0.8164117932319641,4.383304119110107,0.6366248726844788
-0.8415747284889221,4.351256847381592,0.6308134198188782
-0.729117751121521,3.636610269546509,0.5259956121444702
-0.7570620775222778,3.646970272064209,0.5263004899024963
-0.7787989974021912,3.626840591430664,0.5222244262695312
-0.9621871709823608,4.3314642906188965,0.6222636103630066
-0.9880351424217224,4.306128025054932,0.6172623634338379
-1.012465000152588,4.276939392089844,0.6116451025009155
-1.0378543138504028,4.2553019523620605,0.6068271398544312
-1.0629959106445312,4.233514308929443,0.6020277738571167
-1.1040716171264648,4.27135705947876,0.6056843400001526
-1.1238878965377808,4.226541042327881,0.5976431965827942
-1.1532962322235107,4.218996047973633,0.5949189066886902
-1.1802762746810913,4.203889846801758,0.5910163521766663
-1.2065625190734863,4.188798904418945,0.5868764519691467
-1.2353885173797607,4.18082857131958,0.5837298035621643
-1.2617920637130737,4.165281772613525,0.579565167427063
-1.2908304929733276,4.1568169593811035,0.5763828158378601
-1.3138996362686157,4.129707336425781,0.5706548690795898
-1.3373385667800903,4.10635232925415,0.5652484893798828
-1.3704044818878174,4.112262725830078,0.5636920928955078
-1.393143892288208,4.088729381561279,0.5581651926040649
-1.4137402772903442,4.057534694671631,0.5515838861465454
-1.444566249847412,4.055379867553711,0.5489691495895386
-1.4754542112350464,4.052982807159424,0.5463315844535828
-1.4891375303268433,4.0071845054626465,0.5375153422355652
-1.5164960622787476,3.997443914413452,0.5335372090339661
-1.5519652366638184,4.009285926818848,0.5324718356132507
-1.5714212656021118,3.977240800857544,0.5255206227302551
-1.5933669805526733,3.952317714691162,0.5195640921592712
-1.6187245845794678,3.9383628368377686,0.5148630142211914
-1.6500210762023926,3.9385483264923096,0.5118445158004761
-1.676337480545044,3.9279837608337402,0.5074992179870605
-1.7037981748580933,3.9167370796203613,0.5029522180557251
-1.7233541011810303,3.887544631958008,0.4961354434490204
-1.7547285556793213,3.886854410171509,0.4928198456764221
-1.7697428464889526,3.8507819175720215,0.4848146438598633
-1.7756431102752686,3.797307252883911,0.4747631847858429
-1.8288606405258179,3.8414924144744873,0.4767659306526184
-1.8608657121658325,3.8396644592285156,0.473007470369339
-1.885218620300293,3.8240747451782227,0.46739569306373596
-1.8971028327941895,3.7841250896453857,0.45865508913993835
-1.925927996635437,3.7788965702056885,0.45420145988464355
-1.948788046836853,3.759073495864868,0.44783762097358704
-1.9678375720977783,3.732234001159668,0.44068172574043274
-1.988868236541748,3.712925434112549,0.4341896176338196
-2.009575605392456,3.6935768127441406,0.42769867181777954
-1.6967389583587646,3.067918539047241,0.351516991853714
-1.722104549407959,3.063253879547119,0.34721627831459045
-1.7313581705093384,3.0317795276641846,0.3397938311100006
-0.8385748267173767,1.446536898612976,0.16022908687591553
-0.8562021851539612,1.4545352458953857,0.1591537594795227
-0.8546101450920105,1.4286389350891113,0.15426750481128693
-0.8724115490913391,1.436362624168396,0.1530247926712036
-0.8776559829711914,1.4243195056915283,0.14961305260658264
-0.8665834665298462,1.385683536529541,0.14340335130691528
-0.8888592720031738,1.3995405435562134,0.14254599809646606
-0.8984190821647644,1.3937244415283203,0.1395680159330368
-0.9031742811203003,1.3816468715667725,0.1359861046075821
-0.8975913524627686,1.3529917001724243,0.13068516552448273
-0.9178985357284546,1.3631372451782227,0.129093736410141
-2.430601119995117,3.5611720085144043,0.3303018808364868
-1.3780418634414673,1.9414148330688477,-0.09851229190826416
-1.1879879236221313,1.7541390657424927,-0.10353292524814606
-1.155198335647583,1.7335652112960815,-0.10678867250680923
-1.2456899881362915,1.8979014158248901,-0.1214272603392601
-1.3777549266815186,2.1327133178710938,-0.1414768099784851
-1.619425654411316,2.674255847930908,-0.20082221925258636
-1.5180749893188477,2.5885374546051025,-0.20459406077861786
-1.4280633926391602,2.518075704574585,-0.208634153008461
-1.3628448247909546,2.4425723552703857,-0.20680022239685059
-1.3373411893844604,2.4384334087371826,-0.21078303456306458
-1.2697237730026245,2.3550682067871094,-0.20767943561077118
-1.2456047534942627,2.349874258041382,-0.21122750639915466
-1.1945557594299316,2.2927122116088867,-0.20987235009670258
-1.1547377109527588,2.255903482437134,-0.21016493439674377
-1.1176652908325195,2.221935272216797,-0.2105044722557068
-1.0761475563049316,2.177009105682373,-0.2096271812915802
-1.0396983623504639,2.1424708366394043,-0.20960456132888794
-1.0056618452072144,2.1109626293182373,-0.20969301462173462
-0.9841783046722412,2.103525161743164,-0.21200032532215118
-0.9482622742652893,2.064068555831909,-0.21099860966205597
-0.9173377752304077,2.035053253173828,-0.2108418494462967
-0.8837119340896606,1.9986062049865723,-0.20981867611408234
-0.8678725361824036,2.000945806503296,-0.21277718245983124
-0.8264057040214539,1.9422568082809448,-0.20911866426467896
-0.8063963651657104,1.9334837198257446,-0.2106284499168396
-0.7762637138366699,1.8993439674377441,-0.20931747555732727
-0.757186770439148,1.8899762630462646,-0.2106064110994339
-0.7295289039611816,1.8588241338729858,-0.20945654809474945
-0.7064954042434692,1.8382935523986816,-0.209279403090477
-0.6851242780685425,1.8211839199066162,-0.20944109559059143
-0.6494739055633545,1.7637137174606323,-0.2048429697751999
-0.646295428276062,1.7935056686401367,-0.21034206449985504
-0.6294267773628235,1.7868595123291016,-0.21152806282043457
-0.6065035462379456,1.7616759538650513,-0.21041905879974365
-0.5890947580337524,1.750923752784729,-0.21097201108932495
-0.5659140348434448,1.721551537513733,-0.2092260867357254
-0.5537422895431519,1.7252393960952759,-0.21140629053115845
-0.5296433568000793,1.6919200420379639,-0.20896784961223602
-0.5153735280036926,1.6879585981369019,-0.21008801460266113
-0.49691495299339294,1.6689687967300415,-0.2092989981174469
-0.48521631956100464,1.6721599102020264,-0.21126627922058105
-0.46807724237442017,1.6566704511642456,-0.21072159707546234
-0.450154185295105,1.637287974357605,-0.20965729653835297
-0.4404745399951935,1.647714614868164,-0.21241571009159088
-0.4309020936489105,1.6580259799957275,-0.21515454351902008
-0.4154234230518341,1.6457723379135132,-0.21485699713230133
-0.400092214345932,1.6334048509597778,-0.21447475254535675
-0.3832297921180725,1.6133527755737305,-0.21305884420871735
-0.36829259991645813,1.600724458694458,-0.2126176953315735
-0.3587900698184967,1.610620141029358,-0.21511998772621155
-0.34418272972106934,1.597779631614685,-0.21444015204906464
-0.3305627107620239,1.5886080265045166,-0.21424610912799835
-0.317926824092865,1.5831080675125122,-0.21453838050365448
-0.3052074611186981,1.577541708946228,-0.21483880281448364
-0.2913009822368622,1.5642573833465576,-0.2139454334974289
-0.2816695272922516,1.5737342834472656,-0.2160990685224533
-0.26668983697891235,1.5526301860809326,-0.2140546292066574
-0.25460872054100037,1.546662449836731,-0.21408481895923615
-0.24243438243865967,1.5406315326690674,-0.21411386132240295
-0.23048970103263855,1.534514307975769,-0.2139369696378708
-0.2197260558605194,1.5359686613082886,-0.2148236185312271
-0.20640932023525238,1.5181705951690674,-0.21301548182964325
-0.19633078575134277,1.5232855081558228,-0.2144250124692917
-0.18665143847465515,1.5321847200393677,-0.2163003385066986
-0.17354533076286316,1.514160394668579,-0.21427445113658905
-0.16131334006786346,1.4998570680618286,-0.21276432275772095
-0.15163469314575195,1.5085468292236328,-0.21452251076698303
-0.14111046493053436,1.5094726085662842,-0.21519030630588531
-0.1298993080854416,1.502642273902893,-0.21460187435150146
-0.11798790842294693,1.4880406856536865,-0.21286720037460327
-0.10816773027181625,1.4964754581451416,-0.21442978084087372
-0.09827245771884918,1.5048422813415527,-0.21599547564983368
-0.0873628556728363,1.4977055788040161,-0.21532468497753143
-0.07613864541053772,1.4827946424484253,-0.21336022019386292
-0.06597187370061874,1.4909850358963013,-0.21473273634910583
-0.05588888004422188,1.4990981817245483,-0.21610307693481445
-0.024333452805876732,1.4844061136245728,-0.21435075998306274
-0.003511287271976471,1.4923185110092163,-0.2155722826719284
0.006913702469319105,1.5000314712524414,-0.2167416363954544
0.01717517338693142,1.484498143196106,-0.21440662443637848
0.02806718833744526,1.515289306640625,-0.21871668100357056
0.038021720945835114,1.4918899536132812,-0.21521443128585815
0.048826806247234344,1.4993348121643066,-0.21617166697978973
0.05863742530345917,1.4835295677185059,-0.21377843618392944
0.06895070523023605,1.4831372499465942,-0.21342359483242035
0.08090026676654816,1.513562798500061,-0.21750810742378235
0.09095609188079834,1.5052961111068726,-0.21603797376155853
0.10159310698509216,1.5046682357788086,-0.21567164361476898
0.11203215271234512,1.5039889812469482,-0.215238556265831
0.12371915578842163,1.5186735391616821,-0.21688193082809448
0.13151420652866364,1.487040638923645,-0.21192610263824463
0.14333464205265045,1.5015686750411987,-0.2135617434978485
0.15398214757442474,1.500595211982727,-0.21299070119857788
0.16355793178081512,1.4918980598449707,-0.2112063318490982
0.17300888895988464,1.4831489324569702,-0.2093701809644699
0.18805697560310364,1.5204108953475952,-0.21402646601200104
0.19763681292533875,1.5115002393722534,-0.2121797651052475
0.21204189956188202,1.537002682685852,-0.21514947712421417
0.2226869910955429,1.5356324911117554,-0.2141779065132141
0.23332323133945465,1.5341876745224,-0.2132062464952469
0.2464209645986557,1.5479516983032227,-0.21434813737869263
0.2533957064151764,1.5234242677688599,-0.2101999819278717
0.26795363426208496,1.5446522235870361,-0.2123042196035385
0.2829631567001343,1.5657464265823364,-0.21424241364002228
0.2923728823661804,1.5563005208969116,-0.21201910078525543
0.3017398416996002,1.5467839241027832,-0.20979903638362885
0.3155953288078308,1.559983730316162,-0.21066589653491974
0.33115437626838684,1.5806834697723389,-0.21239601075649261
0.34391483664512634,1.5860730409622192,-0.21199779212474823
0.35916897654533386,1.6027305126190186,-0.2131115049123764
0.36860817670822144,1.5928226709365845,-0.2106901854276657
0.3922868072986603,1.643170952796936,-0.21618394553661346
0.3962339758872986,1.6105297803878784,-0.21061338484287262
0.41136205196380615,1.6229429244995117,-0.21093495190143585
0.42073553800582886,1.6127400398254395,-0.20833006501197815
0.4209444522857666,1.5687849521636963,-0.2014138400554657
0.43489640951156616,1.5772593021392822,-0.20115706324577332
0.4405018091201782,1.555785059928894,-0.19704538583755493
0.4493061900138855,1.5454124212265015,-0.1943432092666626
0.45790180563926697,1.5350128412246704,-0.1916712522506714
0.4765397310256958,1.557966947555542,-0.19313061237335205
0.48611676692962646,1.5511741638183594,-0.1907825469970703
0.5003529787063599,1.5591018199920654,-0.19024862349033356
0.5090101361274719,1.5483676195144653,-0.18739469349384308
0.5247762799263,1.5597161054611206,-0.1872422993183136
0.5330038666725159,1.5489590167999268,-0.18433420360088348
0.5539393424987793,1.5748019218444824,-0.18574301898479462
0.5648655295372009,1.5711637735366821,-0.18363413214683533
0.5704931020736694,1.5528380870819092,-0.1798204630613327
0.5841634273529053,1.5562998056411743,-0.17846634984016418
0.6003794074058533,1.5670206546783447,-0.17789731919765472
0.6055202484130859,1.5486215353012085,-0.1740192323923111
0.6250057816505432,1.566244125366211,-0.17415989935398102
0.6329920291900635,1.5549012422561646,-0.17105378210544586
0.6557276248931885,1.579436182975769,-0.17176806926727295
0.6665412187576294,1.575164794921875,-0.1693524718284607
0.8361892104148865,1.9384046792984009,-0.20594581961631775
0.8794986605644226,2.000446081161499,-0.20998716354370117
0.9185463786125183,2.0515310764312744,-0.21262632310390472
0.947282612323761,2.0773086547851562,-0.21248620748519897
0.974912166595459,2.0992040634155273,-0.2118518352508545
1.0178749561309814,2.152465343475342,-0.21426939964294434
1.0526853799819946,2.1879591941833496,-0.21469715237617493
1.0777708292007446,2.2021071910858154,-0.2129472941160202
1.1298953294754028,2.267909288406372,-0.21590235829353333
1.1545323133468628,2.277696371078491,-0.21344850957393646
1.1877285242080688,2.3048386573791504,-0.21247747540473938
1.2304506301879883,2.3488481044769287,-0.21292158961296082
1.2469338178634644,2.3405442237854004,-0.20842480659484863
1.2854080200195312,2.3733270168304443,-0.20751546323299408
1.3053878545761108,2.3717002868652344,-0.2034119814634323
1.2987644672393799,2.3223118782043457,-0.19528228044509888
1.3054001331329346,2.296600580215454,-0.18915079534053802
1.3131780624389648,2.2745649814605713,-0.18335694074630737
1.353952169418335,2.309831380844116,-0.18212072551250458
1.4241392612457275,2.390990734100342,-0.18401141464710236
1.4609047174453735,2.414783477783203,-0.18129825592041016
1.4911823272705078,2.4286816120147705,-0.1777159720659256
1.5241920948028564,2.4453351497650146,-0.174124613404274
1.6247467994689941,2.5667755603790283,-0.17753411829471588
1.6778782606124878,2.611943483352661,-0.17518173158168793
1.6889410018920898,2.5912585258483887,-0.16832110285758972
1.3927783966064453,2.104804515838623,-0.13203217089176178
1.3936667442321777,2.0764076709747314,-0.1255817413330078
1.4162249565124512,2.080312967300415,-0.12101057171821594
1.439903736114502,2.083325147628784,-0.11597781628370285
1.448979139328003,2.067807674407959,-0.10999351739883423
1.4266594648361206,2.007431745529175,-0.10156439989805222
1.4336423873901367,1.988325834274292,-0.09514260292053223
1.4462978839874268,1.9794137477874756,-0.08925103396177292
1.4716110229492188,1.9853001832962036,-0.08350352197885513
2.8085484504699707,3.9338009357452393,0.3149298429489136
2.779766321182251,3.9580044746398926,0.32691219449043274
2.6164560317993164,3.7812094688415527,0.3208646774291992
2.6052799224853516,3.825829029083252,0.3330886960029602
2.6907732486724854,4.016367435455322,0.35819733142852783
2.67095947265625,4.047402381896973,0.3688029646873474
2.6485416889190674,4.079813480377197,0.37957271933555603
1.6238678693771362,2.543545961380005,0.24132269620895386
1.6307669878005981,2.59397292137146,0.25044772028923035
1.5955852270126343,2.5786921977996826,0.2532070577144623
2.569078207015991,4.222938537597656,0.4213385581970215
2.553515672683716,4.267850399017334,0.4323709309101105
2.5194334983825684,4.278224468231201,0.43960022926330566
2.932173013687134,5.063584804534912,0.527350127696991
2.9052395820617676,5.105000019073486,0.5386285781860352
2.8875844478607178,5.158705711364746,0.550921618938446
2.867464542388916,5.208968639373779,0.5629512667655945
2.8510854244232178,5.270149230957031,0.5758481025695801
2.8150689601898193,5.297359943389893,0.5850147008895874
2.8111934661865234,5.381990909576416,0.6003567576408386
2.776939868927002,5.407594680786133,0.6090899705886841
2.744035482406616,5.440883159637451,0.6186157464981079
2.7431893348693848,5.540340423583984,0.6354769468307495
1.2264803647994995,2.522841691970825,0.29185256361961365
1.205364465713501,2.524003505706787,0.2943781316280365
1.1842854022979736,2.524995803833008,0.29687660932540894
1.1623092889785767,2.526266098022461,0.2992083430290222
1.156042218208313,2.562878370285034,0.3057967722415924
0.7056012749671936,1.594246745109558,0.1915493607521057
0.6805040240287781,1.566872239112854,0.189544677734375
0.6663283705711365,1.5642993450164795,0.19047638773918152
0.657829999923706,1.5760990381240845,0.19306330382823944
0.6431066393852234,1.5735671520233154,0.19392628967761993
0.6262198686599731,1.5634514093399048,0.19378440082073212
0.6152617931365967,1.5675954818725586,0.1954008787870407
0.604142963886261,1.5717166662216187,0.1969824582338333
0.5899385213851929,1.5686290264129639,0.197564035654068
0.57026606798172,1.5509227514266968,0.1963130533695221
0.5592666864395142,1.5547423362731934,0.19773998856544495
0.5457834601402283,1.5511269569396973,0.19821669161319733
0.5260553956031799,1.5290720462799072,0.19631490111351013
0.5174077749252319,1.5400413274765015,0.1985199749469757
0.49878618121147156,1.5215461254119873,0.19694241881370544
0.4926135540008545,1.539685606956482,0.20008866488933563
0.47952979803085327,1.5355334281921387,0.20033341646194458
0.46878722310066223,1.5386897325515747,0.20153768360614777
0.45780450105667114,1.5418466329574585,0.20265519618988037
0.4467000663280487,1.5449594259262085,0.20372548699378967
0.43745630979537964,1.5555102825164795,0.2058035433292389
0.4265356957912445,1.558401346206665,0.2068520039319992
0.42064210772514343,1.5799189805984497,0.21038709580898285
0.40667492151260376,1.57142972946167,0.20993389189243317
0.4038942754268646,1.6079963445663452,0.2153674066066742
0.40315648913383484,1.6559339761734009,0.2223721146583557
0.3895508348941803,1.6511021852493286,0.22230291366577148
0.3875417411327362,1.6951804161071777,0.22882750630378723
0.36316317319869995,1.640997052192688,0.22209440171718597
0.35975170135498047,1.6812509298324585,0.22810164093971252
0.3413141369819641,1.6533664464950562,0.22476328909397125
0.3438929319381714,1.7278016805648804,0.2353503555059433
0.33167240023612976,1.7300820350646973,0.23613683879375458
0.3343505263328552,1.8121967315673828,0.24784724414348602
0.31629908084869385,1.7838793992996216,0.24447983503341675
0.3074430227279663,1.808887004852295,0.24837493896484375
0.30455270409584045,1.8720625638961792,0.25741901993751526
0.2865346670150757,1.8434841632843018,0.253864586353302
0.27864211797714233,1.8798259496688843,0.25926223397254944
0.27095502614974976,1.9199533462524414,0.2652052342891693
0.260438472032547,1.9447450637817383,0.26906320452690125
0.656768798828125,5.178974151611328,0.7175224423408508
0.6239175200462341,5.2140398025512695,0.7230488061904907
0.5936897397041321,5.275805950164795,0.7323246598243713
0.5464531183242798,5.183466911315918,0.7202385663986206
0.5081272721290588,5.163863658905029,0.7182692885398865
0.3766038119792938,4.1267900466918945,0.5746592283248901
0.34720751643180847,4.121474266052246,0.5744951367378235
0.3215842843055725,4.1661577224731445,0.5810040831565857
0.29178711771965027,4.160510063171387,0.5805254578590393
0.2614443004131317,4.143061637878418,0.5784254670143127
0.234030082821846,4.179490566253662,0.5838821530342102
0.3809316158294678,7.770664215087891,1.0863043069839478
0.324603796005249,7.718858242034912,1.0798366069793701
0.26960834860801697,7.689961910247803,1.0758309364318848
0.2151409238576889,7.6645426750183105,1.0723638534545898
0.16036953032016754,7.65036153793335,1.0705235004425049
0.10656696557998657,7.612565994262695,1.0654271841049194
0.05351725593209267,7.59373664855957,1.0630348920822144
0.0007325683836825192,7.555196285247803,1.0579323768615723
-0.051546819508075714,7.524109840393066,1.053324580192566
-0.10452894121408463,7.5042805671691895,1.0501550436019897
-0.1564973145723343,7.495701313018799,1.0486196279525757
-0.2070600688457489,7.440356731414795,1.0405949354171753
-0.25815263390541077,7.419467449188232,1.037441611289978
-0.30944880843162537,7.409823894500732,1.0359117984771729
-0.25822368264198303,5.301642894744873,0.7408140301704407
-0.30095744132995605,5.3963823318481445,0.7534403800964355
-0.33736076951026917,5.378842353820801,0.750427782535553
-0.37407341599464417,5.368776321411133,0.7484961748123169
-0.4101875424385071,5.350735664367676,0.7454895377159119
-0.4453662633895874,5.324746131896973,0.74141526222229
-0.4272991120815277,4.708916664123535,0.6551545262336731
-0.4495234787464142,4.602052688598633,0.639508068561554
-0.4812193810939789,4.5990095138549805,0.6383352279663086
-0.5116069912910461,4.584210395812988,0.6355627775192261
-0.5389167070388794,4.542276382446289,0.629059910774231
-0.5690988302230835,4.523156642913818,0.6257441639900208
-0.599483847618103,4.511589527130127,0.6234729290008545
-0.6293723583221436,4.499922752380371,0.6208146214485168
-0.6602535843849182,4.495715618133545,0.6192166209220886
-0.6887046098709106,4.476000785827637,0.615516722202301
-0.7204195857048035,4.471231460571289,0.613872230052948
-0.7444669604301453,4.424338340759277,0.6065009236335754
-0.777929961681366,4.434518337249756,0.606988787651062
-0.8040363192558289,4.406524181365967,0.6018567681312561
-0.8269457817077637,4.363157272338867,0.5946592092514038
-0.8545284867286682,4.346273422241211,0.5911132097244263
-0.7451746463775635,3.6536786556243896,0.4958571791648865
-0.7674061059951782,3.6334755420684814,0.4920980632305145
-0.9406130313873291,4.305508136749268,0.5819357633590698
-0.9776443839073181,4.33331298828125,0.5841325521469116
-1.0027267932891846,4.308022499084473,0.5791741013526917
-1.0289390087127686,4.2862348556518555,0.5746983885765076
-1.0530799627304077,4.256756782531738,0.5692304968833923
-1.0883811712265015,4.2721848487854,0.5697929859161377
-1.1120916604995728,4.242375373840332,0.5643397569656372
-1.1407920122146606,4.235121250152588,0.5615347623825073
-1.1719743013381958,4.235017776489258,0.5596712827682495
-1.192199468612671,4.197521209716797,0.5529282689094543
-1.2138402462005615,4.163440704345703,0.5466358661651611
-1.247322678565979,4.170093536376953,0.5457203984260559
-1.2761402130126953,4.1617512702941895,0.5427663326263428
-1.3047170639038086,4.153306484222412,0.5394989252090454
-1.3256372213363647,4.1226654052734375,0.533420979976654
-1.3538693189620972,4.1138997077941895,0.5301796197891235
-1.3849931955337524,4.11213493347168,0.5278266072273254
-1.4111433029174805,4.095456123352051,0.5235819220542908
-1.428737998008728,4.056918144226074,0.5163529515266418
-1.459113597869873,4.0548014640808105,0.5136333107948303
-1.4837217330932617,4.038051128387451,0.5091234445571899
-1.5089929103851318,4.020854473114014,0.5045174360275269
-1.5425753593444824,4.025180339813232,0.5026190876960754
-1.564709186553955,4.000439167022705,0.4970303177833557
-1.5890284776687622,3.9829907417297363,0.49207374453544617
-1.6186045408248901,3.979937791824341,0.4889620840549469
-1.6399283409118652,3.9548981189727783,0.48311129212379456
-1.6705812215805054,3.9509871006011963,0.4798154830932617
-1.6873505115509033,3.914783477783203,0.472627192735672
-1.7139381170272827,3.9037554264068604,0.4681532084941864
-1.7399537563323975,3.8927552700042725,0.46376296877861023
-1.7681020498275757,3.884852886199951,0.4596894085407257
-1.7870820760726929,3.855306386947632,0.4530101716518402
-1.8073475360870361,3.829212188720703,0.44676369428634644
-1.8399046659469604,3.831491470336914,0.44350019097328186
-1.872137427330017,3.833707094192505,0.4402828812599182
-1.8846309185028076,3.793471097946167,0.4321008622646332
-1.9112014770507812,3.780730724334717,0.42702656984329224
-1.930116057395935,3.754214286804199,0.42033612728118896
-1.9657511711120605,3.7626020908355713,0.4173784554004669
-1.9764841794967651,3.7223877906799316,0.4089880585670471
-2.0099151134490967,3.7227370738983154,0.40493178367614746
-2.02475905418396,3.6886918544769287,0.3971572816371918
-1.7120698690414429,3.0710842609405518,0.327085942029953
-1.7322052717208862,3.060276746749878,0.3223317265510559
-0.83797287940979,1.4568697214126587,0.15161868929862976
-0.8521162271499634,1.4579159021377563,0.14987823367118835
-0.8539282083511353,1.4390373229980469,0.14604176580905914
-0.8673229217529297,1.4403483867645264,0.1442352533340454
-0.8690181374549866,1.4213664531707764,0.14032365381717682
-0.8750771284103394,1.4087518453598022,0.13697609305381775
-0.8968666791915894,1.4229322671890259,0.13619841635227203
-0.9018933176994324,1.410774827003479,0.13286423683166504
-0.8883258700370789,1.368825912475586,0.1266537606716156
-0.8935554027557373,1.3563605546951294,0.1232086643576622
-0.8893999457359314,1.3313300609588623,0.11856521666049957
-2.4061803817749023,3.551203489303589,0.3097865879535675
-2.4311869144439697,3.53485107421875,0.3014606833457947
-1.2576117515563965,1.7792184352874756,0.14448469877243042
-1.3611358404159546,1.9626014232635498,-0.10291919857263565
-1.1603707075119019,1.7537291049957275,-0.10475271940231323
-1.7398356199264526,2.8484268188476562,-0.20025335252285004
-1.6808356046676636,2.7971036434173584,-0.20208309590816498
-1.5831286907196045,2.722660541534424,-0.20673035085201263
-0.8438922762870789,1.4749072790145874,-0.11458192765712738
-1.4768643379211426,2.6254470348358154,-0.20848776400089264
-1.4084447622299194,2.5471794605255127,-0.20664066076278687
-1.3495687246322632,2.481311082839966,-0.20532923936843872
-1.3187620639801025,2.4665465354919434,-0.20805716514587402
-1.2662131786346436,2.4102418422698975,-0.20711901783943176
-1.2276843786239624,2.3772354125976562,-0.20789188146591187
-1.2071841955184937,2.378596782684326,-0.21163399517536163
-1.1568481922149658,2.320730447769165,-0.20985545217990875
-1.1142958402633667,2.2762482166290283,-0.20911528170108795
-1.0847887992858887,2.25559663772583,-0.21035341918468475
-1.047217845916748,2.2170982360839844,-0.2098168283700943
-1.0081803798675537,2.1748669147491455,-0.20872382819652557
-0.9777292013168335,2.1499669551849365,-0.20922189950942993
-0.9467807412147522,2.1209073066711426,-0.20911327004432678
-0.9161909222602844,2.0915727615356445,-0.20886419713497162
-0.8872833251953125,2.0656354427337646,-0.2087947577238083
-0.8603938221931458,2.0429468154907227,-0.2089753895998001
-0.8368998765945435,2.027151107788086,-0.20980121195316315
-0.8094549179077148,2.0002601146698,-0.2093590795993805
-0.7778652310371399,1.9623637199401855,-0.20758742094039917
-0.7553439736366272,1.9458544254302979,-0.20800945162773132
-0.7320603132247925,1.9253712892532349,-0.20791153609752655
-0.7074904441833496,1.901111125946045,-0.207387775182724
-0.6859097480773926,1.8839441537857056,-0.20742802321910858
-0.6659131050109863,1.8702303171157837,-0.20781829953193665
-0.6566195487976074,1.8855952024459839,-0.21140635013580322
-0.6296320557594299,1.8494353294372559,-0.20919659733772278
-0.6088988780975342,1.8315702676773071,-0.20892693102359772
-0.5934181213378906,1.828234314918518,-0.21023528277873993
-0.5758386254310608,1.8173179626464844,-0.21064028143882751
-0.5550986528396606,1.7950924634933472,-0.209694966673851
-0.5312525629997253,1.7615545988082886,-0.20731566846370697
-0.5209375619888306,1.7725048065185547,-0.21006107330322266
-0.5038923621177673,1.7610597610473633,-0.21017925441265106
-0.4842706322669983,1.738156795501709,-0.2088649570941925
-0.4721006453037262,1.7412844896316528,-0.21066750586032867
-0.4557931125164032,1.7293810844421387,-0.21049141883850098
-0.43583980202674866,1.7023032903671265,-0.20844151079654694
-0.42181143164634705,1.6976433992385864,-0.20912939310073853
-0.40995821356773376,1.7003506422042847,-0.2107015699148178
-0.3962448835372925,1.6954498291015625,-0.21125145256519318
-0.3748503625392914,1.6564310789108276,-0.20743794739246368
-0.363186776638031,1.6588572263717651,-0.20879510045051575
-0.34819164872169495,1.6460500955581665,-0.2082451730966568
-0.34136447310447693,1.6710554361343384,-0.2124747633934021
-0.32062026858329773,1.6276283264160156,-0.20783361792564392
-0.31494322419166565,1.6601587533950806,-0.2128806710243225
-0.3005441129207611,1.6469228267669678,-0.21207258105278015
-0.2861868739128113,1.6335949897766113,-0.2112589180469513
-0.2747841477394104,1.6354131698608398,-0.21232883632183075
-0.2596198320388794,1.6142256259918213,-0.21028338372707367
-0.25299009680747986,1.646519422531128,-0.2152196168899536
-0.23927518725395203,1.6327862739562988,-0.21415086090564728
-0.22556579113006592,1.6189697980880737,-0.21308071911334991
-0.21171127259731293,1.6012020111083984,-0.21134337782859802
-0.199538454413414,1.5948625802993774,-0.21105164289474487
-0.1892935335636139,1.603814959526062,-0.2127932757139206
-0.17640988528728485,1.5896029472351074,-0.21146710216999054
-0.16533474624156952,1.5906977653503418,-0.21218207478523254
-0.15625889599323273,1.6148862838745117,-0.2158094197511673
-0.1442672163248062,1.6081557273864746,-0.21530824899673462
-0.13241690397262573,1.6013343334197998,-0.2148001343011856
-0.11895444244146347,1.5712604522705078,-0.2111719697713852
-0.11015408486127853,1.602886438369751,-0.21579089760780334
-0.09782203286886215,1.588127613067627,-0.21403564512729645
-0.08591285347938538,1.573265552520752,-0.21226803958415985
-0.07532045245170593,1.5815167427062988,-0.21362818777561188
-0.06400135904550552,1.5742239952087402,-0.21289865672588348
-0.05172344297170639,1.5359160900115967,-0.2078683078289032
-0.04165385663509369,1.567185401916504,-0.21217413246631622
-0.03073442541062832,1.5674220323562622,-0.21228912472724915
-0.019813718274235725,1.5675824880599976,-0.21240410208702087
-0.008817268535494804,1.552183747291565,-0.21041999757289886
0.001984149683266878,1.5522141456604004,-0.21037061512470245
0.01310757827013731,1.5676558017730713,-0.2123819887638092
0.023897796869277954,1.5597972869873047,-0.2112480103969574
0.03473886102437973,1.5596051216125488,-0.21116295456886292
0.04601689428091049,1.5748175382614136,-0.21315619349479675
0.05667201802134514,1.5667612552642822,-0.21182703971862793
0.0678846463561058,1.5741029977798462,-0.21259000897407532
0.07784482836723328,1.5504244565963745,-0.2091720849275589
0.09082017093896866,1.5885344743728638,-0.21410243213176727
0.10134651511907578,1.5801864862442017,-0.21270820498466492
0.11064781248569489,1.5563395023345947,-0.20911481976509094
0.12203402817249298,1.5633188486099243,-0.2096773087978363
0.13506977260112762,1.585628867149353,-0.2122909426689148
0.1453978717327118,1.577003002166748,-0.21077556908130646
0.15557458996772766,1.5683294534683228,-0.20914636552333832
0.16972529888153076,1.5981087684631348,-0.21257133781909943
0.1808111071586609,1.5969836711883545,-0.21188530325889587
0.1921253204345703,1.5957549810409546,-0.21118460595607758
0.20666280388832092,1.621363878250122,-0.21404656767845154
0.2142850011587143,1.5931352376937866,-0.2096358984708786
0.22640734910964966,1.599398136138916,-0.20976462960243225
0.24036161601543427,1.6170618534088135,-0.21138551831245422
0.25181564688682556,1.6154367923736572,-0.21047326922416687
0.2630438208580017,1.6137683391571045,-0.20953775942325592
0.276800274848938,1.6273291110992432,-0.21044059097766876
0.2907567620277405,1.6407781839370728,-0.21132297813892365
0.3007764220237732,1.631231665611267,-0.20924381911754608
0.31067708134651184,1.6216233968734741,-0.20717480778694153
0.3296871781349182,1.6575596332550049,-0.21080122888088226
0.34114447236061096,1.6554038524627686,-0.20950628817081451
0.3558357059955597,1.6683322191238403,-0.21011990308761597
0.3657923638820648,1.6584028005599976,-0.20785309374332428
0.3738914132118225,1.640855073928833,-0.20465652644634247
0.3871936500072479,1.6459192037582397,-0.20412088930606842
0.3875810503959656,1.5981568098068237,-0.1970771700143814
0.4043140411376953,1.6181820631027222,-0.19841161370277405
0.4059315621852875,1.577930212020874,-0.19237016141414642
0.4168858230113983,1.5752511024475098,-0.19089369475841522
0.4248715937137604,1.561248540878296,-0.18794216215610504
0.4293641746044159,1.5360440015792847,-0.18369898200035095
0.4443797767162323,1.548111081123352,-0.18391139805316925
0.45520931482315063,1.545148491859436,-0.1823340356349945
0.46588578820228577,1.5421608686447144,-0.18065261840820312
0.479002445936203,1.5464706420898438,-0.1797804832458496
0.4979536831378937,1.569212794303894,-0.1810457557439804
0.5089151859283447,1.5658951997756958,-0.17928117513656616
0.517328679561615,1.555158019065857,-0.17663733661174774
0.5279963612556458,1.5517802238464355,-0.17476847767829895
0.5437708497047424,1.5629955530166626,-0.17453406751155853
0.56011962890625,1.5739353895187378,-0.17419414222240448
0.5737894773483276,1.5774900913238525,-0.17305226624011993
0.5845986604690552,1.5737402439117432,-0.17100360989570618
0.6036502718925476,1.5917189121246338,-0.17130064964294434
0.6034943461418152,1.5587031841278076,-0.16610048711299896
0.617427408695221,1.561825156211853,-0.16474716365337372
0.6426928639411926,1.593827724456787,-0.16636377573013306
0.6298978328704834,1.5320919752120972,-0.158199742436409
0.6555197238922119,1.563786268234253,-0.15969054400920868
0.707722008228302,1.6559553146362305,-0.1671915501356125
0.9182111620903015,2.1076724529266357,-0.21026043593883514
0.9388667941093445,2.11590313911438,-0.20850998163223267
0.9694398641586304,2.1451590061187744,-0.2087535411119461
1.0088557004928589,2.1916582584381104,-0.21052873134613037
1.045446515083313,2.230775833129883,-0.21144625544548035
1.080915927886963,2.2660112380981445,-0.21178199350833893
1.110054850578308,2.2868902683258057,-0.21070484817028046
1.1347190141677856,2.2968342304229736,-0.2084997594356537
1.1820298433303833,2.3519134521484375,-0.21025845408439636
1.2245036363601685,2.3962290287017822,-0.21085374057292938
1.244523048400879,2.395036220550537,-0.20732180774211884
1.265181303024292,2.3933730125427246,-0.20361365377902985
1.298040747642517,2.4159488677978516,-0.20194536447525024
1.3104709386825562,2.4007136821746826,-0.19705982506275177
1.3024709224700928,2.347658395767212,-0.18904221057891846
1.3035718202590942,2.311673641204834,-0.1824737787246704
1.3154277801513672,2.2963180541992188,-0.1774825006723404
1.3621699810028076,2.341684341430664,-0.1771547645330429
1.4281610250473022,2.4163193702697754,-0.1786404401063919
1.4487136602401733,2.4135100841522217,-0.17424151301383972
1.4748417139053345,2.420842409133911,-0.1705208122730255
1.5123132467269897,2.4439568519592285,-0.1675828993320465
1.5770679712295532,2.509645700454712,-0.16736547648906708
1.641791582107544,2.575205087661743,-0.16683754324913025
1.6591829061508179,2.5644021034240723,-0.16108942031860352
1.3772339820861816,2.0965986251831055,-0.12740156054496765
1.3998489379882812,2.10064435005188,-0.1232190653681755
1.4270241260528564,2.1108903884887695,-0.11928576231002808
1.4329169988632202,2.0882840156555176,-0.1132960394024849
1.4463423490524292,2.0792856216430664,-0.10808710008859634
1.4288511276245117,2.025099754333496,-0.10040464252233505
1.447482705116272,2.021707773208618,-0.09505393356084824
1.451198935508728,2.0000343322753906,-0.08895343542098999
1.458143711090088,1.980710506439209,-0.08255975693464279
2.883943796157837,4.072968006134033,0.3062587380409241
2.6922943592071533,3.859025478363037,0.2987014651298523
2.598900318145752,3.7854182720184326,0.3011705279350281
2.6698861122131348,3.9532086849212646,0.3228018879890442
2.6872878074645996,4.039318084716797,0.3374863564968109
2.65661358833313,4.058793067932129,0.34656354784965515
2.6299257278442383,4.0846405029296875,0.35603106021881104
1.6124266386032104,2.5429630279541016,0.22580812871456146
1.6098506450653076,2.580928087234497,0.2333611398935318
1.5778746604919434,2.572767734527588,0.23661954700946808
2.5635175704956055,4.247016429901123,0.39674314856529236
2.525604009628296,4.250848770141602,0.4031231999397278
2.9390320777893066,5.032188892364502,0.4839930534362793
2.941215753555298,5.124515533447266,0.4997827708721161
2.8974556922912598,5.130702972412109,0.5067317485809326
2.872313976287842,5.1707282066345215,0.5169948935508728
2.853861093521118,5.228938579559326,0.5288557410240173
2.836923599243164,5.290363788604736,0.5411014556884766
2.8045833110809326,5.3199782371521,0.5499251484870911
2.795809507369995,5.393994331359863,0.563327968120575
2.7045035362243652,5.313322067260742,0.5601619482040405
2.5745248794555664,5.151632785797119,0.5482131242752075
2.584271192550659,5.263243675231934,0.5650414824485779
1.219251275062561,2.5283596515655518,0.2738351821899414
1.2058157920837402,2.547360897064209,0.2781399190425873
1.178730845451355,2.538254737854004,0.2793086767196655
1.157020092010498,2.539350986480713,0.2815549969673157
1.139231562614441,2.54705810546875,0.28446173667907715
0.6934372186660767,1.5797537565231323,0.17770615220069885
0.6724281907081604,1.5632708072662354,0.17700813710689545
0.6518793702125549,1.5464965105056763,0.17623281478881836
0.6437759399414062,1.5581133365631104,0.17866191267967224
0.6269974708557129,1.5480091571807861,0.17858390510082245
0.6189656257629395,1.5594178438186646,0.1809798628091812
0.6073598861694336,1.5638010501861572,0.18247394263744354
0.5904062390327454,1.553504228591919,0.1822388768196106
0.5847324728965759,1.5720624923706055,0.18537497520446777
0.5630912184715271,1.5467660427093506,0.18332302570343018
0.5522668957710266,1.5505000352859497,0.18470200896263123
0.5357160568237305,1.539712905883789,0.18423646688461304
0.5245239734649658,1.5434116125106812,0.18548768758773804
0.5073408484458923,1.528564691543579,0.18449951708316803
0.4990628957748413,1.5393047332763672,0.18658190965652466
0.48363324999809265,1.527805209159851,0.1859738528728485
0.4702659547328949,1.5237170457839966,0.18618866801261902
0.4637552499771118,1.541795015335083,0.18906155228614807
0.4548115134239197,1.5524128675460815,0.19103997945785522
0.4471253454685211,1.5666215419769287,0.19345852732658386
0.4403318464756012,1.584524393081665,0.1963520497083664
0.4180910587310791,1.5462565422058105,0.1922674924135208
0.4136975407600403,1.5754084587097168,0.1964508295059204
0.4158013164997101,1.630828857421875,0.20393866300582886
0.3948809504508972,1.5959864854812622,0.20014962553977966
0.3964027762413025,1.651375412940979,0.20768098533153534
0.37783876061439514,1.6237757205963135,0.20479348301887512
0.36788979172706604,1.6338989734649658,0.20660951733589172
0.35951584577560425,1.6515378952026367,0.20929847657680511
0.3549136221408844,1.6881014108657837,0.21440958976745605
0.3476201891899109,1.713256597518921,0.21809373795986176
0.33717334270477295,1.7231431007385254,0.21984711289405823
0.33856743574142456,1.7977571487426758,0.22990301251411438
0.330049604177475,1.8228846788406372,0.2335549145936966
0.3104689121246338,1.7869141101837158,0.22932060062885284
0.3079589605331421,1.8501510620117188,0.2378346472978592
0.29131919145584106,1.829218864440918,0.23554402589797974
0.283007949590683,1.8617985248565674,0.2401619553565979
0.2722654342651367,1.8789761066436768,0.2428077757358551
0.26170575618743896,1.8999613523483276,0.2458481788635254
0.6715849041938782,5.144191265106201,0.6663913130760193
0.6381127238273621,5.17169713973999,0.6707410216331482
0.6045624017715454,5.198953151702881,0.6750924587249756
0.5757352709770203,5.276095390319824,0.6859797835350037
0.5323647260665894,5.21427583694458,0.6788185238838196
0.49072515964508057,5.163744926452637,0.6728518605232239
0.36522066593170166,4.152080535888672,0.5413869619369507
0.33608531951904297,4.154449939727783,0.5420804023742676
0.30710265040397644,4.164369583129883,0.5437922477722168
0.27630168199539185,4.1392621994018555,0.5409460067749023
0.24956245720386505,4.1757941246032715,0.5461824536323547
0.4096109867095947,7.762941837310791,1.0159292221069336
0.35394516587257385,7.734589576721191,1.012418270111084
0.2973148226737976,7.698139667510986,1.007900357246399
0.24299275875091553,7.680600166320801,1.005900502204895
0.18908251821994781,7.6588006019592285,1.0033880472183228
0.13534939289093018,7.628879547119141,0.9998573660850525
0.08190343528985977,7.5947370529174805,0.995611846446991
0.02807716093957424,7.579660415649414,0.9933874607086182
-0.024500146508216858,7.548712730407715,0.9891376495361328
-0.07672490179538727,7.525146961212158,0.9859039187431335
-0.12855689227581024,7.497348308563232,0.9821641445159912
-0.17972628772258759,7.457577705383301,0.976904034614563
-0.23077727854251862,7.429079532623291,0.9731084108352661
-0.2838689982891083,7.4467387199401855,0.9747424721717834
-0.33616185188293457,7.46018648147583,0.9758806824684143
-0.278616338968277,5.357388496398926,0.7003965377807617
-0.31807270646095276,5.394076347351074,0.7048099637031555
-0.3555613160133362,5.391819000244141,0.7041652798652649
-0.3924861550331116,5.373806953430176,0.7014934420585632
-0.4283554255962372,5.355663299560547,0.6984009146690369
-0.46290382742881775,5.325716018676758,0.6937620639801025
-0.43153345584869385,4.597444534301758,0.5982871651649475
