X,Y,Z
0.518951416015625,3.4571468830108643,0.7252293229103088
0.4950210750102997,3.464231014251709,0.7273916006088257
0.4735773503780365,3.4900994300842285,0.7335259318351746
0.4513932168483734,3.5158793926239014,0.7396999597549438
0.42566314339637756,3.5110960006713867,0.7394698262214661
0.4111436903476715,3.601062059402466,0.7592406868934631
0.3876940608024597,3.618750810623169,0.763831615447998
0.36573511362075806,3.6553776264190674,0.7721813321113586
0.34421658515930176,3.703348159790039,0.7827282547950745
0.31899821758270264,3.720757246017456,0.7868691682815552
0.2949182689189911,3.749389410018921,0.7934201955795288
0.27089741826057434,3.7816638946533203,0.8007854223251343
0.24607782065868378,3.8061459064483643,0.8065445423126221
0.22462430596351624,3.895324468612671,0.8260615468025208
0.1984250396490097,3.9272735118865967,0.8329347372055054
0.1721177101135254,3.9552063941955566,0.8389973044395447
0.14528995752334595,3.9791419506073,0.8442549109458923
0.11858668178319931,4.018171310424805,0.8527594208717346
0.09105407446622849,4.037915229797363,0.8572147488594055
0.06396736949682236,4.133886337280273,0.8779080510139465
0.03551389276981354,4.172408103942871,0.8861743807792664
0.006475318223237991,4.187874794006348,0.8892495036125183
-0.022839108482003212,4.214601993560791,0.8947568535804749
-0.05257285386323929,4.244943618774414,0.901073157787323
-0.08374398201704025,4.301809310913086,0.913060188293457
-0.11572527885437012,4.3775553703308105,0.9290991425514221
-0.1441228687763214,4.315577507019043,0.9159513711929321
-0.07903147488832474,1.958760380744934,0.4155142903327942
-0.24314340949058533,5.141814231872559,1.0900977849960327
-0.2815124988555908,5.1898088455200195,1.0996767282485962
-0.32443591952323914,5.290892124176025,1.1205323934555054
-0.3658979535102844,5.357347011566162,1.1340998411178589
-0.40026548504829407,5.31676721572876,1.1250604391098022
-0.4333866834640503,5.2683916091918945,1.11424720287323
-0.47309693694114685,5.303711414337158,1.1205923557281494
-0.510992705821991,5.308243274688721,1.120458722114563
-0.5770246386528015,5.59016752243042,1.1788920164108276
-0.5897210240364075,5.350805282592773,1.1274340152740479
-0.6246879696846008,5.327955722808838,1.1216918230056763
-0.6522908806800842,5.247956275939941,1.1039880514144897
-0.6900972127914429,5.251301288604736,1.1033533811569214
-0.7271711826324463,5.254527568817139,1.102519154548645
-0.7610200643539429,5.234781265258789,1.0969187021255493
-0.7940558195114136,5.211033344268799,1.0905407667160034
-0.831368625164032,5.213468551635742,1.0896836519241333
-0.8670582175254822,5.200416088104248,1.0856126546859741
-0.8867156505584717,5.100568771362305,1.063394546508789
-0.9256983995437622,5.117617607116699,1.06501042842865
-0.9550023674964905,5.081722259521484,1.055663824081421
-0.9883101582527161,5.068190097808838,1.051023244857788
-1.0292296409606934,5.091929912567139,1.0541446208953857
-1.0668305158615112,5.0926713943481445,1.0524914264678955
-1.0877071619033813,5.018401622772217,1.0354360342025757
-1.1254035234451294,5.026529312133789,1.0348918437957764
-1.1518216133117676,4.985943794250488,1.0242183208465576
-1.1804554462432861,4.956387996673584,1.0158803462982178
-1.2129793167114258,4.941418647766113,1.0105544328689575
-1.214566707611084,4.803584575653076,0.9801989197731018
-1.2355250120162964,4.747530937194824,0.9666589498519897
-1.2722060680389404,4.754518985748291,0.9656776785850525
-1.2983821630477905,4.724456787109375,0.9568936228752136
-1.3310502767562866,4.716238021850586,0.9525417685508728
-1.3588042259216309,4.693211078643799,0.945300817489624
-1.3870437145233154,4.669816970825195,0.9379870295524597
-1.1156302690505981,3.662639617919922,0.733659029006958
-1.1385923624038696,3.6482489109039307,0.7285958528518677
-1.4733085632324219,4.6098713874816895,0.917479395866394
-1.5045112371444702,4.600754737854004,0.9125895500183105
-1.5331742763519287,4.5841546058654785,0.9062665104866028
-1.5738475322723389,4.599765300750732,0.9062463045120239
-1.6238327026367188,4.64036750793457,0.9111296534538269
-1.6583739519119263,4.637351989746094,0.9071648716926575
-1.7100353240966797,4.681091785430908,0.9119364619255066
-1.7335706949234009,4.648940086364746,0.9020089507102966
-1.7622618675231934,4.63102388381958,0.8949021697044373
-1.7850507497787476,4.594570159912109,0.8841398358345032
-1.7875655889511108,4.507958889007568,0.863849937915802
-1.8245038986206055,4.510941028594971,0.8602887988090515
-1.8988451957702637,4.606462001800537,0.8742238283157349
-1.8985496759414673,4.52027702331543,0.8536837100982666
-1.9205225706100464,4.4870991706848145,0.8431953191757202
-1.9521607160568237,4.474671363830566,0.8365575075149536
-1.9962866306304932,4.490183353424072,0.8349168300628662
-1.9898996353149414,4.397269248962402,0.8128713965415955
-2.009748935699463,4.364084720611572,0.8020147085189819
-2.0686402320861816,4.414498805999756,0.8064873218536377
-2.1114025115966797,4.425479888916016,0.803482174873352
-2.1244823932647705,4.373489856719971,0.7889765501022339
-2.1434226036071777,4.339847564697266,0.7774560451507568
-2.179311990737915,4.340600967407227,0.7721407413482666
-2.187310218811035,4.286037445068359,0.7570407390594482
-2.1944730281829834,4.227355480194092,0.741059422492981
-2.2926769256591797,4.3429646492004395,0.7554932236671448
-2.290998935699463,4.271019458770752,0.7366772890090942
-2.3008780479431152,4.223237037658691,0.7223086357116699
-2.2620701789855957,4.087327480316162,0.6930187940597534
-2.291034698486328,4.072653293609619,0.6842061877250671
-2.315196990966797,4.0515594482421875,0.6741508841514587
-2.3463447093963623,4.044079303741455,0.6660100817680359
-2.3730804920196533,4.029942512512207,0.6569133996963501
-2.389390230178833,3.994828939437866,0.6440593600273132
-2.4336931705474854,4.005843639373779,0.638505220413208
-2.4519190788269043,3.9781289100646973,0.6263665556907654
-2.470336437225342,3.9500582218170166,0.6141136884689331
-2.5018506050109863,3.940985679626465,0.6045818328857422
-2.525608777999878,3.918245315551758,0.592715322971344
-2.546966552734375,3.8967957496643066,0.5807218551635742
-2.5595695972442627,3.862279176712036,0.5668641924858093
-2.6346511840820312,3.9164834022521973,0.5651494860649109
-2.657231330871582,3.8935585021972656,0.5520249009132385
-2.084088087081909,3.0130341053009033,0.4193557798862457
-2.0661654472351074,2.946443557739258,0.40218207240104675
-2.0827391147613525,2.9266297817230225,0.39094239473342896
-2.101879358291626,2.914320230484009,0.3803173303604126
-1.0615055561065674,1.4525710344314575,0.18508067727088928
-1.1113024950027466,1.4987053871154785,0.18578000366687775
-2.059459924697876,2.891437292098999,-0.18443956971168518
-2.0932846069335938,2.986093044281006,-0.2025424689054489
-2.0709891319274902,3.000720739364624,-0.21515902876853943
-2.044724941253662,3.0083723068237305,-0.22672629356384277
-2.0216856002807617,3.022972345352173,-0.2388172298669815
-1.9997186660766602,3.0366251468658447,-0.2502818703651428
-1.9473440647125244,3.0047249794006348,-0.2577928304672241
-1.9057596921920776,2.9888105392456055,-0.2662579119205475
-2.3563637733459473,3.753481149673462,-0.3460248112678528
-2.285949468612671,3.699801445007324,-0.3523162305355072
-2.2622525691986084,3.722224712371826,-0.3656722903251648
-2.234837770462036,3.737506151199341,-0.37816593050956726
-2.2571001052856445,3.836150884628296,-0.3989635109901428
-1.7941081523895264,3.1007511615753174,-0.3311324119567871
-1.763702392578125,3.0992090702056885,-0.3394164741039276
-1.7359044551849365,3.100459098815918,-0.3477343022823334
-1.7124983072280884,3.1123645305633545,-0.3573072552680969
-1.6912652254104614,3.12728214263916,-0.3671088218688965
-1.6690107583999634,3.1381466388702393,-0.37613609433174133
-1.6463165283203125,3.149027109146118,-0.3851117193698883
-1.6231645345687866,3.1599204540252686,-0.3940539062023163
-1.599826693534851,3.1706717014312744,-0.4030337929725647
-1.584185242652893,3.19474196434021,-0.4134732782840729
-1.5642834901809692,3.212045669555664,-0.42297783493995667
-1.5407823324203491,3.222245931625366,-0.43156862258911133
-1.5209853649139404,3.2390711307525635,-0.4409366846084595
-1.517377257347107,3.2909042835235596,-0.4551173448562622
-1.8331443071365356,4.0528059005737305,-0.5691789984703064
-1.808375358581543,4.075192928314209,-0.5808964967727661
-1.7824784517288208,4.093600749969482,-0.5919247269630432
-1.7563594579696655,4.11185359954834,-0.6028807163238525
-1.7265950441360474,4.1230034828186035,-0.6126335263252258
-1.6904079914093018,4.119770526885986,-0.6203808784484863
-1.6149953603744507,4.015374183654785,-0.6123905181884766
-1.5835542678833008,4.018163681030273,-0.6204337477684021
-1.5086697340011597,3.909067153930664,-0.610771656036377
-1.4313628673553467,3.7883191108703613,-0.5988564491271973
-1.334350824356079,3.6087958812713623,-0.577117383480072
-1.2890167236328125,3.56245493888855,-0.5760325193405151
-1.2260981798171997,3.4648571014404297,-0.5661713480949402
-1.1697139739990234,3.3811862468719482,-0.5582732558250427
-1.122268557548523,3.3187928199768066,-0.5535789728164673
-1.0729635953903198,3.248730182647705,-0.547396719455719
-1.0261085033416748,3.18184494972229,-0.5411345362663269
-0.9814164042472839,3.1181750297546387,-0.53522127866745
-0.9401019215583801,3.0613954067230225,-0.5302739143371582
-0.9074376821517944,3.0300416946411133,-0.529578685760498
-0.8599787354469299,2.9467458724975586,-0.5192731022834778
-0.6660888195037842,2.3445253372192383,-0.4165996015071869
-0.62283855676651,2.2519822120666504,-0.4034026265144348
-0.5950082540512085,2.2110095024108887,-0.39924344420433044
-0.5491899847984314,2.099132537841797,-0.381828635931015
-0.5163508653640747,2.031527042388916,-0.3721851408481598
-0.12612298130989075,2.3685901165008545,-0.48923659324645996
-0.10893537104129791,2.353985071182251,-0.48674988746643066
-0.09257546067237854,2.3545656204223633,-0.48732876777648926
-0.07619497925043106,2.3550326824188232,-0.4879082441329956
-0.060301586985588074,2.3859801292419434,-0.49484190344810486
-0.042723312973976135,2.332733631134033,-0.4840700626373291
-0.026599792763590813,2.3406057357788086,-0.4857427179813385
-0.009929771535098553,2.2527480125427246,-0.46757009625434875
0.005675260443240404,2.2336220741271973,-0.4636825621128082
0.021334970369935036,2.2182281017303467,-0.46050530672073364
0.03700442984700203,2.233403444290161,-0.46329376101493835
0.05297578498721123,2.2522923946380615,-0.4668695628643036
0.06839586049318314,2.2443039417266846,-0.4648948013782501
0.08485216647386551,2.2667903900146484,-0.46925321221351624
0.10096602141857147,2.2739531993865967,-0.4700377285480499
0.11744241416454315,2.2810070514678955,-0.47072654962539673
0.1426972895860672,2.440739393234253,-0.5029044151306152
0.16391508281230927,2.504791736602783,-0.5153210759162903
0.18190443515777588,2.511476516723633,-0.515657901763916
0.2005833089351654,2.525714159011841,-0.5173069834709167
0.2211148738861084,2.5550472736358643,-0.5220268964767456
0.23819418251514435,2.546128988265991,-0.5189675688743591
0.25898995995521545,2.5752103328704834,-0.5235610604286194
0.28060775995254517,2.6080195903778076,-0.5284876823425293
0.3031310439109802,2.6444647312164307,-0.5341287851333618
0.32559314370155334,2.673092842102051,-0.5381401181221008
0.3456815183162689,2.6825802326202393,-0.538329005241394
0.37057554721832275,2.7261807918548584,-0.5448697805404663
0.39392274618148804,2.7544138431549072,-0.548244297504425
0.42166462540626526,2.8089966773986816,-0.556818962097168
0.4481486678123474,2.848148822784424,-0.5622423887252808
0.47922563552856445,2.9136714935302734,-0.5725354552268982
0.49952924251556396,2.9109222888946533,-0.5691555738449097
0.535344123840332,2.9948906898498535,-0.5826746821403503
0.5654078125953674,3.040795087814331,-0.5886757969856262
0.5968770980834961,3.090233087539673,-0.5951526761054993
0.6256324052810669,3.1205952167510986,-0.5974410176277161
0.6716258525848389,3.2335011959075928,-0.6154576539993286
0.3794291913509369,1.7649801969528198,-0.33398324251174927
0.39846277236938477,1.7927284240722656,-0.3372555673122406
0.40927502512931824,1.7829090356826782,-0.3331737220287323
0.4219531714916229,1.7804592847824097,-0.33044740557670593
0.4243766665458679,1.736869215965271,-0.32018914818763733
0.44031763076782227,1.7492488622665405,-0.3202926814556122
0.45736950635910034,1.765261173248291,-0.32085850834846497
0.4736534655094147,1.777426838874817,-0.3206172585487366
0.48425185680389404,1.7671273946762085,-0.3162849247455597
0.5008422136306763,1.7790307998657227,-0.3159608542919159
0.5111664533615112,1.7686200141906738,-0.31157803535461426
0.9418774247169495,3.176542043685913,-0.554841160774231
0.8687856197357178,2.8574764728546143,-0.49482372403144836
0.8501887321472168,2.7269797325134277,-0.46805211901664734
0.864617645740509,2.7071144580841064,-0.4605086147785187
0.8810645937919617,2.6945812702178955,-0.4540216028690338
0.8973954319953918,2.6819310188293457,-0.4475560188293457
0.8849778175354004,2.585149049758911,-0.4272008240222931
0.9006549715995789,2.5723917484283447,-0.4208933711051941
0.9162855744361877,2.5595476627349854,-0.41429051756858826
0.9341140389442444,2.55395245552063,-0.40897268056869507
0.947978138923645,2.5373218059539795,-0.4018945097923279
0.9686689972877502,2.538619041442871,-0.39765018224716187
0.9807398915290833,2.518256187438965,-0.3898640275001526
0.9899821281433105,2.4905529022216797,-0.38091933727264404
1.004515290260315,2.4772233963012695,-0.37429288029670715
1.0101553201675415,2.4422972202301025,-0.3644556701183319
1.0301486253738403,2.443171739578247,-0.3598768711090088
1.0623430013656616,2.4723780155181885,-0.35937538743019104
1.079905390739441,2.4656119346618652,-0.35346662998199463
1.1209990978240967,2.511817216873169,-0.35509321093559265
1.1384187936782837,2.5048274993896484,-0.3489939868450165
1.1492104530334473,2.4836690425872803,-0.34092947840690613
1.1582581996917725,2.458888053894043,-0.33240392804145813
1.1625463962554932,2.423341751098633,-0.32236507534980774
1.172467589378357,2.4021191596984863,-0.31434154510498047
1.185549259185791,2.3878307342529297,-0.3072665333747864
1.1987210512161255,2.3733503818511963,-0.3001362979412079
1.2154972553253174,2.365596055984497,-0.29381418228149414
1.2227116823196411,2.340772867202759,-0.28534647822380066
1.239016056060791,2.3329615592956543,-0.27891430258750916
1.2516764402389526,2.3181328773498535,-0.2716374099254608
1.2640957832336426,2.3032760620117188,-0.2643505334854126
1.2759625911712646,2.288564682006836,-0.2570837140083313
1.2877506017684937,2.2737438678741455,-0.24982419610023499
1.300244927406311,2.2583959102630615,-0.24224184453487396
1.315725564956665,2.2501251697540283,-0.23552574217319489
1.3269879817962646,2.2351505756378174,-0.2281274050474167
1.3425415754318237,2.2265379428863525,-0.22124244272708893
1.3539870977401733,2.2111570835113525,-0.21361501514911652
1.3649848699569702,2.195894241333008,-0.20592203736305237
1.3716456890106201,2.1739912033081055,-0.19768260419368744
1.3912159204483032,2.1714305877685547,-0.19099849462509155
1.401430368423462,2.1561896800994873,-0.18321195244789124
1.4115948677062988,2.1408257484436035,-0.1754160374403
1.4226787090301514,2.1247265338897705,-0.16711916029453278
1.4302499294281006,2.106097936630249,-0.15881145000457764
1.4487053155899048,2.103485345840454,-0.15167266130447388
1.4545726776123047,2.080994129180908,-0.1427321434020996
1.4162522554397583,1.9987859725952148,-0.13002422451972961
1.4548704624176025,2.024456739425659,-0.12414559721946716
1.4688314199447632,2.014854669570923,-0.11566870659589767
1.4771723747253418,1.999518871307373,-0.10690981894731522
1.451420545578003,2.061392307281494,0.2665669322013855
1.469605565071106,2.1187703609466553,0.28037768602371216
1.4575837850570679,2.13546085357666,0.2887625992298126
1.4402295351028442,2.146160840988159,0.2964116632938385
1.4289264678955078,2.1620585918426514,0.3041541278362274
1.4126176834106445,2.1717984676361084,0.3108711838722229
1.4080551862716675,2.201460599899292,0.32039737701416016
1.3915722370147705,2.2109792232513428,0.3267999589443207
1.3835997581481934,2.2333056926727295,0.33499059081077576
1.366273283958435,2.2430405616760254,0.34100836515426636
1.3548238277435303,2.262605667114258,0.34856557846069336
1.3502228260040283,2.2914819717407227,0.35732898116111755
1.3336273431777954,2.300307512283325,0.3629035949707031
1.3194748163223267,2.316486358642578,0.3695189356803894
1.3054695129394531,2.3324034214019775,0.37606552243232727
1.2960560321807861,2.3544843196868896,0.38342997431755066
1.2939482927322388,2.3900372982025146,0.3930007517337799
1.281219720840454,2.409205436706543,0.39966922998428345
1.2697378396987915,2.431879997253418,0.4070392847061157
1.2553415298461914,2.447211980819702,0.4130638539791107
1.244911551475525,2.469050645828247,0.42011260986328125
1.2335782051086426,2.491192102432251,0.4270861744880676
1.2182036638259888,2.506553888320923,0.4328167736530304
1.2023340463638306,2.5219576358795166,0.43865087628364563
1.189195156097412,2.5402095317840576,0.44481849670410156
1.1744437217712402,2.5548007488250732,0.45035520195961
1.158695936203003,2.569718837738037,0.45570802688598633
1.1426419019699097,2.5846056938171387,0.4610448181629181
1.1325820684432983,2.61352276802063,0.4689360558986664
1.1167073249816895,2.6280031204223633,0.47421032190322876
1.0981533527374268,2.635103464126587,0.47812268137931824
1.087581992149353,2.6637933254241943,0.4857068359851837
1.0707671642303467,2.678225040435791,0.4906770884990692
1.0551997423171997,2.6961302757263184,0.4963260889053345
1.0493513345718384,2.7390031814575195,0.5066046118736267
1.0435481071472168,2.7816994190216064,0.5168654322624207
1.0248091220855713,2.7921142578125,0.5209929347038269
1.0069133043289185,2.806175947189331,0.5256527066230774
0.9723203182220459,2.772935628890991,0.5214560031890869
0.9518632888793945,2.779406785964966,0.5247372984886169
0.9152522683143616,2.7343850135803223,0.5181893110275269
0.900824785232544,2.7547714710235596,0.5240362882614136
0.8901532292366028,2.7900028228759766,0.532386302947998
0.8767525553703308,2.817866802215576,0.5393810272216797
0.8882441520690918,2.9303412437438965,0.5627102255821228
0.8706730008125305,2.947080612182617,0.5676884651184082
0.8542460203170776,2.967329263687134,0.573363184928894
0.8374384641647339,2.9875385761260986,0.578984797000885
0.819895327091217,3.0078399181365967,0.584347128868103
0.8060340285301208,3.042879343032837,0.5926244854927063
0.7884487509727478,3.066802740097046,0.5988180637359619
0.7742310166358948,3.1015913486480713,0.6071276664733887
0.7579541802406311,3.128816604614258,0.6139983534812927
0.7403122186660767,3.1522762775421143,0.6200628876686096
0.7211190462112427,3.1720454692840576,0.6251179575920105
0.699616551399231,3.1842868328094482,0.6287522315979004
0.6799838542938232,3.2038016319274902,0.6338419318199158
0.662033200263977,3.2306337356567383,0.6404047608375549
0.6439155340194702,3.257331371307373,0.646980345249176
0.6218108534812927,3.265118360519409,0.6497820019721985
0.6022825837135315,3.2918195724487305,0.6560072302818298
0.5841313600540161,3.3258869647979736,0.6637334227561951
0.5667973160743713,3.367413282394409,0.6730013489723206
0.5509187579154968,3.420173406600952,0.684566080570221
0.5282178521156311,3.431161403656006,0.6878076195716858
0.5071561336517334,3.457221031188965,0.6941342949867249
0.48642924427986145,3.4870100021362305,0.7008041143417358
0.46274933218955994,3.497701644897461,0.7036160230636597
0.44080492854118347,3.523439407348633,0.7094968557357788
0.4226367175579071,3.5832631587982178,0.7222911715507507
0.3896210789680481,3.5135350227355957,0.7089934349060059
0.37933892011642456,3.6568892002105713,0.7387575507164001
0.3555506765842438,3.678297281265259,0.7436929941177368
0.3324125409126282,3.711050271987915,0.7506973743438721
0.3068999946117401,3.720761299133301,0.7530825138092041
0.28385815024375916,3.7646589279174805,0.7624304294586182
0.2586926221847534,3.7893247604370117,0.7679334878921509
0.23371174931526184,3.813790798187256,0.773430347442627
0.21155966818332672,3.895429849624634,0.790570080280304
0.1864679902791977,3.9426333904266357,0.8002292513847351
0.15969258546829224,3.962895393371582,0.8044604063034058
0.13252310454845428,3.994467258453369,0.8110318779945374
0.10541889071464539,4.025838375091553,0.8176023960113525
0.0780491754412651,4.060849189758301,0.824954628944397
0.05080732703208923,4.141603469848633,0.8416467308998108
0.02225124090909958,4.187771797180176,0.8510804176330566
-0.0074993628077209,4.210834980010986,0.8555376529693604
-0.037028200924396515,4.237518787384033,0.8607743382453918
-0.06722906231880188,4.283132553100586,0.8698951601982117
-0.09832648932933807,4.3400115966796875,0.8813431262969971
-0.12654300034046173,4.2742156982421875,0.8679215312004089
-0.15804626047611237,4.323009967803955,0.8778108954429626
-0.22570918500423431,5.174855709075928,1.0501430034637451
-0.26035258173942566,5.150420665740967,1.044542670249939
-0.2997226119041443,5.2136664390563965,1.0567700862884521
-0.3429345190525055,5.3224663734436035,1.0782623291015625
-0.3815787732601166,5.343066215515137,1.081921935081482
-0.41580256819725037,5.294625759124756,1.0716476440429688
-0.44962409138679504,5.257523536682129,1.0634634494781494
-0.4883335828781128,5.28132963180542,1.0671818256378174
-0.5335151553153992,5.365823268890381,1.0831894874572754
-0.5879290103912354,5.526127815246582,1.114505648612976
-0.6070262789726257,5.347139835357666,1.0774257183074951
-0.6350231170654297,5.267077445983887,1.0603907108306885
-0.6716945171356201,5.262869358062744,1.058689832687378
-0.7068480849266052,5.250992298126221,1.0548757314682007
-0.7391729354858398,5.219933986663818,1.0471580028533936
-0.7756289839744568,5.215126037597656,1.0447405576705933
-0.813831090927124,5.2252912521362305,1.0453917980194092
-0.8464580178260803,5.197291851043701,1.038443922996521
-0.8800195455551147,5.176644325256348,1.0330249071121216
-0.9157496094703674,5.170975208282471,1.0303605794906616
-0.9379280209541321,5.093562602996826,1.0130490064620972
-0.9776511788368225,5.110121250152588,1.0144637823104858
-1.011061668395996,5.096399784088135,1.009941816329956
-1.0385984182357788,5.052321434020996,0.9994451403617859
-1.0857517719268799,5.101838111877441,1.007494330406189
-1.101501226425171,5.004858016967773,0.986632764339447
-1.147203803062439,5.046474456787109,0.9924617409706116
-1.1702156066894531,4.990699291229248,0.9792197346687317
-1.1897624731063843,4.923651695251465,0.9638639092445374
-1.2180325984954834,4.89372444152832,0.9558358788490295
-1.219734787940979,4.759410858154297,0.9275006651878357
-1.2535154819488525,4.751340389251709,0.9238309264183044
-1.285866141319275,4.743481636047363,0.9197443723678589
-1.3139668703079224,4.720641136169434,0.9127070903778076
-1.3438761234283447,4.705028533935547,0.9071255922317505
-1.378149151802063,4.703915596008301,0.9043660163879395
-1.116173505783081,3.7124574184417725,0.7116892337799072
-1.1273455619812012,3.657485246658325,0.6991832256317139
-1.1637786626815796,3.687079906463623,0.7024998068809509
-1.4852975606918335,4.597972393035889,0.8730282187461853
-1.5115211009979248,4.574123859405518,0.8655239343643188
-1.548170804977417,4.579008102416992,0.8634172081947327
-1.614198923110962,4.6671013832092285,0.8769370317459106
-1.6238172054290771,4.591325759887695,0.8596870303153992
-1.662796974182129,4.602919578552246,0.8583202958106995
-1.6938586235046387,4.592601299285889,0.8528392314910889
-1.7411264181137085,4.625294208526611,0.8553510308265686
-1.7790417671203613,4.628406524658203,0.8522551655769348
-1.7918568849563599,4.5666608810424805,0.8372765779495239
-1.8293260335922241,4.5694475173950195,0.8340575098991394
-1.8629728555679321,4.565286636352539,0.8291510343551636
-1.8714931011199951,4.50039529800415,0.8132941126823425
-1.8902865648269653,4.460195541381836,0.8019380569458008
-1.9384028911590576,4.486867427825928,0.8025336265563965
-1.9652750492095947,4.463676452636719,0.7942180633544922
-1.9859669208526611,4.43036413192749,0.7837238907814026
-2.033229112625122,4.456757545471191,0.7837037444114685
-2.039201259613037,4.39152717590332,0.7675421237945557
-2.094348907470703,4.430835723876953,0.7696079611778259
-2.097133159637451,4.358063220977783,0.752165675163269
-3.452425003051758,7.053152561187744,1.2090457677841187
-2.1695339679718018,4.359572410583496,0.742003858089447
-2.1746761798858643,4.297791957855225,0.7261684536933899
-2.2115015983581543,4.297656059265137,0.7207134366035461
-2.245455026626587,4.2900710105896,0.7139058113098145
-2.259931802749634,4.248824119567871,0.7012192010879517
-2.2752974033355713,4.211231231689453,0.6890887022018433
-2.264209032058716,4.1261305809021,0.669348955154419
-2.27860164642334,4.0841965675354,0.6563489437103271
-2.303511619567871,4.062673091888428,0.6467389464378357
-2.330303192138672,4.048758506774902,0.637958824634552
-2.353097677230835,4.02796745300293,0.6281338930130005
-2.3805203437805176,4.013228893280029,0.6190794110298157
-2.4055259227752686,3.990725040435791,0.6084516644477844
-2.436357259750366,3.9825239181518555,0.5998404622077942
-2.46662974357605,3.974421262741089,0.5911519527435303
-2.489197015762329,3.952632427215576,0.5802909135818481
-2.5088984966278076,3.923283100128174,0.5679526329040527
-2.527038812637329,3.894681215286255,0.5553943514823914
-2.548088550567627,3.873150110244751,0.5439533591270447
-2.587320566177368,3.8766164779663086,0.5356376767158508
-2.628000497817993,3.8789217472076416,0.5266216397285461
-2.0969951152801514,3.0535738468170166,0.40689924359321594
-2.057187557220459,2.9548583030700684,0.38614922761917114
-2.073725700378418,2.935058832168579,0.37535446882247925
-2.0886342525482178,2.916182041168213,0.36454740166664124
-2.1346595287323,2.9417450428009033,0.35913705825805664
-1.097174882888794,1.4906665086746216,0.17718924582004547
-1.1069749593734741,1.484081745147705,0.1714160293340683
-2.058058023452759,2.9115045070648193,-0.18619684875011444
-2.0734503269195557,2.9808781147003174,-0.20222122967243195
-2.0610945224761963,3.007558822631836,-0.21469293534755707
-2.0334651470184326,3.0160415172576904,-0.22609850764274597
-2.0065953731536865,3.023761749267578,-0.23698744177818298
-2.025446653366089,3.099144458770752,-0.252836138010025
-2.3855350017547607,3.7098937034606934,-0.3144691288471222
-1.895699143409729,2.9954781532287598,-0.26313260197639465
-2.3000717163085938,3.6926121711730957,-0.33542439341545105
-2.2723281383514404,3.7086198329925537,-0.3476904034614563
-2.2449750900268555,3.7240984439849854,-0.359725683927536
-2.2184932231903076,3.738800525665283,-0.3713214695453644
-2.2023916244506836,3.7741971015930176,-0.38498055934906006
-2.191282033920288,3.819852590560913,-0.39998483657836914
-1.7569406032562256,3.112668991088867,-0.3338105082511902
-1.7266287803649902,3.110826015472412,-0.3413999378681183
-1.7035773992538452,3.1225082874298096,-0.35043466091156006
-1.6810740232467651,3.1336865425109863,-0.3592188060283661
-1.6583107709884644,3.1447770595550537,-0.36799561977386475
-1.6352096796035767,3.155839681625366,-0.3765704929828644
-1.612067461013794,3.166694402694702,-0.38512781262397766
-1.5965256690979004,3.190917491912842,-0.39513349533081055
-1.5734516382217407,3.2013261318206787,-0.4034092128276825
-1.5529731512069702,3.2188668251037598,-0.41267529129981995
-1.5296927690505981,3.228944778442383,-0.4208163321018219
-1.5068235397338867,3.2386348247528076,-0.4287869334220886
-1.4866241216659546,3.255436658859253,-0.4375896155834198
-1.4693336486816406,3.2792153358459473,-0.4473554491996765
-1.4582834243774414,3.316969633102417,-0.45905980467796326
-1.7626653909683228,4.0875935554504395,-0.5738111734390259
-1.7391453981399536,4.113170623779297,-0.5851276516914368
-1.7123141288757324,4.13146448135376,-0.5954725742340088
-1.6886581182479858,4.156576156616211,-0.6067564487457275
-1.6564013957977295,4.159865379333496,-0.6148298978805542
-1.6259201765060425,4.1705403327941895,-0.6238107681274414
-1.587591528892517,4.159126281738281,-0.6293508410453796
-1.5146721601486206,4.0530829429626465,-0.6202794909477234
-1.472752332687378,4.026081562042236,-0.6230249404907227
-1.4243578910827637,3.9807052612304688,-0.6224629282951355
-1.3239043951034546,3.785494804382324,-0.5981624126434326
-1.2657347917556763,3.7022674083709717,-0.5909554362297058
-1.2089976072311401,3.6183996200561523,-0.5833404064178467
-1.1448802947998047,3.5084025859832764,-0.5708913207054138
-1.1081115007400513,3.478665351867676,-0.5712350010871887
-1.0543434619903564,3.3934109210968018,-0.5623624920845032
-1.0136890411376953,3.3443589210510254,-0.5591604113578796
-0.9583061933517456,3.2432470321655273,-0.546785831451416
-0.665469765663147,2.3117525577545166,-0.39288198947906494
-0.6334772109985352,2.260087490081787,-0.38717544078826904
-0.6094800233840942,2.234104871749878,-0.3857458531856537
-0.5707685351371765,2.1521477699279785,-0.37443307042121887
-0.5353564620018005,2.0772480964660645,-0.36394718289375305
-0.5038509368896484,2.013198137283325,-0.3551992177963257
-0.1437043398618698,2.540764808654785,-0.5014004111289978
-0.12755858898162842,2.5721285343170166,-0.508438229560852
-0.10968543589115143,2.5805094242095947,-0.5105311274528503
-0.09119910001754761,2.5657787322998047,-0.5080676078796387
-0.0735798329114914,2.573899030685425,-0.5101521611213684
-0.0556667186319828,2.5742359161376953,-0.5107207298278809
-0.037881236523389816,2.5821895599365234,-0.5124098658561707
-0.017965059727430344,2.36782169342041,-0.4698886275291443
-0.0014367642579600215,2.26442813873291,-0.4494090974330902
0.01412007212638855,2.237553834915161,-0.4441351294517517
0.029558394104242325,2.2297656536102295,-0.44248005747795105
0.04521750658750534,2.2372467517852783,-0.44360336661338806
0.061485130339860916,2.26377010345459,-0.44851893186569214
0.07748504728078842,2.263360023498535,-0.44811031222343445
0.09385428577661514,2.278164863586426,-0.4507201611995697
0.11006354540586472,2.2852821350097656,-0.4513780474662781
0.12848608195781708,2.330552577972412,-0.45957648754119873
0.1686890572309494,2.716157913208008,-0.5347756743431091
0.19004735350608826,2.7456917762756348,-0.5397510528564453
0.21146592497825623,2.775155544281006,-0.5443676114082336
0.23109644651412964,2.777744770050049,-0.543543815612793
0.2517852783203125,2.791653871536255,-0.5449538230895996
0.2764102518558502,2.843578338623047,-0.553777813911438
0.2985375225543976,2.860973358154297,-0.5556758046150208
0.32353848218917847,2.904994249343872,-0.5623674392700195
0.348715215921402,2.945004940032959,-0.5682544708251953
0.3720761239528656,2.9657785892486572,-0.5704163312911987
0.4018155634403229,3.032022714614868,-0.581292986869812
0.42698732018470764,3.0562567710876465,-0.5835253596305847
0.44826528429985046,3.0537548065185547,-0.5806597471237183
0.4765365421772003,3.0966408252716064,-0.5864174962043762
0.5152662992477417,3.1999449729919434,-0.6035205721855164
0.5388687252998352,3.204472064971924,-0.601613461971283
0.5764658451080322,3.288337230682373,-0.6143025755882263
0.6011740565299988,3.2924180030822754,-0.6119762659072876
0.6535919308662415,3.4436254501342773,-0.6369210481643677
0.6873299479484558,3.4887351989746094,-0.6419549584388733
0.7101287245750427,3.4771366119384766,-0.6361150741577148
0.36043158173561096,1.7044709920883179,-0.310014009475708
0.3947638273239136,1.8037254810333252,-0.32613012194633484
0.4056689441204071,1.7938340902328491,-0.32246163487434387
0.4181516468524933,1.7914210557937622,-0.31992021203041077
0.4270240366458893,1.7739506959915161,-0.3146958649158478
0.43939369916915894,1.771378517150879,-0.3121453523635864
0.4520416259765625,1.768652319908142,-0.30953341722488403
0.4663553833961487,1.7733718156814575,-0.3081241846084595
0.48073628544807434,1.7779994010925293,-0.3065938651561737
0.4952031075954437,1.7825123071670532,-0.3050392270088196
0.5098357200622559,1.7868893146514893,-0.30344176292419434
0.5160611867904663,1.7615092992782593,-0.29671716690063477
0.8158234357833862,2.7151386737823486,-0.4534670412540436
0.8256508111953735,2.6806674003601074,-0.4438871145248413
0.8583842515945435,2.7197413444519043,-0.4464615285396576
0.8679852485656738,2.6850364208221436,-0.43690112233161926
0.8942626714706421,2.7016382217407227,-0.4353693425655365
0.8919806480407715,2.6339662075042725,-0.4204142987728119
0.8901761174201965,2.570030689239502,-0.4062364995479584
0.9082899689674377,2.5644524097442627,-0.401364266872406
0.9261351823806763,2.5588502883911133,-0.39630621671676636
0.9439066052436829,2.553133726119995,-0.39121419191360474
0.9606812596321106,2.5435304641723633,-0.3854551315307617
0.975805401802063,2.5302534103393555,-0.37921637296676636
0.987755537033081,2.5097720623016357,-0.37180688977241516
1.002241611480713,2.49646258354187,-0.3654610216617584
1.0254781246185303,2.5045251846313477,-0.36222609877586365
1.0538891553878784,2.522902250289917,-0.3602941334247589
1.0805577039718628,2.537668228149414,-0.35775163769721985
1.104273796081543,2.545138359069824,-0.3540625274181366
1.118791937828064,2.5311079025268555,-0.34737175703048706
1.1270785331726074,2.5027291774749756,-0.33870595693588257
1.1415324211120605,2.4884355068206787,-0.3318466246128082
1.1537351608276367,2.4707393646240234,-0.32461193203926086
1.1675090789794922,2.4564368724823,-0.31784436106681824
1.1679636240005493,2.413944721221924,-0.3074285686016083
1.1812527179718018,2.3995697498321533,-0.30062437057495117
1.1945244073867798,2.3850598335266113,-0.293727844953537
1.2110759019851685,2.3774309158325195,-0.28773680329322815
1.217132568359375,2.348845958709717,-0.27918145060539246
1.231414794921875,2.337716579437256,-0.27269408106803894
1.2436941862106323,2.3230977058410645,-0.26582521200180054
1.2561655044555664,2.3082330226898193,-0.25885993242263794
1.272616982460022,2.299912452697754,-0.25248655676841736
1.284407615661621,2.2851126194000244,-0.2454780489206314
1.2960481643676758,2.270242214202881,-0.2385052889585495
1.308206558227539,2.2549431324005127,-0.2312968373298645
1.319764256477356,2.2398269176483154,-0.22413372993469238
1.3391368389129639,2.238027572631836,-0.21820905804634094
1.3425209522247314,2.2093491554260254,-0.2096497267484665
1.353867769241333,2.193897247314453,-0.20231015980243683
1.3644399642944336,2.178760051727295,-0.19502997398376465
1.3792088031768799,2.170037269592285,-0.1882820874452591
1.3989818096160889,2.1672356128692627,-0.1816939115524292
1.4048246145248413,2.145419120788574,-0.1736403852701187
1.4147974252700806,2.130059242248535,-0.16613948345184326
1.4298068284988403,2.120579242706299,-0.15875419974327087
1.4416359663009644,2.1083710193634033,-0.15119454264640808
1.4558659791946411,2.0990984439849854,-0.14367108047008514
1.4616718292236328,2.076533079147339,-0.13496632874011993
1.4389179944992065,2.0166420936584473,-0.12407661974430084
1.4707505702972412,2.032674551010132,-0.11771710962057114
1.4707355499267578,2.0041778087615967,-0.1084044799208641
1.4532806873321533,1.954416036605835,-0.0981844961643219
1.4431445598602295,2.0314877033233643,0.24482180178165436
1.4779503345489502,2.11535906791687,0.2616444528102875
1.462480068206787,2.1251749992370605,0.2689286768436432
1.4506335258483887,2.1417601108551025,0.27686235308647156
1.4336509704589844,2.1522412300109863,0.28395289182662964
1.426347255706787,2.1748063564300537,0.29226863384246826
1.4098854064941406,2.1846330165863037,0.29878535866737366
1.4052258729934692,2.214376926422119,0.30785542726516724
1.3843441009521484,2.217489719390869,0.31310153007507324
1.3766307830810547,2.239687204360962,0.3207971751689911
1.3634973764419556,2.2559449672698975,0.32749366760253906
1.3457454442977905,2.26572847366333,0.33332857489585876
1.3311009407043457,2.2780487537384033,0.33925867080688477
1.3302912712097168,2.313541889190674,0.34859102964401245
1.312565565109253,2.3228585720062256,0.35378900170326233
1.298546314239502,2.3387911319732666,0.3600224256515503
1.2959896326065063,2.3747594356536865,0.3693065643310547
1.2828245162963867,2.389922857284546,0.3752518594264984
1.2739372253417969,2.4158146381378174,0.38269317150115967
1.2663682699203491,2.445199966430664,0.39071741700172424
1.2551833391189575,2.4675707817077637,0.39764171838760376
1.2408092021942139,2.482733726501465,0.4033569097518921
1.226181149482727,2.497880697250366,0.40893515944480896
1.2107584476470947,2.513263463973999,0.41440829634666443
1.1951707601547241,2.5285446643829346,0.41990435123443604
1.181754231452942,2.546924352645874,0.4258470833301544
1.1669336557388306,2.5615482330322266,0.43114036321640015
1.1510668992996216,2.576496124267578,0.43636512756347656
1.134989857673645,2.591388702392578,0.4414556920528412
1.1218206882476807,2.613257646560669,0.44777703285217285
1.1060702800750732,2.62768816947937,0.4527784585952759
1.087515950202942,2.6347782611846924,0.45650580525398254
1.073864221572876,2.6563875675201416,0.4626227021217346
1.0642156600952148,2.688709020614624,0.4704856872558594
1.047159194946289,2.7030527591705322,0.4752580225467682
1.024975061416626,2.7026965618133545,0.4774150848388672
1.0300884246826172,2.7742671966552734,0.492300808429718
1.0165356397628784,2.799161195755005,0.4989190697669983
0.9896013736724854,2.7878074645996094,0.49881768226623535
0.9641483426094055,2.779853343963623,0.4993285834789276
0.9340047240257263,2.757065773010254,0.497163325548172
0.9061607122421265,2.7374370098114014,0.49548640847206116
0.8972801566123962,2.7762513160705566,0.5044474601745605
0.8749550580978394,2.7748069763183594,0.5058128833770752
0.8875819444656372,2.8872673511505127,0.5279517769813538
0.8798830509185791,2.937350034713745,0.5387957692146301
0.8642676472663879,2.9615213871002197,0.5449267029762268
0.8476985692977905,2.981806993484497,0.5503568053245544
0.8304828405380249,3.0021040439605713,0.5558422803878784
0.8108444213867188,3.014993190765381,0.5595890283584595
0.7968615889549255,3.0500755310058594,0.5675030946731567
0.783359169960022,3.08882737159729,0.5761587023735046
0.7651431560516357,3.1087801456451416,0.5813339948654175
0.7528276443481445,3.1548097133636475,0.591448187828064
0.7306784987449646,3.1595726013183594,0.5937974452972412
0.7114182114601135,3.179338216781616,0.5986230373382568
0.6935016512870789,3.206500768661499,0.6048869490623474
0.6752669811248779,3.233555316925049,0.611176073551178
0.6535066962242126,3.2454710006713867,0.6146536469459534
0.6323150992393494,3.257112503051758,0.6180784702301025
0.6130996346473694,3.2799394130706787,0.6236563324928284
0.5924807190895081,3.299027681350708,0.6281309127807617
0.5768353939056396,3.3482508659362793,0.6383907794952393
0.5594828724861145,3.393681764602661,0.6479995250701904
0.5402794480323792,3.4275689125061035,0.65543532371521
0.5197880864143372,3.4537136554718018,0.6614256501197815
0.49677929282188416,3.464538335800171,0.6645228862762451
0.4738912284374237,3.4791131019592285,0.6680118441581726
0.4517868459224701,3.5050315856933594,0.6736267805099487
0.42884108424186707,3.5231411457061768,0.6777709722518921
0.4021683633327484,3.5106043815612793,0.6760532855987549
0.38715922832489014,3.6008200645446777,0.6941600441932678
0.36742034554481506,3.6566321849823,0.705698549747467
0.3450295925140381,3.6932878494262695,0.713376522064209
0.32120612263679504,3.7260849475860596,0.7200720906257629
0.2968347370624542,3.7510414123535156,0.7252869009971619
0.2718101441860199,3.7720134258270264,0.7297723293304443
0.24742309749126434,3.804287910461426,0.7364834547042847
0.22410525381565094,3.8593649864196777,0.7476524114608765
0.19969703257083893,3.9181504249572754,0.7595951557159424
0.17364458739757538,3.9500436782836914,0.7658339738845825
0.14673098921775818,3.9702646732330322,0.7698482275009155
0.11988756060600281,4.001800537109375,0.776095449924469
0.09283223748207092,4.040818691253662,0.7838341593742371
0.06524774432182312,4.106497764587402,0.7967910170555115
0.03710003197193146,4.1489715576171875,0.805286169052124
0.008321070112287998,4.1951398849487305,0.8142457008361816
-0.02098851650953293,4.2181501388549805,0.8184756636619568
-0.050572194159030914,4.237120151519775,0.8219592571258545
-0.08160877227783203,4.290380001068115,0.832129180431366
-0.11181505024433136,4.305090427398682,0.8348634243011475
-0.14071522653102875,4.273593425750732,0.8286775946617126
-0.1724402755498886,4.3223724365234375,0.8380911946296692
-0.24163441359996796,5.16019344329834,0.9998514652252197
-0.2789875566959381,5.189219951629639,1.00482976436615
-0.3181608319282532,5.229422569274902,1.0120000839233398
-0.3613505959510803,5.330603122711182,1.0310161113739014
-0.3978457748889923,5.320502758026123,1.0285454988479614
-0.43134474754333496,5.275750160217285,1.0194306373596191
-0.46442264318466187,5.2346882820129395,1.0107288360595703
-0.5088390707969666,5.311816692352295,1.0245150327682495
-0.5650062561035156,5.499325752258301,1.0596072673797607
-0.5941360592842102,5.415544033050537,1.0424535274505615
-0.6178684234619141,5.29348611831665,1.0180128812789917
-0.6518957614898682,5.266530990600586,1.0119316577911377
-0.6911207437515259,5.27734375,1.0131046772003174
-0.7273753881454468,5.272921562194824,1.010745644569397
-0.758588969707489,5.234072208404541,1.0018469095230103
-0.7887846231460571,5.191235065460205,0.9922494292259216
-0.8269796967506409,5.201282501220703,0.9928091168403625
-0.8556281924247742,5.146520137786865,0.9810190200805664
-0.8914496898651123,5.140882968902588,0.9786768555641174
-0.9288495182991028,5.146488666534424,0.9780688285827637
-0.9562413692474365,5.099064350128174,0.9672125577926636
-0.9881631135940552,5.07788610458374,0.9614002108573914
-1.0183757543563843,5.048964977264404,0.9541773200035095
-1.042256236076355,4.985811233520508,0.9405040144920349
-1.0858756303787231,5.0202956199646,0.9453272223472595
-1.1129746437072754,4.979532718658447,0.935785174369812
-1.1503591537475586,4.987473964691162,0.9350330233573914
-1.1700676679611206,4.9203715324401855,0.9202786087989807
-1.2324881553649902,5.028545379638672,0.9382886290550232
-1.2080237865447998,4.785755634307861,0.8909071087837219
-1.2278223037719727,4.725777626037598,0.8777124881744385
-1.2685030698776245,4.74753475189209,0.8796297907829285
-1.3006658554077148,4.739574909210205,0.8755748271942139
-1.3271057605743408,4.709029674530029,0.8673537373542786
-1.3611512184143066,4.708055019378662,0.8646740317344666
-1.3914527893066406,4.691918849945068,0.8592049479484558
-1.1085124015808105,3.64465069770813,0.6654770970344543
-1.1384021043777466,3.652158260345459,0.6648406386375427
-1.172942876815796,3.674226999282837,0.6664425134658813
-1.4954973459243774,4.578081130981445,0.8274556994438171
-1.510604977607727,4.521201133728027,0.8143110871315002
-1.5917373895645142,4.657222270965576,0.8358167409896851
-1.648376226425171,4.715943336486816,0.8433303833007812
-1.6666390895843506,4.665454387664795,0.8311289548873901
-1.7131012678146362,4.694709777832031,0.83273845911026
-1.705684781074524,4.579288005828857,0.8088322877883911
-1.736505150794983,4.568622589111328,0.8035446405410767
-1.7685350179672241,4.557287693023682,0.7980360388755798
-1.811848521232605,4.57440185546875,0.797526478767395
-1.8522030115127563,4.584221363067627,0.7952626943588257
-1.8712899684906006,4.5441508293151855,0.7843078970909119
-1.8988333940505981,4.525374889373779,0.7771008610725403
-1.923839807510376,4.499065399169922,0.7685678005218506
-1.9616130590438843,4.500635147094727,0.7647424936294556
-1.9665980339050293,4.427844047546387,0.7481063604354858
-1.9866727590560913,4.394567966461182,0.7379889488220215
-2.053196668624878,4.462953567504883,0.7449162602424622
-2.073542356491089,4.429080486297607,0.7347000241279602
-2.086448907852173,4.377133369445801,0.7213935256004333
-2.120818614959717,4.370347023010254,0.7154224514961243
-2.1499664783477783,4.357272624969482,0.7081323862075806
-2.149559736251831,4.285244941711426,0.6913623809814453
-2.1820151805877686,4.278667449951172,0.6851810216903687
-2.2014753818511963,4.2437744140625,0.674294114112854
-2.257904291152954,4.28096342086792,0.6747127175331116
-2.283085584640503,4.260082721710205,0.6655361652374268
-2.3113155364990234,4.246074676513672,0.657568633556366
-2.2617175579071045,4.089088439941406,0.6274905800819397
-2.2869110107421875,4.067429542541504,0.6182228326797485
-2.318190813064575,4.059879779815674,0.6108355522155762
-2.337719202041626,4.032057285308838,0.6002004146575928
-2.3606069087982178,4.01097297668457,0.5906975269317627
-2.397001028060913,4.008737564086914,0.5835655927658081
-2.4164657592773438,3.9802324771881104,0.5724806189537048
-2.4425711631774902,3.965595006942749,0.5631992816925049
-2.469007730484009,3.95052433013916,0.5537621974945068
-2.4969165325164795,3.9343395233154297,0.5437567830085754
-2.515394449234009,3.905484676361084,0.5318935513496399
-2.5407657623291016,3.89039945602417,0.5217583179473877
-2.5663485527038574,3.8749399185180664,0.511494517326355
-2.6202828884124756,3.896449565887451,0.5052531957626343
-2.683187484741211,3.935058355331421,0.5009402632713318
-2.0810513496398926,3.0112907886505127,0.37610098719596863
-2.063875675201416,2.9439077377319336,0.36003583669662476
-2.0795962810516357,2.9244556427001953,0.3496304750442505
-2.107750415802002,2.9245922565460205,0.34127506613731384
-1.0786937475204468,1.4761167764663696,0.1678270846605301
-1.1026331186294556,1.488099217414856,0.16442739963531494
-2.060387134552002,2.8914217948913574,-0.17403843998908997
-2.085071086883545,2.973555088043213,-0.19018864631652832
-2.072070360183716,3.0008492469787598,-0.20259106159210205
-2.0499191284179688,3.015249490737915,-0.21381591260433197
-2.0224902629852295,3.0235230922698975,-0.22460825741291046
-2.041637897491455,3.098914623260498,-0.23988360166549683
-2.0350570678710938,3.1396031379699707,-0.2528575360774994
-2.348665237426758,3.6829135417938232,-0.3077990412712097
-2.32666015625,3.7050585746765137,-0.32014867663383484
-2.2868354320526123,3.70129132270813,-0.330224871635437
-2.263058662414551,3.723926305770874,-0.3426341414451599
-2.2401371002197266,3.745777130126953,-0.35462725162506104
-2.2048122882843018,3.747556447982788,-0.36447930335998535
-2.1807990074157715,3.769481658935547,-0.3762747645378113
-2.157510280609131,3.7907297611236572,-0.3877341151237488
-2.1510791778564453,3.842395782470703,-0.4022834002971649
-1.7302799224853516,3.1451590061187744,-0.3369136452674866
-1.6924993991851807,3.129401445388794,-0.34253594279289246
-1.670345425605774,3.140368938446045,-0.35080957412719727
-1.6474175453186035,3.1515326499938965,-0.3590213656425476
-1.6313735246658325,3.1764066219329834,-0.3688356876373291
-1.6012753248214722,3.1733365058898926,-0.37535643577575684
-1.5855358839035034,3.197638511657715,-0.3849181830883026
-1.5621596574783325,3.20817232131958,-0.3927669823169708
-1.5420989990234375,3.2255051136016846,-0.4014711380004883
-1.5192430019378662,3.2353787422180176,-0.4090923070907593
-1.4992924928665161,3.252258062362671,-0.41754409670829773
-1.4783915281295776,3.2693421840667725,-0.42609959840774536
-1.4547618627548218,3.278947114944458,-0.4335612952709198
-1.431613564491272,3.2881510257720947,-0.44084855914115906
-1.4141403436660767,3.311600685119629,-0.4499652683734894
-1.3992104530334473,3.342181921005249,-0.4600484371185303
-1.6923969984054565,4.125496864318848,-0.5752645134925842
-1.666155457496643,4.143303871154785,-0.5849179029464722
-1.6450424194335938,4.175511837005615,-0.5964697003364563
