X,Y,Z
1.234022617340088,4.987223148345947,1.2062939405441284
1.2019932270050049,5.00957727432251,1.2144405841827393
0.9274776577949524,3.9875082969665527,0.9688515067100525
0.901547372341156,4.004376411437988,0.974697470664978
0.8744186162948608,4.017441749572754,0.9794830083847046
0.8432408571243286,4.011728286743164,0.9797388911247253
0.8194593787193298,4.043055057525635,0.9891141653060913
0.7846394181251526,4.014420986175537,0.983806312084198
0.7657140493392944,4.06760835647583,0.9986050128936768
0.733040452003479,4.049797058105469,0.9958562254905701
0.7119791507720947,4.099237442016602,1.009177327156067
0.6797571778297424,4.088737964630127,1.0078237056732178
0.6542070508003235,4.115398406982422,1.015661597251892
0.6305044293403625,4.153083801269531,1.026267647743225
0.6048222780227661,4.179344177246094,1.034111499786377
0.5767356157302856,4.190406799316406,1.0382550954818726
0.5457536578178406,4.186437129974365,1.0382733345031738
0.5217493772506714,4.234959125518799,1.0510950088500977
0.8682627081871033,7.48171854019165,1.858405590057373
0.4672507047653198,4.290103435516357,1.0665327310562134
0.43813496828079224,4.300394058227539,1.0700335502624512
0.41099563241004944,4.333135604858398,1.0791829824447632
0.3802538514137268,4.335525989532471,1.0808511972427368
0.35127320885658264,4.35673713684082,1.0865648984909058
0.3164307177066803,4.3021559715271,1.0733723640441895
0.27935677766799927,4.2019243240356445,1.0488264560699463
0.24655604362487793,4.14679479598999,1.0355695486068726
0.21603155136108398,4.125497817993164,1.0308082103729248
0.18704767525196075,4.11910343170166,1.029806137084961
0.15654799342155457,4.070869445800781,1.0183073282241821
0.12674200534820557,4.026354789733887,1.0071558952331543
0.09705247730016708,3.962684154510498,0.9912615418434143
0.06869432330131531,3.9480628967285156,0.9876859784126282
0.020628631114959717,1.9779857397079468,0.4948967397212982
0.013629297725856304,3.925794839859009,0.9824187159538269
-0.020682157948613167,5.934085369110107,1.4853246212005615
-0.06246943026781082,5.983034610748291,1.4977426528930664
-0.10437332838773727,5.959875583648682,1.4913941621780396
-0.048012152314186096,1.9623959064483643,0.49091383814811707
-0.19388197362422943,6.170287132263184,1.5431506633758545
-0.23538893461227417,6.131085395812988,1.5330114364624023
-0.16707685589790344,3.6837379932403564,0.9209222197532654
-0.18891847133636475,3.6106765270233154,0.9025472402572632
-0.21308541297912598,3.586705446243286,0.8962559700012207
-0.4160187542438507,6.270645618438721,1.565820336341858
-0.5455111861228943,7.443770885467529,1.8575319051742554
-0.5287353992462158,6.59010648727417,1.6434998512268066
-0.5847241282463074,6.703797817230225,1.670902967453003
-0.5199828743934631,5.510944843292236,1.3728591203689575
-0.5533608794212341,5.458523273468018,1.3591562509536743
-0.703065037727356,6.487996578216553,1.614220380783081
-0.7450438737869263,6.461100101470947,1.605811595916748
-0.7844601273536682,6.415096282958984,1.5927436351776123
-0.8201354742050171,6.338666915893555,1.5721994638442993
-0.8590248823165894,6.2959136962890625,1.5601238012313843
-0.9018195867538452,6.2829437255859375,1.5555094480514526
-0.9511832594871521,6.314714431762695,1.5620437860488892
-1.0058413743972778,6.38010311126709,1.576164722442627
-1.0552812814712524,6.403839588165283,1.5796962976455688
-1.1087790727615356,6.45351505279541,1.5897133350372314
-1.161820650100708,6.495270729064941,1.5978113412857056
-1.2154011726379395,6.532778739929199,1.604880690574646
-1.2667540311813354,6.554936408996582,1.608229160308838
-1.3250999450683594,6.610240459442139,1.6197419166564941
-1.384149193763733,6.6653547286987305,1.6300842761993408
-1.4328151941299438,6.67185115814209,1.62863290309906
-1.4677156209945679,6.614908695220947,1.6117820739746094
-1.5032000541687012,6.561397075653076,1.5958551168441772
-0.6699600219726562,2.8338944911956787,0.6880265474319458
-0.6829035878181458,2.8000524044036865,0.6786016821861267
-0.6966763138771057,2.7737152576446533,0.6708603501319885
-0.7126737833023071,2.758488416671753,0.6656079888343811
-0.7334089279174805,2.7615444660186768,0.6647976636886597
-0.7632327675819397,2.797487735748291,0.671908974647522
-1.7430846691131592,6.215630054473877,1.4893696308135986
-1.7791560888290405,6.179111003875732,1.4772473573684692
-1.8137331008911133,6.138731002807617,1.4642561674118042
-1.8443305492401123,6.091454982757568,1.4487371444702148
-1.8732390403747559,6.0403828620910645,1.4324349164962769
-1.905706763267517,5.999871253967285,1.4186798334121704
-1.9379583597183228,5.959104061126709,1.4049469232559204
-1.9665662050247192,5.9071736335754395,1.388654112815857
-1.9958299398422241,5.858699321746826,1.3732880353927612
-2.0270442962646484,5.821465015411377,1.3598865270614624
-2.0562350749969482,5.780606269836426,1.3455827236175537
-2.0856773853302,5.739366054534912,1.3312137126922607
-2.118807315826416,5.708648681640625,1.319366693496704
-2.148137092590332,5.666819095611572,1.3049839735031128
-2.1907663345336914,5.660456657409668,1.298851490020752
-2.253070831298828,5.707763195037842,1.3042746782302856
-2.3192942142486572,5.761534214019775,1.310854196548462
-2.3494386672973633,5.726500511169434,1.2973343133926392
-2.3790392875671387,5.687289714813232,1.2827868461608887
-2.4163243770599365,5.665278434753418,1.272125244140625
-2.4761102199554443,5.695736408233643,1.273217797279358
-2.5089874267578125,5.666821002960205,1.2601054906845093
-2.539308547973633,5.6344804763793945,1.2464457750320435
-2.574251174926758,5.6123433113098145,1.2351008653640747
-2.591400623321533,5.547550678253174,1.2141793966293335
-3.840759754180908,8.075313568115234,1.7577722072601318
-3.9222118854522705,8.103425979614258,1.7532936334609985
-2.6911473274230957,5.468316555023193,1.1757879257202148
-2.7106857299804688,5.418093681335449,1.1577056646347046
-2.729609727859497,5.363636493682861,1.138532042503357
-2.7572431564331055,5.325942039489746,1.1229500770568848
-2.794259786605835,5.309024333953857,1.1115009784698486
-2.8159124851226807,5.2652387619018555,1.0938869714736938
-2.827251672744751,5.20478630065918,1.073129653930664
-2.8991470336914062,5.251214981079102,1.0739995241165161
-1.1671422719955444,2.0797359943389893,0.42184874415397644
-1.2043219804763794,2.1127848625183105,0.424823522567749
-2.9444351196289062,5.087495803833008,1.0134354829788208
-1.2210179567337036,2.0785558223724365,0.41021203994750977
-1.2575842142105103,2.107255220413208,0.41170498728752136
-2.924910068511963,4.824770450592041,0.9330556392669678
-2.9769973754882812,4.840738296508789,0.9258186221122742
-2.989124298095703,4.7904953956604,0.9057547450065613
-3.0143887996673584,4.7590789794921875,0.888964831829071
-3.03824782371521,4.723691940307617,0.8712192177772522
-3.0616438388824463,4.692870616912842,0.8539183735847473
-3.0499606132507324,4.610804557800293,0.827392578125
-3.080584764480591,4.588586330413818,0.8109041452407837
-3.1005892753601074,4.549878120422363,0.7914295196533203
-3.1348836421966553,4.538539886474609,0.7762342095375061
-2.9692091941833496,4.241743564605713,0.712995707988739
-2.8698041439056396,4.039912700653076,0.6658308506011963
-2.916320323944092,4.047449588775635,0.6532279849052429
-2.933363914489746,4.018589019775391,0.6346758604049683
-2.938483953475952,3.9695117473602295,0.6119334697723389
-2.4546241760253906,3.441603422164917,-0.24518902599811554
-2.4565248489379883,3.4963080883026123,-0.26536113023757935
-2.8661513328552246,4.145379066467285,-0.3337687849998474
-2.857883930206299,4.196700096130371,-0.355974942445755
-2.8508405685424805,4.251498222351074,-0.3784670829772949
-2.799006938934326,4.242095947265625,-0.3953242301940918
-2.7679216861724854,4.260677337646484,-0.4139328598976135
-2.7596254348754883,4.31515645980835,-0.43579792976379395
-2.7476742267608643,4.36691951751709,-0.4576732814311981
-1.2699545621871948,2.0501909255981445,-0.22228628396987915
-2.7225146293640137,4.465576648712158,-0.5000725388526917
-2.692288398742676,4.4908623695373535,-0.5190584063529968
-1.2201732397079468,2.068406343460083,-0.24610960483551025
-2.6388280391693115,4.5453715324401855,-0.5559309720993042
-2.608741521835327,4.569528579711914,-0.5739322304725647
-2.578704833984375,4.593288421630859,-0.5918313264846802
-2.5546164512634277,4.626718997955322,-0.6108412146568298
-2.535581111907959,4.670310974121094,-0.6310669779777527
-2.515554189682007,4.714048385620117,-0.6514638662338257
-2.4885740280151367,4.7435832023620605,-0.6697363257408142
-2.4474422931671143,4.745198726654053,-0.6839473247528076
-1.1289024353027344,2.2284908294677734,-0.32778865098953247
-1.0693438053131104,2.148977041244507,-0.3223037123680115
-1.0607420206069946,2.169419288635254,-0.33143946528434753
-1.0484482049942017,2.182889699935913,-0.3395606279373169
-1.0357115268707275,2.196416139602661,-0.3476797044277191
-1.0261938571929932,2.216813564300537,-0.3569166958332062
-1.0068515539169312,2.2160451412200928,-0.36277785897254944
-0.9987369775772095,2.239748477935791,-0.37252703309059143
-0.9855090975761414,2.25288987159729,-0.38053008913993835
-0.9661610126495361,2.2517080307006836,-0.3860943019390106
-0.9590504765510559,2.2787222862243652,-0.39647552371025085
-0.9511748552322388,2.3058769702911377,-0.4070184826850891
-0.9431264996528625,2.3329596519470215,-0.4174875020980835
-0.9121500253677368,2.30267071723938,-0.4176374673843384
-0.8957121968269348,2.307931423187256,-0.424125611782074
-1.2469558715820312,3.2808027267456055,-0.6106054782867432
-1.206784963607788,3.244891881942749,-0.6115282773971558
-1.2019016742706299,3.302384853363037,-0.6299351453781128
-1.1809711456298828,3.3163976669311523,-0.6401510238647461
-1.1294817924499512,3.243248224258423,-0.6332330107688904
-1.0666275024414062,3.133312702178955,-0.6185535192489624
-1.015967607498169,3.055612564086914,-0.6099380850791931
-0.9622271656990051,2.962697744369507,-0.5977723598480225
-0.905197262763977,2.8546793460845947,-0.5819711089134216
-0.8700636625289917,2.812074899673462,-0.5789859294891357
-0.803524374961853,2.6627748012542725,-0.5536422729492188
-0.769507110118866,2.6156580448150635,-0.5491289496421814
-0.746385931968689,2.6051294803619385,-0.5521679520606995
-0.4975779950618744,1.7836512327194214,-0.3814021646976471
-0.4959329664707184,1.826891303062439,-0.3940853178501129
-0.4742095172405243,1.7962250709533691,-0.390852153301239
-0.4615010917186737,1.7986853122711182,-0.39473092555999756
-0.44484391808509827,1.7863235473632812,-0.39515143632888794
-0.43219491839408875,1.7886263132095337,-0.39875563979148865
-0.41436338424682617,1.7685315608978271,-0.3973349332809448
-0.40358975529670715,1.778048038482666,-0.40255358815193176
-0.3927060663700104,1.7875595092773438,-0.40747764706611633
-0.3846626579761505,1.8119388818740845,-0.4159046411514282
-0.36883845925331116,1.7989176511764526,-0.4157356023788452
-0.3546934127807617,1.7932430505752563,-0.41724979877471924
-0.34350550174713135,1.8024896383285522,-0.4219222366809845
-0.32810208201408386,1.7892062664031982,-0.4212823212146759
-0.3067440688610077,1.7421119213104248,-0.41265669465065
-0.302765429019928,1.792303204536438,-0.42704978585243225
-0.28900575637817383,1.7862591743469238,-0.4278191328048706
-0.2788532078266144,1.802667498588562,-0.4338846802711487
-0.2706640362739563,1.8340442180633545,-0.4436347186565399
-0.26074913144111633,1.8578708171844482,-0.4516856074333191
-0.24674314260482788,1.8515663146972656,-0.4521324932575226
-0.2328694760799408,1.845198154449463,-0.45238324999809265
-0.21998097002506256,1.8462657928466797,-0.4544735550880432
-0.2062433660030365,1.8397014141082764,-0.45469972491264343
-0.18866100907325745,1.7953702211380005,-0.44534072279930115
-0.174454465508461,1.7811676263809204,-0.44319432973861694
-0.16103091835975647,1.7706218957901,-0.44193390011787415
-0.14871367812156677,1.7713100910186768,-0.44349005818367004
-0.13464725017547607,1.749281406402588,-0.43919920921325684
-0.1225009560585022,1.7499020099639893,-0.4402818977832794
-0.110138900578022,1.7504462003707886,-0.441383421421051
-0.0975155159831047,1.7433334589004517,-0.44055888056755066
-0.08574292808771133,1.751288890838623,-0.44344866275787354
-0.07228152453899384,1.7214208841323853,-0.4363898038864136
-0.06057769060134888,1.729297161102295,-0.4389133155345917
-0.04738062620162964,1.695465326309204,-0.4308738112449646
-0.036457501351833344,1.737251877784729,-0.4419996738433838
-0.02405933104455471,1.7147188186645508,-0.4363497793674469
-0.012202922254800797,1.7223830223083496,-0.43840453028678894
-0.00023435064940713346,1.6807533502578735,-0.4279308617115021
0.01177431084215641,1.6996105909347534,-0.43286532163619995
0.023895854130387306,1.7222847938537598,-0.438308984041214
0.03586011379957199,1.7221640348434448,-0.43796825408935547
0.04783615469932556,1.7219595909118652,-0.4376271367073059
0.058114174753427505,1.6724809408187866,-0.42479175329208374
0.06360398977994919,1.5246771574020386,-0.38662511110305786
0.07312612235546112,1.4978958368301392,-0.3791871666908264
0.08439192920923233,1.512656569480896,-0.38230153918266296
0.09444291889667511,1.5046522617340088,-0.37967774271965027
0.10439389944076538,1.4966610670089722,-0.37673577666282654
0.11541297286748886,1.5037318468093872,-0.37752270698547363
0.12544232606887817,1.4956064224243164,-0.3744969069957733
0.13449418544769287,1.4798723459243774,-0.3696158826351166
0.14481954276561737,1.479238510131836,-0.36824914813041687
0.1559424251317978,1.486101746559143,-0.3686421811580658
0.16379092633724213,1.4627243280410767,-0.36156487464904785
0.17416925728321075,1.4618918895721436,-0.360078364610672
0.18913884460926056,1.4987062215805054,-0.3676401376724243
0.20113632082939148,1.5090923309326172,-0.3685283064842224
0.2523428201675415,1.7976927757263184,-0.4370501935482025
0.2693425714969635,1.826493740081787,-0.44208604097366333
0.29222050309181213,1.888979434967041,-0.454944908618927
0.30426010489463806,1.8800488710403442,-0.45034757256507874
0.3275935649871826,1.938525676727295,-0.46185147762298584
0.34318265318870544,1.948100209236145,-0.4616352915763855
0.3596208691596985,1.9613275527954102,-0.46213024854660034
0.3848406672477722,2.019361972808838,-0.47279852628707886
0.3948698341846466,1.9949537515640259,-0.46408313512802124
0.40888822078704834,1.9929158687591553,-0.4606867730617523
0.4197198748588562,1.9758797883987427,-0.45379313826560974
0.4401888847351074,2.0035247802734375,-0.45682278275489807
0.44923001527786255,1.9789223670959473,-0.4479530155658722
0.46167269349098206,1.9690858125686646,-0.4424399435520172
0.4719570279121399,1.9517860412597656,-0.4353490471839905
0.48573482036590576,1.9493112564086914,-0.43126311898231506
0.4975854754447937,1.9393320083618164,-0.42555543780326843
0.5093313455581665,1.9292652606964111,-0.41987279057502747
0.6464850902557373,2.3803789615631104,-0.5137028694152832
0.6756467223167419,2.4211201667785645,-0.5178037881851196
0.7064476609230042,2.4652881622314453,-0.5224524140357971
0.7379208207130432,2.509169578552246,-0.5268753170967102
0.777790904045105,2.578434705734253,-0.5364195704460144
0.8110318779945374,2.6216752529144287,-0.539958119392395
0.8561687469482422,2.701261043548584,-0.5507364869117737
0.9025251865386963,2.780388355255127,-0.5610818862915039
0.945219099521637,2.844484329223633,-0.5680971145629883
0.9752088785171509,2.8682379722595215,-0.5666525363922119
1.0345251560211182,2.9752185344696045,-0.5812421441078186
1.09457528591156,3.0778398513793945,-0.5943755507469177
1.1571847200393677,3.1835315227508545,-0.6077232956886292
1.2158575057983398,3.274228811264038,-0.6176067590713501
1.2935254573822021,3.4111640453338623,-0.6355199217796326
1.3607186079025269,3.514953374862671,-0.646679699420929
1.4640172719955444,3.703819990158081,-0.6726039052009583
1.568008303642273,3.8882224559783936,-0.6968339085578918
1.6407804489135742,3.9895944595336914,-0.7052945494651794
1.7255699634552002,4.115078926086426,-0.7174234986305237
1.7700613737106323,4.140209674835205,-0.7115620374679565
1.7998886108398438,4.129447937011719,-0.6991711258888245
1.8194353580474854,4.097605228424072,-0.6833230257034302
1.8355685472488403,4.05854606628418,-0.6663795709609985
1.5233206748962402,3.3066773414611816,-0.5343017578125
1.553259253501892,3.311448812484741,-0.5263350009918213
1.5734484195709229,3.2949864864349365,-0.514762818813324
1.589882731437683,3.2714953422546387,-0.5022531747817993
1.6166383028030396,3.26859188079834,-0.4928358495235443
1.6361202001571655,3.2517921924591064,-0.4812726676464081
1.6569501161575317,3.238426923751831,-0.4702148735523224
1.6761724948883057,3.2213237285614014,-0.4585440158843994
1.6922383308410645,3.196925163269043,-0.44565534591674805
1.7218254804611206,3.200207471847534,-0.4367293417453766
1.7364616394042969,3.1760776042938232,-0.4240732789039612
2.149193525314331,3.867382287979126,-0.5046221613883972
2.10988187789917,3.735409736633301,-0.47589486837387085
2.1398887634277344,3.72895884513855,-0.4632628262042999
2.1891238689422607,3.755974292755127,-0.45481088757514954
2.19612193107605,3.7084531784057617,-0.43694183230400085
2.22997784614563,3.7079572677612305,-0.4246959686279297
2.2593183517456055,3.7008304595947266,-0.4116310179233551
2.2775559425354004,3.6729278564453125,-0.39570778608322144
2.2952382564544678,3.645049810409546,-0.3799523413181305
2.3408217430114746,3.663691520690918,-0.3689771294593811
2.3448102474212646,3.6162736415863037,-0.3511398434638977
2.366271495819092,3.5943830013275146,-0.33545568585395813
2.412654161453247,3.61175799369812,-0.32312822341918945
2.419590950012207,3.5708553791046143,-0.3056775629520416
2.4405081272125244,3.548466205596924,-0.28925633430480957
2.5089893341064453,3.597132444381714,-0.27841851115226746
2.5015182495117188,3.536892890930176,-0.25891774892807007
2.50653076171875,3.4914474487304688,-0.2396523803472519
2.573115110397339,3.53588604927063,-0.22673091292381287
2.2494523525238037,3.048570394515991,-0.18109434843063354
2.7924280166625977,3.9597740173339844,0.6920772194862366
2.7688915729522705,3.9920287132263184,0.7117450833320618
2.71573543548584,3.9786922931671143,0.7227349281311035
2.7205631732940674,4.04714822769165,0.747981071472168
2.6716551780700684,4.039761543273926,0.7586535811424255
2.660162925720215,4.090525150299072,0.7801505327224731
2.6176745891571045,4.087709426879883,0.790461540222168
2.5917818546295166,4.110600471496582,0.8055745959281921
2.5627737045288086,4.135100841522217,0.8206573128700256
2.5402848720550537,4.168822765350342,0.8374450206756592
2.496293544769287,4.161427021026611,0.8451995253562927
2.4874184131622314,4.21342658996582,0.8650218844413757
2.4661500453948975,4.250108242034912,0.8812597393989563
2.4210095405578613,4.246892929077148,0.8894334435462952
2.416414499282837,4.308898448944092,0.9106358885765076
2.3519275188446045,4.263274669647217,0.9090496301651001
2.264659881591797,4.177445411682129,0.8980867266654968
2.2432305812835693,4.212834358215332,0.9129431247711182
2.212789297103882,4.230972766876221,0.9240896105766296
2.19997239112854,4.278661251068115,0.9413547515869141
2.1500749588012695,4.254619121551514,0.9428266882896423
2.1227989196777344,4.27906608581543,0.9543958902359009
2.106999635696411,4.327416896820068,0.9714157581329346
2.074522018432617,4.34100341796875,0.9806528091430664
2.046736001968384,4.360637187957764,0.9910264015197754
2.0330891609191895,4.411386966705322,1.0085195302963257
1.9857008457183838,4.393284797668457,1.0096341371536255
2.0021374225616455,4.518014430999756,1.0437346696853638
2.0128681659698486,4.6323723793029785,1.075652837753296
1.947935938835144,4.5710649490356445,1.0667483806610107
1.9493435621261597,4.663902282714844,1.0937848091125488
1.903475284576416,4.648024082183838,1.094841718673706
1.8660637140274048,4.653180122375488,1.1006746292114258
1.853716492652893,4.721954345703125,1.1216731071472168
1.811133623123169,4.712185859680176,1.124005913734436
1.788449764251709,4.751716613769531,1.1380445957183838
1.7492948770523071,4.748316764831543,1.1417590379714966
1.3372994661331177,3.712996482849121,0.8958145976066589
1.306087851524353,3.710749387741089,0.8983091711997986
1.2782979011535645,3.7191641330718994,0.9034697413444519
1.6350435018539429,4.866982936859131,1.1861995458602905
1.6030619144439697,4.884071350097656,1.194319725036621
1.5728683471679688,4.9083452224731445,1.204055666923523
2.3457748889923096,7.506316661834717,1.846253752708435
1.4982655048370361,4.9208855628967285,1.2136563062667847
1.4721100330352783,4.963074684143066,1.2273982763290405
1.4477386474609375,5.008450984954834,1.2419207096099854
1.4145088195800781,5.024462699890137,1.2492570877075195
1.0668864250183105,3.8937771320343018,0.9706758856773376
1.0406386852264404,3.9078197479248047,0.9761740565299988
1.0137099027633667,3.921800136566162,0.9817543029785156
0.9908588528633118,3.950197458267212,0.9909728169441223
0.955804705619812,3.9266843795776367,0.9871619939804077
0.9248382449150085,3.917609691619873,0.9869891405105591
0.909224808216095,3.974863290786743,1.0035990476608276
0.8860518932342529,4.006492614746094,1.0132904052734375
0.8549211025238037,4.000866889953613,1.013451337814331
0.8269789814949036,4.009853839874268,1.01736319065094
0.7977521419525146,4.011159420013428,1.0193618535995483
0.7718192338943481,4.027070045471191,1.0251009464263916
0.7445475459098816,4.039155006408691,1.0299537181854248
0.7201395034790039,4.065972805023193,1.0383788347244263
0.6936905384063721,4.085358619689941,1.0444642305374146
0.6700389385223389,4.1232590675354,1.0553499460220337
0.6418651342391968,4.134817123413086,1.0595568418502808
1.0811794996261597,7.307334899902344,1.8748269081115723
0.7609320282936096,5.401846408843994,1.3876692056655884
0.7192040681838989,5.376256465911865,1.3828836679458618
0.6861713528633118,5.41811466217041,1.3949198722839355
0.6523241996765137,5.459877967834473,1.4066632986068726
0.6146067380905151,5.471333980560303,1.4106749296188354
0.5772255659103394,5.4938812255859375,1.4176440238952637
0.43712589144706726,4.458029270172119,1.1513140201568604
0.40264737606048584,4.422860622406006,1.14324152469635
0.3642455041408539,4.334667205810547,1.1214879751205444
0.3338375985622406,4.336851596832275,1.1225062608718872
0.2975821793079376,4.263430595397949,1.1038824319839478
0.2631343603134155,4.193470478057861,1.0861896276474
0.2309960126876831,4.145901679992676,1.074336290359497
0.19996847212314606,4.101861953735352,1.0634346008300781
0.17082737386226654,4.087823390960693,1.060354232788086
0.13969524204730988,4.024467468261719,1.044532060623169
0.1106819435954094,3.991283416748047,1.0358730554580688
0.0820571556687355,3.9541170597076416,1.0262131690979004
0.05359165370464325,3.8902828693389893,1.0096818208694458
0.013293132185935974,1.9547141790390015,0.5073678493499756
-0.0010895492741838098,3.8527655601501465,1.000162959098816
-0.028242122381925583,3.897996425628662,1.0120881795883179
-0.05457909777760506,3.844750165939331,0.9984567761421204
-0.042209163308143616,1.9959152936935425,0.518118679523468
-0.20361284911632538,7.245532512664795,1.8802012205123901
-0.2542360723018646,7.251739501953125,1.8812390565872192
-0.2563187777996063,6.0825982093811035,1.577530860900879
-0.17767338454723358,3.618306875228882,0.9382187128067017
-0.20197533071041107,3.602001428604126,0.9338419437408447
-0.22560591995716095,3.5780022144317627,0.927436351776123
-0.5080206990242004,7.258900165557861,1.8801345825195312
-0.4872535765171051,6.324235439300537,1.6368763446807861
-0.5620365142822266,6.690589904785156,1.7305620908737183
-0.503796398639679,5.538007736206055,1.4315667152404785
-0.538557231426239,5.4971466064453125,1.420202374458313
-0.6755566000938416,6.434386730194092,1.6614800691604614
-0.7280516624450684,6.493954658508301,1.6757909059524536
-0.7672639489173889,6.4444780349731445,1.6611860990524292
-0.8054336905479431,6.39099645614624,1.6456502676010132
-0.842828631401062,6.337292194366455,1.6301641464233398
-0.8824466466903687,6.3020734786987305,1.6195197105407715
-0.9282486438751221,6.303914546966553,1.6184444427490234
-0.9819621443748474,6.361668586730957,1.6318153142929077
-1.0295926332473755,6.378016948699951,1.6341862678527832
-1.083888292312622,6.43534517288208,1.6464271545410156
-1.1358182430267334,6.47357702255249,1.6538147926330566
-1.1890021562576294,6.515136241912842,1.6620961427688599
-1.2456762790679932,6.563485145568848,1.6720783710479736
-1.3017430305480957,6.607760429382324,1.6810981035232544
-1.3562122583389282,6.640442371368408,1.687219262123108
-1.4128944873809814,6.6841349601745605,1.6954256296157837
-1.4536240100860596,6.653468608856201,1.6844366788864136
-1.4873924255371094,6.589070796966553,1.6649616956710815
-1.520447850227356,6.528346538543701,1.6465965509414673
-0.6806540489196777,2.8333499431610107,0.7133283615112305
-0.691322386264801,2.7922747135162354,0.7017301321029663
-0.7042391896247864,2.762218713760376,0.6929411888122559
-0.7243205904960632,2.761638641357422,0.6910984516143799
-0.7510059475898743,2.7866578102111816,0.695704460144043
-0.7740118503570557,2.796809196472168,0.6966047883033752
-1.761151909828186,6.1981353759765625,1.5401583909988403
-1.7982498407363892,6.165297031402588,1.5284090042114258
-1.8302054405212402,6.1138410568237305,1.512100100517273
-1.8611031770706177,6.066432476043701,1.4963206052780151
-1.8897185325622559,6.015494346618652,1.4794106483459473
-1.923612117767334,5.982507228851318,1.4670213460922241
-1.9550204277038574,5.942015171051025,1.4528694152832031
-1.9841655492782593,5.889986038208008,1.4358254671096802
-2.013209342956543,5.841623306274414,1.4198737144470215
-2.0473415851593018,5.811378002166748,1.4080595970153809
-2.076406478881836,5.770604133605957,1.3931884765625
-2.0970654487609863,5.708235263824463,1.3732432126998901
-2.131927967071533,5.684990882873535,1.3627957105636597
-2.167266368865967,5.6572699546813965,1.3511056900024414
-2.222503185272217,5.682812690734863,1.3522635698318481
-2.288848400115967,5.7365522384643555,1.3597369194030762
-2.336251735687256,5.744284152984619,1.3556816577911377
-2.36187744140625,5.698762893676758,1.339139699935913
-2.395604372024536,5.670276165008545,1.3265317678451538
-2.4554617404937744,5.700938701629639,1.327683925628662
-2.4958443641662598,5.685594081878662,1.3181486129760742
-2.524012565612793,5.646162033081055,1.3025227785110474
-2.562055826187134,5.631350040435791,1.292330265045166
-3.645479440689087,7.872101783752441,1.796945333480835
-3.7004034519195557,7.849809169769287,1.782145619392395
-2.641559362411499,5.504230499267578,1.2427209615707397
-3.8784749507904053,7.941075801849365,1.7827621698379517
-2.71374773979187,5.465386390686035,1.219253659248352
-2.716538667678833,5.380819797515869,1.1926673650741577
-4.130965709686279,8.048543930053711,1.77240788936615
-2.7579591274261475,5.282738208770752,1.1554372310638428
-2.8136088848114014,5.29932975769043,1.1511595249176025
-2.827275276184082,5.24243688583374,1.130164384841919
-2.862377882003784,5.225974082946777,1.1179863214492798
-4.576035499572754,8.222302436828613,1.7448571920394897
-1.2051098346710205,2.130323648452759,0.44830235838890076
-1.195357084274292,2.0794904232025146,0.43387478590011597
-2.9630231857299805,5.078493118286133,1.0497740507125854
-1.2485558986663818,2.1086056232452393,0.431781142950058
-2.9159727096557617,4.848106861114502,0.9826907515525818
-2.9468235969543457,4.823193550109863,0.9675188064575195
-2.959524631500244,4.772948741912842,0.9469738602638245
-2.987086057662964,4.749434947967529,0.9315787553787231
-3.0276741981506348,4.744795322418213,0.9196433424949646
-3.075011968612671,4.744874954223633,0.9077337384223938
-3.0633537769317627,4.65867805480957,0.8793848156929016
-3.072558641433716,4.60919713973999,0.8578824400901794
-3.0756640434265137,4.549582481384277,0.8343522548675537
-3.1086556911468506,4.530182838439941,0.8174683451652527
-3.173231601715088,4.559136390686035,0.8085792660713196
-2.8308334350585938,4.013504505157471,0.6993306279182434
-2.958146572113037,4.13472318649292,0.7065368294715881
-2.935314178466797,4.044413089752197,0.6768942475318909
-2.9407691955566406,4.000145435333252,0.6549049615859985
-2.949557065963745,3.9580371379852295,0.6326367855072021
-2.4550116062164307,3.469022512435913,-0.2603246867656708
-2.9136199951171875,4.179190158843994,-0.3331618905067444
-2.8681657314300537,4.180462837219238,-0.3526959717273712
-2.858884334564209,4.232152462005615,-0.3758505880832672
-2.834210157394409,4.260959625244141,-0.3965306282043457
-2.790926694869995,4.2642998695373535,-0.41487061977386475
-2.7558252811431885,4.27595329284668,-0.4329661726951599
-2.7599992752075195,4.349883079528809,-0.4573942720890045
-2.755340814590454,4.415095329284668,-0.4816441833972931
-2.7251665592193604,4.436313152313232,-0.5003986954689026
-2.7009775638580322,4.467182159423828,-0.5201015472412109
-1.2274028062820435,2.0639302730560303,-0.24773527681827545
-2.649920701980591,4.529369831085205,-0.5595420598983765
-2.6207876205444336,4.553032875061035,-0.5781359672546387
-2.5946784019470215,4.583559989929199,-0.5974119305610657
-2.5680670738220215,4.613977909088135,-0.6167770028114319
-2.5554397106170654,4.66738748550415,-0.6388422846794128
-2.5215604305267334,4.6834187507629395,-0.6559101343154907
-2.4898102283477783,4.706690788269043,-0.6742470860481262
-1.104386329650879,2.1240086555480957,-0.31083032488822937
-1.078557014465332,2.110088348388672,-0.3151659369468689
-1.0700758695602417,2.1306378841400146,-0.3245910406112671
-1.061203956604004,2.1512086391448975,-0.3341044485569
-1.0453767776489258,2.1577887535095215,-0.3414863348007202
-1.0298845767974854,2.1640782356262207,-0.348686546087265
-1.03038489818573,2.2054035663604736,-0.3615454137325287
-1.0174176692962646,2.2187211513519287,-0.36995193362236023
-0.9983523488044739,2.21771240234375,-0.375841349363327
-0.9887052774429321,2.2377140522003174,-0.3853045105934143
-0.9828593134880066,2.268508195877075,-0.39674142003059387
-0.9663601517677307,2.274345636367798,-0.40378981828689575
-0.9619367122650146,2.3084113597869873,-0.41585075855255127
-0.9278780221939087,2.2711970806121826,-0.4150290787220001
-1.56240975856781,3.9027788639068604,-0.7230138182640076
-1.2990907430648804,3.3137311935424805,-0.6223747730255127
-1.2726413011550903,3.3139233589172363,-0.6306344270706177
-1.2516402006149292,3.3283040523529053,-0.641554057598114
-1.2077491283416748,3.28133487701416,-0.640302300453186
-1.1411691904067993,3.16890549659729,-0.6258982419967651
-1.081162929534912,3.070340871810913,-0.6137987971305847
-1.0217376947402954,2.967466115951538,-0.6001816987991333
-0.9674130082130432,2.874993085861206,-0.587929368019104
-0.9240168929100037,2.811121940612793,-0.5811876654624939
-0.863045871257782,2.6884238719940186,-0.5618093609809875
-0.819542646408081,2.61637544631958,-0.5526649951934814
-0.7818617224693298,2.558561325073242,-0.545815646648407
-0.7505049109458923,2.5187289714813232,-0.5426074266433716
-0.7102080583572388,2.445554494857788,-0.5319736003875732
-0.6751458644866943,2.386716842651367,-0.5241922736167908
-0.4969289302825928,1.804659128189087,-0.39987796545028687
-0.48188960552215576,1.7999006509780884,-0.4024044871330261
-0.4672180712223053,1.7949661016464233,-0.40480712056159973
-0.4489103853702545,1.7751184701919556,-0.4038051962852478
-0.4400111734867096,1.7922028303146362,-0.4109279215335846
-0.42028507590293884,1.7647497653961182,-0.4077922999858856
-0.41445237398147583,1.7965551614761353,-0.4184274971485138
-0.3967876434326172,1.7762700319290161,-0.41690894961357117
-0.3842581510543823,1.77821946144104,-0.4203214943408966
-0.3662950098514557,1.7540231943130493,-0.4174392521381378
-0.35620495676994324,1.766958475112915,-0.42339059710502625
-0.3399316072463989,1.7500001192092896,-0.4222380518913269
-0.32765433192253113,1.751610279083252,-0.42525574564933777
-0.31674471497535706,1.7606340646743774,-0.4299594759941101
-0.30631905794143677,1.7733272314071655,-0.4356176555156708
-0.2938443720340729,1.774716854095459,-0.43854209780693054
-0.2823479175567627,1.7835814952850342,-0.4431612491607666
-0.2675822675228119,1.7698884010314941,-0.4419378638267517
-0.25519704818725586,1.7710916996002197,-0.44443508982658386
-0.24022284150123596,1.7534327507019043,-0.44219955801963806
-0.2270050346851349,1.7469755411148071,-0.44257980585098267
-0.21299174427986145,1.7329635620117188,-0.4407774806022644
-0.1980922371149063,1.7113423347473145,-0.43705540895462036
-0.1853151172399521,1.7046504020690918,-0.4371112287044525
-0.1715204119682312,1.6866084337234497,-0.43408796191215515
-0.15836110711097717,1.672306776046753,-0.43170392513275146
-0.14673076570034027,1.6729819774627686,-0.4331953227519989
-0.1363670974969864,1.692433476448059,-0.4396139085292816
-0.12428666651248932,1.6892108917236328,-0.4400216341018677
-0.1105252057313919,1.659587025642395,-0.43319329619407654
-0.0985315665602684,1.652501106262207,-0.4322485029697418
-0.08782228827476501,1.667973279953003,-0.43723049759864807
-0.0756848007440567,1.6607533693313599,-0.43620097637176514
-0.06416403502225876,1.6610915660858154,-0.43675997853279114
-0.05358738452196121,1.6915563344955444,-0.4452708065509796
-0.040897905826568604,1.653975486755371,-0.4358893036842346
-0.02966279163956642,1.6691957712173462,-0.44036775827407837
-0.017296651378273964,1.6164665222167969,-0.4265012741088867
-0.006120229605585337,1.631633996963501,-0.4305684268474579
0.00527862599119544,1.6542772054672241,-0.4366307258605957
0.017080409452319145,1.6844033002853394,-0.444646954536438
0.028015490621328354,1.6390312910079956,-0.43229174613952637
0.039955057203769684,1.661557674407959,-0.4378710389137268
0.050061192363500595,1.6084791421890259,-0.4235476553440094
0.05880109965801239,1.5440212488174438,-0.4062589406967163
0.06921575963497162,1.5362379550933838,-0.4034664034843445
0.07873938977718353,1.5132873058319092,-0.3967243731021881
0.08904910087585449,1.509137511253357,-0.39494359493255615
0.09873802959918976,1.4935929775238037,-0.39019694924354553
0.11026842892169952,1.5082621574401855,-0.3929283916950226
0.11898874491453171,1.4851545095443726,-0.38583818078041077
0.12934044003486633,1.4845986366271973,-0.38464415073394775
0.13969004154205322,1.4839696884155273,-0.38344985246658325
0.14872731268405914,1.468288540840149,-0.3779819905757904
0.16927191615104675,1.4668736457824707,-0.3748205602169037
0.17951400578022003,1.4660580158233643,-0.3732432723045349
0.19271858036518097,1.487786889076233,-0.37705716490745544
0.22696714103221893,1.659601092338562,-0.41860225796699524
0.24992278218269348,1.7373257875442505,-0.4361756443977356
0.26718491315841675,1.7698595523834229,-0.4422934949398041
0.27961137890815735,1.7686086893081665,-0.4396074712276459
0.2957698404788971,1.7897521257400513,-0.44237619638442993
0.31219977140426636,1.810772180557251,-0.445081889629364
0.3264632523059845,1.816683292388916,-0.4440140426158905
0.34970995783805847,1.8711272478103638,-0.45448553562164307
0.3672214150428772,1.8918213844299316,-0.4565266966819763
0.383539080619812,1.9049185514450073,-0.4566984474658966
0.40857449173927307,1.9588546752929688,-0.4665795564651489
0.42423155903816223,1.964219570159912,-0.4645156264305115
0.441406786441803,1.9769693613052368,-0.46406465768814087
0.45535746216773987,1.9747323989868164,-0.46009281277656555
0.4622252285480499,1.9427317380905151,-0.4492643177509308
0.47592705488204956,1.9403587579727173,-0.4451949894428253
0.48987266421318054,1.9378777742385864,-0.4408532977104187
0.5055002570152283,1.9427173137664795,-0.4382464587688446
0.5478863716125488,2.0470120906829834,-0.4578755795955658
0.6201450824737549,2.254047155380249,-0.4997791349887848
0.648588240146637,2.2949094772338867,-0.5041134357452393
0.6832410097122192,2.3538146018981934,-0.5121375322341919
0.7043119668960571,2.3647868633270264,-0.5096728205680847
0.7445671558380127,2.4378254413604736,-0.5203401446342468
0.7801263928413391,2.4922735691070557,-0.5265027284622192
0.8176774382591248,2.5500285625457764,-0.5331207513809204
0.8540325164794922,2.6000540256500244,-0.5377889275550842
0.9128209352493286,2.7152483463287354,-0.5556312799453735
0.9582022428512573,2.7863998413085938,-0.563758909702301
0.9918949604034424,2.820895195007324,-0.5642299652099609
1.0392522811889648,2.891174077987671,-0.5715716481208801
1.1168169975280762,3.0403201580047607,-0.5939837098121643
1.1724473237991333,3.1238739490509033,-0.602591872215271
1.235815167427063,3.2249341011047363,-0.6142551302909851
1.3050106763839722,3.3360469341278076,-0.6272647976875305
1.4001027345657349,3.5072131156921387,-0.6508708596229553
1.4916211366653442,3.6632399559020996,-0.6705420613288879
1.60506272315979,3.864400625228882,-0.697377622127533
1.6791269779205322,3.965000867843628,-0.705354630947113
1.7685036659240723,4.096670627593994,-0.7182263135910034
1.8097082376480103,4.114582061767578,-0.7104796171188354
1.8354008197784424,4.096909523010254,-0.6965633630752563
1.858688235282898,4.0716400146484375,-0.6810774803161621
1.8812612295150757,4.046367168426514,-0.6658660173416138
1.5607779026031494,3.298020839691162,-0.5335602760314941
1.5838987827301025,3.288693428039551,-0.5228914618492126
1.6039307117462158,3.272068500518799,-0.5109549164772034
1.6224524974822998,3.2516653537750244,-0.49831125140190125
1.645100712776184,3.24192476272583,-0.48740482330322266
1.667719841003418,3.2319774627685547,-0.476472944021225
1.6962300539016724,3.2318801879882812,-0.46674925088882446
1.7063558101654053,3.1974313259124756,-0.45210519433021545
1.732223391532898,3.19388747215271,-0.441847026348114
1.7474933862686157,3.16943097114563,-0.4284639358520508
1.8498191833496094,3.3005635738372803,-0.43569982051849365
2.1341445446014404,3.7478842735290527,-0.4827365279197693
2.1560754776000977,3.728091239929199,-0.46815773844718933
2.186289072036743,3.7212119102478027,-0.4549373686313629
2.2172374725341797,3.7136616706848145,-0.44123730063438416
2.2345690727233887,3.686756134033203,-0.4254707992076874
2.2599165439605713,3.6728992462158203,-0.41119828820228577
2.306689977645874,3.691295862197876,-0.3999722898006439
2.3113341331481934,3.643977165222168,-0.3816539943218231
2.332200288772583,3.622947931289673,-0.3660048246383667
2.3705737590789795,3.6274256706237793,-0.35253140330314636
2.383005142211914,3.5927464962005615,-0.33515316247940063
2.4027698040008545,3.571582078933716,-0.31915682554244995
2.458390474319458,3.6011831760406494,-0.30701369047164917
2.466259717941284,3.55932354927063,-0.28813377022743225
2.4853498935699463,3.5377824306488037,-0.27134183049201965
2.527960777282715,3.547116756439209,-0.25612857937812805
2.525028944015503,3.4928338527679443,-0.23601549863815308
2.566283702850342,3.5025370121002197,-0.2203088402748108
2.1717307567596436,2.921919822692871,-0.16905559599399567
2.808366060256958,3.954484701156616,0.7128147482872009
2.7861721515655518,3.985771656036377,0.7329958081245422
2.7447235584259033,3.9924070835113525,0.7484334111213684
2.7238757610321045,4.0222930908203125,0.7668622136116028
2.702178955078125,4.052419185638428,0.7851588726043701
2.6484007835388184,4.0387139320373535,0.7944806814193726
2.6291399002075195,4.075807094573975,0.8135338425636292
2.611809492111206,4.111495494842529,0.8315973281860352
2.567972421646118,4.108980178833008,0.8415563106536865
2.5474483966827393,4.146015167236328,0.8593961596488953
2.5220818519592285,4.172237873077393,0.8746317028999329
2.4991509914398193,4.201197624206543,0.8903139233589172
2.4633877277374268,4.210721492767334,0.9013581871986389
2.4342942237854004,4.2338361740112305,0.9150519967079163
2.4133360385894775,4.269689559936523,0.9313942193984985
2.3862810134887695,4.291162967681885,0.9442368149757385
2.2881436347961426,4.185110569000244,0.9288559556007385
2.2576584815979004,4.2036237716674805,0.9402284622192383
2.2324116230010986,4.232038974761963,0.9538924694061279
2.2049431800842285,4.252758979797363,0.9655488133430481
2.1673808097839355,4.2525858879089355,0.9723829030990601
2.152499198913574,4.300705909729004,0.9901074171066284
2.1129441261291504,4.301060199737549,0.9963856935501099
2.0933806896209717,4.342400550842285,1.0122442245483398
2.0800137519836426,4.39327335357666,1.0301319360733032
2.0485897064208984,4.40590763092041,1.039103627204895
2.010119676589966,4.404746055603027,1.0445469617843628
1.976342797279358,4.417983055114746,1.053063154220581
2.0089352130889893,4.580986022949219,1.097428560256958
1.9665546417236328,4.57243537902832,1.1007235050201416
1.9369302988052368,4.591378211975098,1.1105680465698242
1.9348405599594116,4.677019119262695,1.136678695678711
1.8879190683364868,4.661403179168701,1.137540578842163
1.8671867847442627,4.708889007568359,1.1537964344024658
1.8377286195755005,4.734939098358154,1.1648930311203003
1.816316843032837,4.7780632972717285,1.18008553981781
1.7545658349990845,4.714109897613525,1.168849229812622
1.350544810295105,3.7099874019622803,0.923316240310669
1.3167871236801147,3.7006542682647705,0.9239658117294312
1.2907280921936035,3.712575912475586,0.9299608469009399
1.635129451751709,4.814503192901611,1.209903597831726
1.6047674417495728,4.835132122039795,1.2189383506774902
1.5934711694717407,4.917149543762207,1.2436493635177612
1.5663055181503296,4.952212333679199,1.2561628818511963
1.5256497859954834,4.947559356689453,1.2581593990325928
1.1564891338348389,3.8486599922180176,0.9812201261520386
1.1307306289672852,3.8630990982055664,0.9874473810195923
1.1076769828796387,3.88446307182312,0.9954383969306946
1.079844355583191,3.891179084777832,0.9997797608375549
1.0443826913833618,3.8683881759643555,0.9963456392288208
1.0163416862487793,3.8749160766601562,0.9999712109565735
0.9920442700386047,3.8959152698516846,1.0073881149291992
0.9674507975578308,3.916764736175537,1.0148372650146484
0.9412017464637756,3.9300100803375244,1.0203542709350586
0.9187770485877991,3.9577202796936035,1.0296530723571777
0.8926875591278076,3.970520496368408,1.0351392030715942
0.8699533343315125,4.001896381378174,1.0449098348617554
0.8357877731323242,3.981339454650879,1.0410735607147217
0.8120054006576538,4.012506008148193,1.0508428812026978
0.7863957285881042,4.0322585105896,1.0576516389846802
0.7553865313529968,4.022035121917725,1.0566253662109375
0.7299826741218567,4.041342258453369,1.063406229019165
0.929603099822998,5.360691547393799,1.4126274585723877
0.8870460987091064,5.344123363494873,1.409698247909546
0.8448185920715332,5.3234052658081055,1.4057095050811768
0.8080234527587891,5.335994243621826,1.4105823040008545
0.7732827067375183,5.359474182128906,1.4183884859085083
0.7349129915237427,5.356489181518555,1.4192522764205933
0.6968963742256165,5.360800266265869,1.4221488237380981
0.6619774699211121,5.387441635131836,1.4304500818252563
0.5097140669822693,4.404719829559326,1.170238971710205
0.475785493850708,4.3815016746521,1.164839267730713
0.4471126198768616,4.406874179840088,1.1724166870117188
0.4181232154369354,4.42826509475708,1.178990364074707
0.37754130363464355,4.325377464294434,1.1525291204452515
0.3473533093929291,4.32749605178833,1.1540675163269043
0.31647375226020813,4.322027206420898,1.153059482574463
0.27983734011650085,4.229769229888916,1.128735065460205
0.24567840993404388,4.156061172485352,1.109403371810913
0.214227557182312,4.123577117919922,1.1011285781860352
0.185573548078537,4.124764442443848,1.1018848419189453
0.15280257165431976,4.016384124755859,1.0734106302261353
0.1238420307636261,3.9832043647766113,1.065069556236267
0.09482421725988388,3.9311025142669678,1.051135540008545
0.06637080758810043,3.8977012634277344,1.0421150922775269
0.01983639970421791,1.9697811603546143,0.5266350507736206
0.011820494197309017,3.811422348022461,1.01902437210083
-0.01466470118612051,3.803849935531616,1.0170626640319824
-0.04067177698016167,3.765907049179077,1.0070279836654663
-0.06759575754404068,3.780601978302002,1.0111209154129028
-0.05055089294910431,2.037219524383545,0.5446497201919556
-0.11836210638284683,3.726781129837036,0.9959254860877991
-0.27736780047416687,7.165432929992676,1.9141225814819336
-0.1656193882226944,3.627060651779175,0.9685840010643005
-0.1900477111339569,3.610896110534668,0.9639914631843567
-0.2146955132484436,3.5945427417755127,0.9593937993049622
-0.2439633160829544,3.6571409702301025,0.9759171605110168
-0.46666309237480164,6.3362321853637695,1.6895980834960938
-0.5452983379364014,6.766168594360352,1.8028568029403687
-0.584455132484436,6.676313400268555,1.77763032913208
-0.6197126507759094,6.548565864562988,1.742416262626648
-0.655713677406311,6.450740337371826,1.7153018712997437
-0.7054805755615234,6.491636753082275,1.7251663208007812
-0.7462969422340393,6.449615001678467,1.713077187538147
-0.7878103852272034,6.42266845703125,1.7039965391159058
-0.8293077349662781,6.391631603240967,1.693819522857666
-0.8624853491783142,6.307999610900879,1.669848918914795
-0.9059918522834778,6.302726745605469,1.6667170524597168
-0.956118106842041,6.338201999664307,1.674412488937378
-1.0085519552230835,6.38449239730835,1.6850223541259766
-1.059297800064087,6.411642551422119,1.690518856048584
-1.1109272241592407,6.450071811676025,1.6980162858963013
-1.16379976272583,6.491827487945557,1.7064318656921387
-1.2200673818588257,6.548046112060547,1.7186859846115112
-1.2725170850753784,6.5777506828308105,1.724002718925476
-1.3280560970306396,6.6181135177612305,1.7321432828903198
-1.3888534307479858,6.67641544342041,1.7449827194213867
-1.438346028327942,6.682697772979736,1.7439384460449219
-1.4740544557571411,6.629849910736084,1.7267554998397827
-1.4997923374176025,6.53620719909668,1.6990928649902344
-0.6662359237670898,2.815822124481201,0.7305958867073059
-0.6843599081039429,2.8043150901794434,0.7262173891067505
-0.7021294832229614,2.7927372455596924,0.7218791246414185
-0.7159717679023743,2.766367197036743,0.7137666940689087
-0.7388610243797302,2.7767341136932373,0.7148312330245972
-0.7637909054756165,2.7943077087402344,0.7176080942153931
-1.7487092018127441,6.229360103607178,1.5958770513534546
-1.7788046598434448,6.175128936767578,1.5782281160354614
-1.8178683519363403,6.149598598480225,1.5679348707199097
-1.8488823175430298,6.098403453826904,1.551214337348938
-1.882368564605713,6.058069229125977,1.5371084213256836
-1.9138158559799194,6.014256954193115,1.5213547945022583
-1.9405065774917603,5.959635257720947,1.5030752420425415
-1.9714075326919556,5.919296741485596,1.4885143041610718
-2.001829147338867,5.874835014343262,1.472901701927185
-2.0307226181030273,5.826543807983398,1.4564257860183716
-2.065411329269409,5.796019077301025,1.444502353668213
-2.089752435684204,5.7408223152160645,1.4254496097564697
-2.1180171966552734,5.700021743774414,1.4101988077163696
-2.1472294330596924,5.662611961364746,1.3958919048309326
-2.199131965637207,5.681483268737793,1.3953717947006226
-2.256012201309204,5.710402011871338,1.3972663879394531
-2.3240818977355957,5.763309478759766,1.4049005508422852
-2.354283094406128,5.72861909866333,1.3903297185897827
-2.384115219116211,5.69375467300415,1.375825047492981
-2.403103828430176,5.634162425994873,1.3554787635803223
-2.4625489711761475,5.664895057678223,1.3566722869873047
-2.518866539001465,5.684250831604004,1.3549728393554688
-2.549245595932007,5.647970676422119,1.3399219512939453
-2.58406662940979,5.626224517822266,1.3277114629745483
-2.597727060317993,5.559222221374512,1.3049451112747192
-2.632449150085449,5.536892890930176,1.2927018404006958
-2.657616138458252,5.489273548126221,1.2742424011230469
