X,Y,Z
-1.2453944683074951,2.6060848236083984,0.24135707318782806
-1.2601375579833984,2.590587615966797,0.23795533180236816
-1.2692654132843018,2.5646800994873047,0.23358161747455597
-1.282979130744934,2.5493953227996826,0.23005904257297516
-1.2891607284545898,2.520315170288086,0.22536100447177887
-1.2992907762527466,2.497823715209961,0.2212052196264267
-1.3094356060028076,2.4751710891723633,0.21703647077083588
-1.3185304403305054,2.452928066253662,0.21282832324504852
-1.330910086631775,2.4376213550567627,0.20922745764255524
-1.3381342887878418,2.4116790294647217,0.2046518176794052
-1.351148009300232,2.3957386016845703,0.20090892910957336
-1.36336088180542,2.380100965499878,0.1971459686756134
-1.3710681200027466,2.3579227924346924,0.1928168386220932
-1.37882399559021,2.335578441619873,0.1884651929140091
-1.4234850406646729,2.3727691173553467,0.1887136548757553
-1.4190442562103271,2.330188751220703,0.1825942099094391
-1.4259531497955322,2.3079309463500977,0.1780855506658554
-1.43728506565094,2.29196834564209,0.17399893701076508
-1.457506775856018,2.288693428039551,0.17075872421264648
-1.457797646522522,2.256366014480591,0.1652451604604721
-1.4680331945419312,2.2406742572784424,0.1610395610332489
-1.4749634265899658,2.217695474624634,0.15609797835350037
-1.4636446237564087,2.1692309379577637,0.14937908947467804
-1.4730724096298218,2.153667449951172,0.1449585109949112
-1.4767874479293823,2.12770938873291,0.13961076736450195
-1.4865975379943848,2.111612319946289,0.1348808854818344
-1.5043679475784302,2.108853340148926,0.13096928596496582
-1.5049248933792114,2.079914093017578,0.12516115605831146
-1.5186048746109009,2.0702295303344727,0.1203935295343399
-1.5175164937973022,2.0422024726867676,0.11456479877233505
-1.489693284034729,2.1023976802825928,-0.08640865236520767
-1.482425332069397,2.126370668411255,-0.09220235049724579
-1.46312415599823,2.130021095275879,-0.09669684618711472
-1.4882670640945435,2.202402114868164,-0.10448811948299408
-1.4720970392227173,2.213013172149658,-0.10924554616212845
-1.4562515020370483,2.223242998123169,-0.11380833387374878
-1.4521095752716064,2.253617286682129,-0.11942872405052185
-1.4400278329849243,2.2703664302825928,-0.12419209629297256
-1.429651141166687,2.290482521057129,-0.12912295758724213
-1.4206757545471191,2.31414532661438,-0.13421137630939484
-1.3999947309494019,2.317359685897827,-0.1379874348640442
-1.3994591236114502,2.35381817817688,-0.14368493854999542
-1.385903000831604,2.3706133365631104,-0.1482025533914566
-1.3722858428955078,2.387266159057617,-0.1527165323495865
-1.3632144927978516,2.410144805908203,-0.15749332308769226
-1.3303606510162354,2.392545700073242,-0.15955324470996857
-1.327673077583313,2.429389238357544,-0.16525015234947205
-1.310629963874817,2.43837308883667,-0.16893918812274933
-1.2983553409576416,2.4579055309295654,-0.17340297996997833
-1.2911022901535034,2.487844705581665,-0.17855627834796906
-1.2802844047546387,2.5106818675994873,-0.18319374322891235
-1.269670009613037,2.533257007598877,-0.1877771019935608
-1.2651582956314087,2.5700488090515137,-0.19339808821678162
-1.2291491031646729,2.5439798831939697,-0.19431951642036438
-1.1826601028442383,2.4925312995910645,-0.19309085607528687
-1.1717578172683716,2.51462459564209,-0.1974828690290451
-1.177861213684082,2.5759198665618896,-0.20492412149906158
-1.1655452251434326,2.598341703414917,-0.20934849977493286
-1.1769870519638062,2.67398738861084,-0.2180860936641693
-1.131679654121399,2.6212317943573,-0.21638993918895721
-1.1157804727554321,2.6362433433532715,-0.22007694840431213
-1.0967501401901245,2.6439578533172607,-0.22316889464855194
-1.1279627084732056,2.774013042449951,-0.2366548627614975
-1.125910997390747,2.8249404430389404,-0.2435227483510971
-1.1124367713928223,2.8509106636047363,-0.24821703135967255
-1.094773292541504,2.8658089637756348,-0.25191956758499146
-1.0826661586761475,2.895087242126465,-0.2568928599357605
-1.0851359367370605,2.9644603729248047,-0.26548027992248535
-1.069277048110962,2.9864909648895264,-0.2697908580303192
-1.0552088022232056,3.0159695148468018,-0.2747921049594879
-1.043799638748169,3.052588939666748,-0.28044334053993225
-1.0150580406188965,3.03739070892334,-0.2813112139701843
-1.0021588802337646,3.0700724124908447,-0.28655385971069336
-0.9767500758171082,3.065749168395996,-0.28821927309036255
-0.9625870585441589,3.098494052886963,-0.29343366622924805
-0.945400059223175,3.1197896003723145,-0.29753246903419495
-0.9301902651786804,3.148444652557373,-0.30237025022506714
-0.9121426343917847,3.169671058654785,-0.30632805824279785
-0.8854117393493652,3.160846471786499,-0.3073766827583313
-0.8712741732597351,3.196789026260376,-0.31279027462005615
-0.8516152501106262,3.2139062881469727,-0.31640884280204773
-0.8290968537330627,3.2195537090301514,-0.31879091262817383
-0.8138512969017029,3.2552907466888428,-0.32403913140296936
-0.7963349223136902,3.283402681350708,-0.3285703659057617
-0.7795925140380859,3.3151543140411377,-0.33348995447158813
-0.35385942459106445,1.5540543794631958,-0.15716521441936493
-0.3512691855430603,1.5943723917007446,-0.1619795560836792
-0.33999279141426086,1.5967175960540771,-0.16293656826019287
-0.32560908794403076,1.5837464332580566,-0.16232933104038239
-0.31152787804603577,1.5706344842910767,-0.1616951823234558
-0.2966935634613037,1.553631067276001,-0.16064395010471344
-0.2857338786125183,1.555602788925171,-0.1614285111427307
-0.27474817633628845,1.5574989318847656,-0.16221393644809723
-0.2612472176551819,1.5439778566360474,-0.1613910049200058
-0.2492554634809494,1.5380070209503174,-0.16135293245315552
-0.2406967580318451,1.555022954940796,-0.16368170082569122
-0.2252490520477295,1.5258581638336182,-0.1610657125711441
-0.21238403022289276,1.5119458436965942,-0.16005384922027588
-0.20593784749507904,1.5441322326660156,-0.16393236815929413
-0.19322523474693298,1.5300480127334595,-0.162910595536232
-0.1797514408826828,1.5081651210784912,-0.1609552651643753
-0.167262464761734,1.4939172267913818,-0.15977515280246735
-0.15759040415287018,1.5027306079864502,-0.16106204688549042
-0.14640380442142487,1.4960075616836548,-0.16068780422210693
-0.13495413959026337,1.4853355884552002,-0.15989302098751068
-0.11434093862771988,1.4908908605575562,-0.1609479933977127
-0.10448887944221497,1.4993667602539062,-0.1620951145887375
-0.09549619257450104,1.5232810974121094,-0.16492405533790588
-0.08294573426246643,1.4889782667160034,-0.16144292056560516
-0.07387558370828629,1.516655683517456,-0.1645498424768448
-0.06374330073595047,1.5326446294784546,-0.16640186309814453
-0.05386549234390259,1.5563204288482666,-0.1690974086523056
-0.03094325214624405,1.4947662353515625,-0.16263525187969208
-0.020856983959674835,1.5182416439056396,-0.16518528759479523
-0.010314501821994781,1.5494154691696167,-0.1685810685157776
0.0004655174561776221,1.572748064994812,-0.17113211750984192
0.011331059969961643,1.5649386644363403,-0.17030291259288788
0.021878935396671295,1.5415295362472534,-0.16772089898586273
0.03479438275098801,1.6461833715438843,-0.17898014187812805
0.04448961094021797,1.5838077068328857,-0.17208407819271088
0.05759404972195625,1.6378040313720703,-0.177839457988739
0.06768140196800232,1.6063393354415894,-0.17432373762130737
0.08112997561693192,1.6524014472961426,-0.17913971841335297
0.09411013126373291,1.678975224494934,-0.18177099525928497
0.10527873039245605,1.670562982559204,-0.18062014877796173
0.12605378031730652,1.7976620197296143,-0.19410830736160278
0.13617612421512604,1.7657982110977173,-0.19043147563934326
0.15232183039188385,1.8113038539886475,-0.19498126208782196
0.16768136620521545,1.8412048816680908,-0.1977948248386383
0.3760218322277069,3.8347368240356445,-0.4111284911632538
0.4031856656074524,3.832094669342041,-0.41002094745635986
0.4289492070674896,3.821594715118408,-0.4081099033355713
0.45449092984199524,3.8109664916992188,-0.40589243173599243
0.4798899292945862,3.800172805786133,-0.4036414623260498
0.5051612257957458,3.7892091274261475,-0.401396244764328
0.5319534540176392,3.7856955528259277,-0.3999387323856354
0.5571276545524597,3.774372100830078,-0.397666871547699
0.589119553565979,3.809018611907959,-0.39992499351501465
0.35795658826828003,2.2132179737091064,-0.231575608253479
0.3771524727344513,2.2337849140167236,-0.23292818665504456
0.3886789083480835,2.2082486152648926,-0.2294788360595703
0.40287891030311584,2.1979176998138428,-0.22755932807922363
0.4180341362953186,2.1952133178710938,-0.22632542252540588
0.4331890344619751,2.1924002170562744,-0.22508995234966278
0.4468373656272888,2.181852102279663,-0.2230699211359024
0.46525153517723083,2.1940231323242188,-0.22337689995765686
0.4806942045688629,2.190831422805786,-0.22199970483779907
0.49233514070510864,2.17244815826416,-0.21904027462005615
0.5143694877624512,2.1994330883026123,-0.220658078789711
0.526021420955658,2.180826425552368,-0.21769316494464874
0.5374568104743958,2.1621580123901367,-0.21474654972553253
0.5525903105735779,2.158498764038086,-0.21314571797847748
0.5753194689750671,2.1848948001861572,-0.2145102322101593
0.5985075235366821,2.211063861846924,-0.21582263708114624
1.193452000617981,4.290338039398193,-0.41632547974586487
1.2232378721237183,4.282260417938232,-0.4130207598209381
1.2465448379516602,4.251562595367432,-0.4072938859462738
1.2757030725479126,4.243239879608154,-0.4037914574146271
1.3028135299682617,4.227189064025879,-0.3995497524738312
1.3323051929473877,4.218322277069092,-0.395992636680603
1.358910322189331,4.201998710632324,-0.3915674686431885
1.3869037628173828,4.1891021728515625,-0.3873596787452698
1.4106818437576294,4.165075778961182,-0.382191002368927
1.4371590614318848,4.148129940032959,-0.3776630759239197
1.4659091234207153,4.1384124755859375,-0.37375736236572266
1.4914560317993164,4.121362686157227,-0.3690289258956909
1.5195363759994507,4.11145544052124,-0.3649628460407257
1.545792579650879,4.0937066078186035,-0.3601112365722656
1.5715640783309937,4.075902462005615,-0.35531923174858093
1.5936901569366455,4.050944805145264,-0.3497457504272461
1.6270546913146973,4.054821014404297,-0.34664857387542725
1.6460641622543335,4.022279739379883,-0.34042710065841675
1.6745883226394653,4.010868072509766,-0.3359183967113495
1.752375602722168,4.117940902709961,-0.3411904275417328
2.0033395290374756,4.621002674102783,-0.37862810492515564
2.042663335800171,4.625493049621582,-0.37471485137939453
2.0749754905700684,4.6115336418151855,-0.3691956698894501
2.107288360595703,4.5973100662231445,-0.36351698637008667
2.1367063522338867,4.57985782623291,-0.3575778007507324
2.164405345916748,4.558647155761719,-0.35135817527770996
2.196216583251953,4.5438551902771,-0.34552156925201416
2.223985195159912,4.522087574005127,-0.33912235498428345
2.2548742294311523,4.50721549987793,-0.3330840766429901
2.281825542449951,4.485324859619141,-0.326598197221756
2.32389760017395,4.490471839904785,-0.32192227244377136
2.3636600971221924,4.492153167724609,-0.3169098496437073
1.717146873474121,3.211362838745117,-0.22282721102237701
1.7426789999008179,3.2067739963531494,-0.21871474385261536
1.7371430397033691,3.1434309482574463,-0.21048955619335175
1.7544201612472534,3.1251888275146484,-0.2053842693567276
1.7887028455734253,3.1374640464782715,-0.20225392282009125
1.3762863874435425,2.3760924339294434,-0.15006855130195618
0.9554963111877441,1.6237787008285522,-0.10038455575704575
0.9524022340774536,1.5940276384353638,-0.09633976221084595
0.9630671143531799,1.5877612829208374,-0.09376071393489838
0.9741355180740356,1.5811517238616943,-0.09107282012701035
0.9846238493919373,1.574794888496399,-0.08838842809200287
0.9949416518211365,1.5684454441070557,-0.0857047438621521
1.0123943090438843,1.5713390111923218,-0.08332350105047226
1.0207716226577759,1.5613996982574463,-0.0802856907248497
1.030937671661377,1.5548510551452637,-0.07742535322904587
1.0416920185089111,1.5478156805038452,-0.0743856281042099
1.0541878938674927,1.5442053079605103,-0.07148194313049316
2.548552989959717,3.6813948154449463,-0.16374023258686066
2.5741817951202393,3.6638638973236084,-0.15584275126457214
2.6023592948913574,3.653822183609009,-0.14824515581130981
2.6354613304138184,3.6496224403381348,-0.14062096178531647
2.669367790222168,3.6445975303649902,-0.1324634552001953
2.722421646118164,3.668853759765625,-0.1252606064081192
2.6456456184387207,3.7111427783966064,0.21067588031291962
2.6004490852355957,3.7044060230255127,0.21740517020225525
2.589099884033203,3.7498509883880615,0.22712497413158417
1.0596531629562378,1.5580226182937622,0.09699714183807373
1.0522581338882446,1.5722311735153198,0.100450299680233
1.040112853050232,1.5800968408584595,0.1034807413816452
1.0287981033325195,1.5873013734817505,0.10628994554281235
1.016930103302002,1.5947457551956177,0.10903289914131165
0.9922648668289185,1.5824719667434692,0.11038496345281601
0.9810484647750854,1.5892746448516846,0.11288022994995117
0.9735658168792725,1.6028236150741577,0.11582313477993011
0.9551975727081299,1.600050926208496,0.11757462471723557
0.9533359408378601,1.6236299276351929,0.12117863446474075
1.3768235445022583,2.382713556289673,0.18045052886009216
1.813415765762329,3.1924185752868652,0.24512924253940582
1.7590086460113525,3.1511576175689697,0.24523426592350006
1.7660799026489258,3.21818470954895,0.2536715269088745
1.7638883590698242,3.267857074737549,0.2607264518737793
1.7577917575836182,3.314988374710083,0.26748573780059814
2.3647656440734863,4.540528774261475,0.37046897411346436
2.3324179649353027,4.556800365447998,0.3757147789001465
2.299922227859497,4.5728535652160645,0.3809657394886017
2.2697227001190186,4.596192359924316,0.3865198493003845
2.239093780517578,4.619431972503662,0.39206430315971375
2.2024641036987305,4.6279730796813965,0.39628657698631287
2.173335313796997,4.6499199867248535,0.40158069133758545
2.1399097442626953,4.6650004386901855,0.40616413950920105
2.104985237121582,4.680465221405029,0.4107199013233185
2.0736730098724365,4.702539920806885,0.4158296287059784
2.0252790451049805,4.68081521987915,0.41691574454307556
1.759787917137146,4.146197319030762,0.37196382880210876
1.7176018953323364,4.129824161529541,0.37291696667671204
1.6809806823730469,4.127735614776611,0.3751765489578247
1.65691339969635,4.15390682220459,0.3799533247947693
1.6278640031814575,4.165069103240967,0.38330700993537903
1.5986206531524658,4.1760735511779785,0.3866352140903473
1.5682917833328247,4.187270641326904,0.38973677158355713
1.537317156791687,4.198447227478027,0.39289581775665283
1.5124181509017944,4.223728656768799,0.3973407447338104
1.4855414628982544,4.241220474243164,0.40102338790893555
1.458382248878479,4.258579730987549,0.4047016203403473
1.4276611804962158,4.268716335296631,0.4074404537677765
1.3963115215301514,4.278807163238525,0.4102286398410797
1.3667889833450317,4.292149543762207,0.4133099615573883
1.339102029800415,4.3087592124938965,0.4166841208934784
1.308992624282837,4.317744255065918,0.41934430599212646
1.2824987173080444,4.341676235198975,0.4232224225997925
1.2512491941452026,4.350551128387451,0.425616055727005
1.2256799936294556,4.381819725036621,0.43025752902030945
1.192944884300232,4.38255500793457,0.43185967206954956
1.1643660068511963,4.398049831390381,0.4349309802055359
1.1352227926254272,4.413475513458252,0.4378713369369507
1.107415795326233,4.436365127563477,0.44139912724494934
1.0733277797698975,4.436530113220215,0.4427117705345154
1.0471800565719604,4.466536045074463,0.44699758291244507
1.0160245895385742,4.473526954650879,0.44898709654808044
0.9873261451721191,4.491689682006836,0.4521230459213257
0.9537814855575562,4.490813732147217,0.45305806398391724
0.7808492183685303,3.8119583129882812,0.38544711470603943
0.7506948709487915,3.80202054977417,0.38531821966171265
0.7160565853118896,3.7650413513183594,0.38244107365608215
0.835992157459259,4.568880558013916,0.46516430377960205
0.805371105670929,4.582109451293945,0.4675227105617523
0.7748711705207825,4.602993965148926,0.4704422056674957
0.7409698367118835,4.600563049316406,0.47099068760871887
0.7107336521148682,4.6209235191345215,0.4738962948322296
0.6813784837722778,4.644848823547363,0.47718268632888794
0.6511873006820679,4.664738178253174,0.48008376359939575
0.6189661622047424,4.6768412590026855,0.48205995559692383
0.5879740118980408,4.696403503417969,0.48462581634521484
0.5557772517204285,4.708046913146973,0.4864021837711334
0.5252078175544739,4.734911918640137,0.4897782504558563
0.4926738142967224,4.742213726043701,0.4911508560180664
0.46113818883895874,4.760898590087891,0.49372974038124084
0.4279576241970062,4.771717071533203,0.49531427025794983
0.3969881534576416,4.805520057678223,0.49914801120758057
0.36380866169929504,4.815874099731445,0.500573456287384
0.3311349153518677,4.833745002746582,0.5028054714202881
0.2991972267627716,4.863011837005615,0.5062479376792908
0.26482948660850525,4.864938735961914,0.5068781971931458
0.23163993656635284,4.882151126861572,0.5088759660720825
0.1984783560037613,4.906916618347168,0.511549711227417
0.16420266032218933,4.908156871795654,0.5117964148521423
0.1305876523256302,4.932460308074951,0.5144731998443604
0.09604733437299728,4.952657222747803,0.5167508721351624
0.06170743703842163,4.960949420928955,0.5178095698356628
0.027320919558405876,4.984568119049072,0.5202467441558838
-0.007391408551484346,5.000192165374756,0.5217400789260864
-0.04245099052786827,5.031113147735596,0.5248538255691528
-0.07761303335428238,4.999621868133545,0.5214805603027344
-0.06811974942684174,1.572059154510498,0.16374550759792328
-0.08566031605005264,1.493406057357788,0.15535376965999603
-0.09705021232366562,1.5082989931106567,0.15681427717208862
-0.1075456440448761,1.5076030492782593,0.15666072070598602
-0.11920079588890076,1.5223395824432373,0.15804411470890045
-0.12838122248649597,1.5060226917266846,0.15617035329341888
-0.14040115475654602,1.5205870866775513,0.15750306844711304
-0.14861686527729034,1.4964066743850708,0.1548338234424591
-0.1623188853263855,1.5262752771377563,0.1577628254890442
-0.173800989985466,1.5328600406646729,0.15828894078731537
-0.18253423273563385,1.5162259340286255,0.15634886920452118
-0.19609230756759644,1.5380802154541016,0.158341184258461
-0.2087370902299881,1.5521409511566162,0.1595369130373001
-0.21509802341461182,1.5199191570281982,0.1559843122959137
-0.22679778933525085,1.5261157751083374,0.15638425946235657
-0.23739807307720184,1.5245426893234253,0.15599437057971954
-0.24678921699523926,1.515224814414978,0.15473079681396484
-0.26236462593078613,1.5442047119140625,0.15735682845115662
-0.2763163447380066,1.5615609884262085,0.1587950587272644
-0.27369561791419983,1.487041711807251,0.15090714395046234
-0.285510778427124,1.492784857749939,0.15118159353733063
-0.3004310429096222,1.5136897563934326,0.1529931277036667
-0.30625906586647034,1.4887784719467163,0.15007711946964264
-0.7469357252120972,3.5095572471618652,0.35284775495529175
-0.764197587966919,3.4741439819335938,0.34837543964385986
-0.7916551828384399,3.484083414077759,0.3484595715999603
-0.8051866292953491,3.4332213401794434,0.3424832224845886
-0.8211745619773865,3.393588066101074,0.33760789036750793
-0.8385458588600159,3.365462064743042,0.3337264060974121
-0.8575371503829956,3.344780206680298,0.3306090533733368
-0.8703383207321167,3.3014328479766846,0.32528334856033325
-0.8912346363067627,3.287956953048706,0.32290682196617126
-0.9071786999702454,3.255505323410034,0.3186744749546051
-0.9252200722694397,3.2344157695770264,0.3154822885990143
-0.9405409097671509,3.2058589458465576,0.3114857077598572
-0.9555173516273499,3.1772398948669434,0.3075142800807953
-0.9715027809143066,3.1522181034088135,0.3039090037345886
-0.9867858290672302,3.123178482055664,0.299904465675354
-1.0036652088165283,3.1016194820404053,0.2966611087322235
-1.0172306299209595,3.0728087425231934,0.29255247116088867
-1.0354150533676147,3.058703899383545,0.2898719906806946
-1.0470939874649048,3.0261070728302,0.28546661138534546
-1.0629584789276123,3.0042569637298584,0.28206175565719604
-1.0763301849365234,2.9748685359954834,0.277953177690506
-1.0965038537979126,2.967689275741577,0.2758360505104065
-1.1068307161331177,2.9349570274353027,0.27131354808807373
-1.1069828271865845,2.8767902851104736,0.2644905149936676
-1.1211525201797485,2.854776620864868,0.26099711656570435
-1.1355949640274048,2.8324975967407227,0.25746795535087585
-1.1504462957382202,2.8140902519226074,0.25423750281333923
-1.1632559299468994,2.792165994644165,0.2506352365016937
-1.1469448804855347,2.7020938396453857,0.24098117649555206
-1.1439006328582764,2.644301414489746,0.23424936830997467
-1.151659369468689,2.6113758087158203,0.22972874343395233
-1.1629807949066162,2.5894935131073,0.22615112364292145
-1.1899387836456299,2.6031363010406494,0.22562618553638458
-1.2121803760528564,2.6059510707855225,0.22415384650230408
-1.240228295326233,2.618813991546631,0.22346392273902893
-1.2756613492965698,2.6452670097351074,0.22386786341667175
-1.289808988571167,2.6299469470977783,0.22063091397285461
-1.2741502523422241,2.5553431510925293,0.21246817708015442
-1.2842330932617188,2.5330491065979004,0.2086956650018692
-1.2947660684585571,2.510382652282715,0.20484481751918793
-1.3047086000442505,2.4878673553466797,0.20098988711833954
-1.3103746175765991,2.458652973175049,0.1965150237083435
-1.3228645324707031,2.4433159828186035,0.19321583211421967
-1.3341712951660156,2.424051284790039,0.18952083587646484
-1.3509804010391235,2.414949893951416,0.18661318719387054
-1.362938642501831,2.399489164352417,0.18311771750450134
-1.3789042234420776,2.3905792236328125,0.18009863793849945
-1.395342230796814,2.381255865097046,0.17697806656360626
-1.4078449010849,2.3650503158569336,0.17331953346729279
-1.3909302949905396,2.3026890754699707,0.16626833379268646
-1.4140138626098633,2.307123899459839,0.1640905737876892
-1.4385367631912231,2.3105499744415283,0.16159749031066895
-1.4542251825332642,2.30094575881958,0.1581827849149704
-1.4522007703781128,2.2654848098754883,0.15297143161296844
-1.4352951049804688,2.206995964050293,0.1462283879518509
-1.472231388092041,2.2296624183654785,0.14472565054893494
-1.45650053024292,2.1747798919677734,0.13809630274772644
-1.4967198371887207,2.204348087310791,0.13688091933727264
-1.47227144241333,2.136235475540161,0.12935587763786316
-1.4839346408843994,2.123626232147217,0.12525132298469543
-1.5130999088287354,2.136732578277588,0.12261978536844254
-1.498671531677246,2.084961175918579,0.1158718690276146
-1.5073461532592773,2.069284677505493,0.11124173551797867
-1.5160061120986938,2.053487777709961,0.10650008916854858
-1.493003010749817,2.09077787399292,-0.07808166742324829
-1.4860939979553223,2.1146240234375,-0.08344228565692902
-1.4777143001556396,2.1345648765563965,-0.08837870508432388
-1.4590915441513062,2.142422676086426,-0.09282401949167252
-1.476212501525879,2.201331377029419,-0.09931965172290802
-1.4602073431015015,2.211784601211548,-0.10358767211437225
-1.455940842628479,2.242361307144165,-0.10888853669166565
-1.4401288032531738,2.2523510456085205,-0.11290756613016129
-1.4381828308105469,2.285731077194214,-0.11810420453548431
-1.4210362434387207,2.2962186336517334,-0.12214910238981247
-1.4129847288131714,2.3192734718322754,-0.12667478621006012
-1.4038718938827515,2.3428001403808594,-0.13129082322120667
-1.4022789001464844,2.3798367977142334,-0.13665205240249634
-1.3658167123794556,2.3557474613189697,-0.1383521556854248
-1.368364691734314,2.3990695476531982,-0.14396049082279205
-1.354465126991272,2.4156737327575684,-0.14798882603645325
-1.3404685258865356,2.432156562805176,-0.15202195942401886
-1.3159875869750977,2.427541732788086,-0.15459558367729187
-1.3074383735656738,2.454054832458496,-0.1591050922870636
-1.2930505275726318,2.470250129699707,-0.162970170378685
-1.2934479713439941,2.513756513595581,-0.16858595609664917
-1.2753195762634277,2.522775411605835,-0.17194435000419617
-1.2603503465652466,2.5387725830078125,-0.1756809949874878
-1.2521510124206543,2.568647861480713,-0.1804015040397644
-1.2105976343154907,2.5278913974761963,-0.1800464689731598
-1.1892778873443604,2.529160499572754,-0.1825939267873764
-1.183968186378479,2.565814256668091,-0.1876670867204666
-1.1860945224761963,2.620323657989502,-0.19414329528808594
-1.153559923171997,2.5962536334991455,-0.19470909237861633
-1.1849422454833984,2.7184643745422363,-0.2062736600637436
-1.1163338422775269,2.6120429039001465,-0.20044240355491638
-1.1081503629684448,2.6449034214019775,-0.2052193284034729
-1.1322702169418335,2.756995916366577,-0.216245636343956
-1.1273298263549805,2.800834894180298,-0.2219502031803131
-1.1200617551803589,2.841244697570801,-0.22736932337284088
-1.1024945974349976,2.856231451034546,-0.2307921051979065
-1.1017695665359497,2.9146549701690674,-0.23772940039634705
-1.0863049030303955,2.9368369579315186,-0.24177655577659607
-1.0718477964401245,2.962637424468994,-0.24598731100559235
-1.0609712600708008,2.999389171600342,-0.2511536180973053
-1.0399054288864136,3.006533145904541,-0.25382858514785767
-1.0313780307769775,3.0503737926483154,-0.25962814688682556
-1.017798900604248,3.083423376083374,-0.26444149017333984
-0.9981751441955566,3.0977940559387207,-0.2676268219947815
-0.9785930514335632,3.1119794845581055,-0.27080169320106506
-0.9614621996879578,3.1333870887756348,-0.27460405230522156
-0.9483394622802734,3.169687271118164,-0.2796626389026642
-0.9312747120857239,3.194812059402466,-0.2836553156375885
-0.9166749715805054,3.2311947345733643,-0.28872162103652954
-0.8981853127479553,3.252326011657715,-0.29240792989730835
-0.8795226216316223,3.273331880569458,-0.296107679605484
-0.8612262606620789,3.2981112003326416,-0.2999643087387085
-0.8378068208694458,3.303943634033203,-0.3021007180213928
-0.8233721256256104,3.3474535942077637,-0.30773478746414185
-0.8135864734649658,3.4096758365631104,-0.31510162353515625
-0.7818628549575806,3.380969524383545,-0.3140135705471039
-0.3534976840019226,1.579227089881897,-0.14733105897903442
-0.3439890146255493,1.5892037153244019,-0.14892885088920593
-0.3310813307762146,1.5839118957519531,-0.14910869300365448
-0.3185003101825714,1.5784720182418823,-0.14926138520240784
-0.30741775035858154,1.5805929899215698,-0.150052011013031
-0.2948438227176666,1.5750030279159546,-0.1500682234764099
-0.2809865474700928,1.5616599321365356,-0.14934512972831726
-0.26791611313819885,1.5520466566085815,-0.14898061752319336
-0.255836546421051,1.5461316108703613,-0.1489611715078354
-0.24254947900772095,1.5324676036834717,-0.1480797380208969
-0.23294255137443542,1.5417661666870117,-0.14940932393074036
-0.22102712094783783,1.5356062650680542,-0.14924710988998413
-0.20804047584533691,1.521666407585144,-0.14833423495292664
-0.1934317946434021,1.4921786785125732,-0.14587804675102234
-0.18486419320106506,1.5088907480239868,-0.1478273868560791
-0.17516747117042542,1.5178313255310059,-0.14902785420417786
-0.1628808230161667,1.5035145282745361,-0.1479492485523224
-0.15085327625274658,1.4890968799591064,-0.14685949683189392
-0.14176000654697418,1.5055696964263916,-0.14879193902015686
-0.1298835128545761,1.4910025596618652,-0.1475653350353241
-0.10877074301242828,1.4887337684631348,-0.14778652787208557
-0.1001945361495018,1.5165761709213257,-0.15078754723072052
-0.08943606913089752,1.5172233581542969,-0.15104150772094727
-0.07964124530553818,1.5333213806152344,-0.1527591049671173
-0.06788082420825958,1.5105246305465698,-0.15060847997665405
-0.05913536995649338,1.5575536489486694,-0.15542887151241302
-0.04637911915779114,1.49574875831604,-0.1493944376707077
-0.036895330995321274,1.5426596403121948,-0.1541498899459839
-0.026285888627171516,1.55064857006073,-0.154960036277771
-0.015178785659372807,1.5196970701217651,-0.1518859714269638
-0.004799697082489729,1.581952452659607,-0.15813544392585754
0.0061263819225132465,1.566396713256836,-0.15661512315273285
0.017289170995354652,1.574093222618103,-0.15733471512794495
0.028858957812190056,1.6089222431182861,-0.1607220619916916
0.03944941982626915,1.5853796005249023,-0.1582854986190796
0.05170691758394241,1.6239277124404907,-0.16205500066280365
0.06361199915409088,1.639075756072998,-0.1634945422410965
0.07534420490264893,1.6463823318481445,-0.16404949128627777
0.08655208349227905,1.6380722522735596,-0.16301490366458893
0.10001851618289948,1.6723791360855103,-0.16622936725616455
0.11631164699792862,1.741483449935913,-0.17289823293685913
0.1272636502981186,1.7251536846160889,-0.17108725011348724
0.14266200363636017,1.7668917179107666,-0.17490758001804352
0.15715187788009644,1.789121150970459,-0.17676396667957306
0.17396417260169983,1.8344736099243164,-0.1809057891368866
0.4723098576068878,4.637306213378906,-0.4564679265022278
0.5028665065765381,4.618561744689941,-0.4538091719150543
0.535723865032196,4.6228437423706055,-0.4530366063117981
0.5663579702377319,4.603675842285156,-0.4499590992927551
0.5952039957046509,4.576661586761475,-0.446166455745697
0.6269877552986145,4.572565078735352,-0.4446311593055725
0.6565340757369995,4.552855968475342,-0.4415573477745056
0.6867994666099548,4.540706634521484,-0.43892383575439453
0.7186768651008606,4.535955429077148,-0.4370046854019165
0.3728097975254059,2.252098321914673,-0.21626698970794678
0.3831569254398346,2.218885660171509,-0.21238870918750763
0.3943924009799957,2.1933047771453857,-0.20921654999256134
0.4094928205013275,2.1906399726867676,-0.20812547206878662
0.42603883147239685,2.195510149002075,-0.20775829255580902
0.44000130891799927,2.1849255561828613,-0.2059168666601181
0.45840373635292053,2.1971397399902344,-0.20624224841594696
0.4719963073730469,2.1864137649536133,-0.2043309509754181
0.49213454127311707,2.20600962638855,-0.20517456531524658
0.5038509368896484,2.187516689300537,-0.202480748295784
0.5193092226982117,2.1840198040008545,-0.20116741955280304
0.5344926714897156,2.1804726123809814,-0.1998753696680069
0.5514013171195984,2.1844141483306885,-0.19915471971035004
0.5663710236549377,2.1807119846343994,-0.19771355390548706
0.5833766460418701,2.1844122409820557,-0.1969451755285263
1.1863787174224854,4.3194260597229,-0.38719844818115234
1.21006178855896,4.2888569831848145,-0.3822447657585144
1.2351462841033936,4.265777587890625,-0.37773600220680237
1.2643694877624512,4.2574872970581055,-0.3745660185813904
1.2892709970474243,4.2340192794799805,-0.3700646162033081
1.3239271640777588,4.239912509918213,-0.3680858612060547
1.3483829498291016,4.216141700744629,-0.36345991492271423
1.3735538721084595,4.196016311645508,-0.35906630754470825
1.4034579992294312,4.1905083656311035,-0.3559451401233673
1.4263315200805664,4.16249942779541,-0.35088789463043213
1.452794075012207,4.145380020141602,-0.3467707633972168
1.4815462827682495,4.135505199432373,-0.3430120348930359
1.5097273588180542,4.125606060028076,-0.3393191695213318
1.5327004194259644,4.100804805755615,-0.3343946933746338
1.5612688064575195,4.09031867980957,-0.33063217997550964
1.5836223363876343,4.065310478210449,-0.3255997598171234
1.6088111400604248,4.047344207763672,-0.3210271894931793
1.6392914056777954,4.0438151359558105,-0.3176587224006653
1.664501667022705,4.025388717651367,-0.31306126713752747
1.6983586549758911,4.028457164764404,-0.3100890815258026
1.9793740510940552,4.607944011688232,-0.35087502002716064
2.023573875427246,4.623129367828369,-0.34812793135643005
2.058917284011841,4.61640739440918,-0.3436727523803711
2.0909361839294434,4.602365493774414,-0.33865758776664734
2.1153767108917236,4.574387073516846,-0.3324970006942749
2.1495237350463867,4.567429542541504,-0.3278815746307373
2.181666851043701,4.55254602432251,-0.32252389192581177
2.209914445877075,4.530602931976318,-0.31671443581581116
2.240302085876465,4.516030788421631,-0.3112936317920685
2.2776150703430176,4.515174865722656,-0.3068186938762665
2.305332660675049,4.492701530456543,-0.30073684453964233
2.341876268386841,4.487338542938232,-0.2957647442817688
1.7289942502975464,3.2590270042419434,-0.21131762862205505
1.7322578430175781,3.213322401046753,-0.20495589077472687
1.7434393167495728,3.1808807849884033,-0.19935551285743713
1.7443517446517944,3.1316232681274414,-0.19274663925170898
1.768997311592102,3.126995325088501,-0.1888933628797531
1.353075385093689,2.354008197784424,-0.13940508663654327
1.3123815059661865,2.2470269203186035,-0.13035698235034943
0.9512171149253845,1.6041442155838013,-0.0910864919424057
0.9637818336486816,1.601313829421997,-0.08893938362598419
0.9687345027923584,1.584753155708313,-0.08594314008951187
0.9837867021560669,1.5847811698913574,-0.08379475772380829
0.9962318539619446,1.581730842590332,-0.0814981758594513
1.0153690576553345,1.5882059335708618,-0.0795932188630104
1.007174015045166,1.5518323183059692,-0.07550263404846191
1.0172569751739502,1.5453662872314453,-0.07290666550397873
1.0234802961349487,1.5319985151290894,-0.06987951695919037
1.0471285581588745,1.5444390773773193,-0.06796248257160187
2.5365054607391357,3.6900250911712646,-0.15637966990470886
2.5702943801879883,3.6859166622161865,-0.14987868070602417
2.599517345428467,3.6752238273620605,-0.1428678035736084
2.6277997493743896,3.6649489402770996,-0.13573113083839417
2.657724618911743,3.653254270553589,-0.12804460525512695
2.683255195617676,3.6396665573120117,-0.12023594975471497
2.615475654602051,3.695194721221924,0.19248420000076294
2.6091368198394775,3.7469260692596436,0.20176130533218384
1.056728720664978,1.541750192642212,0.08557208627462387
1.0498290061950684,1.555720329284668,0.08878152072429657
1.0507471561431885,1.5831128358840942,0.09271436929702759
1.0263874530792236,1.5709686279296875,0.09420711547136307
1.015122413635254,1.578118085861206,0.09673595428466797
1.0072135925292969,1.5922610759735107,0.09966540336608887
0.9911825060844421,1.5929534435272217,0.10171195864677429
0.9800066351890564,1.5997048616409302,0.10401883721351624
0.9679027199745178,1.6069087982177734,0.1062895879149437
0.9557799100875854,1.6139981746673584,0.10855215042829514
1.3744810819625854,2.358320713043213,0.16103628277778625
1.3319218158721924,2.3241591453552246,0.16106872260570526
1.787054419517517,3.1729819774627686,0.22297243773937225
1.7675909996032715,3.1925063133239746,0.2273520976305008
1.7769070863723755,3.262730836868286,0.23528440296649933
1.7531006336212158,3.275313377380371,0.2390197068452835
2.3901960849761963,4.547596454620361,0.3357642590999603
2.346403121948242,4.543672561645508,0.339199423789978
2.3180441856384277,4.566590309143066,0.3445154130458832
2.2884182929992676,4.589862823486328,0.3497459888458252
2.2441444396972656,4.585300922393799,0.35275986790657043
2.2200915813446045,4.622587203979492,0.35903415083885193
2.1844496726989746,4.630581378936768,0.3628520965576172
2.1515908241271973,4.64560079574585,0.36716729402542114
2.1206908226013184,4.6680169105529785,0.3719027042388916
2.086367130279541,4.683124542236328,0.37608373165130615
2.056363344192505,4.704557418823242,0.38068345189094543
1.987633466720581,4.636354923248291,0.3780163526535034
1.7338831424713135,4.125965118408203,0.3387203812599182
1.7008086442947388,4.131016731262207,0.34139198064804077
1.6678581237792969,4.135763645172119,0.34404054284095764
1.638924479484558,4.147054672241211,0.34716176986694336
1.609451174736023,4.158315658569336,0.3503325879573822
1.584820032119751,4.18418025970459,0.35447412729263306
1.554429292678833,4.195318222045898,0.35738080739974976
1.5241469144821167,4.2061686515808105,0.3602694571018219
1.4973655939102173,4.223799228668213,0.36369723081588745
1.4698835611343384,4.2414374351501465,0.36718469858169556
1.4367003440856934,4.244349002838135,0.36912426352500916
1.4133391380310059,4.276568412780762,0.37362954020500183
1.3825359344482422,4.286400318145752,0.3762006461620331
1.3607971668243408,4.321706771850586,0.38098376989364624
1.322113037109375,4.30497932434082,0.3812272250652313
1.2947242259979248,4.325283050537109,0.3845025599002838
1.267992377281189,4.34921407699585,0.38807809352874756
1.2388581037521362,4.365493297576904,0.39099830389022827
1.2082304954528809,4.373871803283691,0.39319807291030884
1.179690957069397,4.389517784118652,0.3960670232772827
1.150068998336792,4.405226230621338,0.39884743094444275
1.1204140186309814,4.420717239379883,0.401449590921402
1.0887378454208374,4.428450584411621,0.4033699035644531
1.0592010021209717,4.443435192108154,0.4059582054615021
1.0317784547805786,4.465685844421387,0.4092162549495697
1.0018320083618164,4.4802985191345215,0.41182321310043335
0.970809817314148,4.490956783294678,0.4137607216835022
0.9388870000839233,4.497592926025391,0.4153471887111664
0.7640848755836487,3.794649839401245,0.3512691855430603
0.7375675439834595,3.799771547317505,0.35258325934410095
0.8491944670677185,4.546611785888672,0.4229206442832947
0.8228142261505127,4.582944869995117,0.42723020911216736
0.7916517853736877,4.596206188201904,0.4292161762714386
0.7603427171707153,4.609254837036133,0.4312063157558441
0.7307996153831482,4.633602142333984,0.43427735567092896
0.6968051195144653,4.630849838256836,0.4348345100879669
0.6656550168991089,4.643170356750488,0.4368143379688263
0.6361968517303467,4.670751094818115,0.44004714488983154
0.6051835417747498,4.690468788146973,0.44244584441185
0.5730306506156921,4.70225191116333,0.4441201388835907
0.5409345030784607,4.71379280090332,0.44579195976257324
0.5100301504135132,4.7406158447265625,0.44894132018089294
0.4774129092693329,4.747831344604492,0.4502485394477844
0.44483163952827454,4.758742332458496,0.4516644775867462
0.4127325415611267,4.777187824249268,0.45375874638557434
0.37978124618530273,4.787663459777832,0.4551200568675995
0.34625697135925293,4.797942161560059,0.4564916491508484
0.3154238164424896,4.8389787673950195,0.4608067274093628
0.2826809585094452,4.856523513793945,0.4629117250442505
0.2492985874414444,4.870004653930664,0.4643254280090332
0.21526362001895905,4.871601104736328,0.46460145711898804
0.18147553503513336,4.896297454833984,0.46710672974586487
0.14736057817935944,4.897416591644287,0.4673832058906555
0.11346948891878128,4.90607213973999,0.46840158104896545
0.08023083955049515,4.965037822723389,0.4742492139339447
0.01390127930790186,1.512585997581482,0.14444972574710846
0.003221467137336731,1.5282025337219238,0.14591720700263977
-0.00738886184990406,1.5204124450683594,0.145157128572464
-0.018764305859804153,1.5864267349243164,0.15145006775856018
-0.029419608414173126,1.5668203830718994,0.1495760828256607
-0.04050271213054657,1.574354887008667,0.1502971351146698
-0.05168178677558899,1.5818214416503906,0.15090754628181458
-0.0612950399518013,1.542574405670166,0.1470690816640854
-0.07162062078714371,1.5343559980392456,0.14620044827461243
-0.08271617442369461,1.5415986776351929,0.14681175351142883
-0.09109146893024445,1.502181887626648,0.14298804104328156
-0.1025906428694725,1.517043948173523,0.14433124661445618
-0.1132679283618927,1.5163066387176514,0.14409461617469788
-0.12248644977807999,1.5000052452087402,0.1423904299736023
-0.13285814225673676,1.4991440773010254,0.1421603560447693
-0.14475096762180328,1.513692021369934,0.14339619874954224
-0.15526388585567474,1.512671947479248,0.14316269755363464
-0.16678819060325623,1.5192939043045044,0.14363977313041687
-0.1808556765317917,1.5490447282791138,0.14621992409229279
-0.19341430068016052,1.563236117362976,0.14733171463012695
-0.204176127910614,1.5618996620178223,0.14698444306850433
-0.21394650638103485,1.5527721643447876,0.14591047167778015
-0.2249211072921753,1.5512539148330688,0.14555568993091583
-0.23331493139266968,1.534313678741455,0.14373739063739777
-0.2505437433719635,1.5749765634536743,0.14723855257034302
-0.2626039385795593,1.5809404850006104,0.14749300479888916
-0.27077552676200867,1.5638158321380615,0.14560174942016602
-0.2857675850391388,1.5849112272262573,0.14727073907852173
-0.29842209815979004,1.590538740158081,0.14749805629253387
-0.3123590052127838,1.6037651300430298,0.14839054644107819
-0.3233034610748291,1.6016483306884766,0.14780956506729126
-0.33105042576789856,1.5842238664627075,0.14582636952400208
-0.3312087953090668,1.5325357913970947,0.14071017503738403
-0.7715460658073425,3.4515011310577393,0.31607866287231445
-0.7955092191696167,3.446173906326294,0.3147992491722107
-0.8154768347740173,3.425638198852539,0.3119784891605377
-0.8322769999504089,3.3936927318573,0.3080819249153137
-0.8477279543876648,3.3579022884368896,0.30386701226234436
-0.8653948307037354,3.3294107913970947,0.300312340259552
-0.8805020451545715,3.293365955352783,0.29611438512802124
-0.8981725573539734,3.268550395965576,0.2929299771785736
-0.916085958480835,3.2475509643554688,0.2899344563484192
-0.9359197020530701,3.2339351177215576,0.28761908411979675
-0.9493584632873535,3.1976964473724365,0.28329819440841675
-0.9613568782806396,3.157656192779541,0.27866843342781067
-0.9763234853744507,3.128748893737793,0.2750536799430847
-0.9929121136665344,3.1073358058929443,0.2719981074333191
-1.0114121437072754,3.0933313369750977,0.2695448398590088
-1.0276637077331543,3.071713447570801,0.2664279341697693
-1.0424613952636719,3.046314239501953,0.26300564408302307
-1.0534029006958008,3.0097265243530273,0.25863149762153625
-1.0820143222808838,3.0245444774627686,0.2586316466331482
-1.0836271047592163,2.9661648273468018,0.2522762417793274
-1.0886116027832031,2.918832778930664,0.24691206216812134
-1.100520372390747,2.889543294906616,0.2430741786956787
-1.131909966468811,2.911013126373291,0.24350953102111816
-1.1261399984359741,2.8381316661834717,0.2360556423664093
-1.1407339572906494,2.819871187210083,0.23306339979171753
-1.150679349899292,2.7907371520996094,0.2291998714208603
-1.1578282117843628,2.754180908203125,0.22471988201141357
-1.1416935920715332,2.6638708114624023,0.21591027081012726
-1.1428970098495483,2.616828680038452,0.2106516808271408
-1.153937578201294,2.595106840133667,0.20735476911067963
-1.185645580291748,2.6194841861724854,0.20773805677890778
-1.1988822221755981,2.600766181945801,0.20463599264621735
-1.218685507774353,2.59602952003479,0.20263512432575226
-1.2783859968185425,2.675727367401123,0.20711860060691833
-1.2569714784622192,2.5867421627044678,0.19848394393920898
-1.26896071434021,2.568028450012207,0.19531182944774628
-1.2834887504577637,2.5522661209106445,0.1922846883535385
-1.2834794521331787,2.5087525844573975,0.18722394108772278
-1.303602933883667,2.5073320865631104,0.18521958589553833
-1.3091368675231934,2.4782118797302246,0.1811799257993698
-1.318495512008667,2.4557483196258545,0.17760716378688812
-1.3300443887710571,2.436387062072754,0.1742197871208191
-1.3391352891921997,2.413776397705078,0.17053267359733582
-1.3511483669281006,2.3983144760131836,0.16737738251686096
-1.3555619716644287,2.369093894958496,0.1632542759180069
-1.3681730031967163,2.3530094623565674,0.15997645258903503
-1.411674976348877,2.3909902572631836,0.1602851301431656
-1.411454439163208,2.3550169467926025,0.1555386185646057
-1.423159122467041,2.339031219482422,0.15212547779083252
-1.4231036901474,2.3026623725891113,0.14732302725315094
-1.4465007781982422,2.306671619415283,0.14507079124450684
-1.4488575458526611,2.277693748474121,0.1407420039176941
-1.445635199546814,2.238257646560669,0.13564275205135345
-1.4757839441299438,2.2514195442199707,0.13372139632701874
-1.4987553358078003,2.255152702331543,0.13115371763706207
-1.4940388202667236,2.2162516117095947,0.12602463364601135
-1.4654018878936768,2.141564130783081,0.11882398277521133
-1.479224443435669,2.1322367191314697,0.11523399502038956
-1.4909263849258423,2.119495391845703,0.11142711341381073
-1.4964739084243774,2.0966320037841797,0.10690437257289886
-1.5003939867019653,2.074784755706787,0.10243096202611923
-1.509511113166809,2.058685779571533,0.09806706011295319
-1.5137906074523926,2.03631591796875,0.09324045479297638
-1.523512840270996,2.1506576538085938,-0.0765872597694397
-1.5036087036132812,2.1549482345581055,-0.08066800981760025
-1.50030517578125,2.1855571269989014,-0.08575082570314407
-1.480128288269043,2.1896893978118896,-0.08959195762872696
-1.4768476486206055,2.2199246883392334,-0.09440585225820541
-1.4644957780838013,2.237257719039917,-0.09866268187761307
-1.4445974826812744,2.240708351135254,-0.10208547115325928
-1.4362436532974243,2.2644107341766357,-0.10641788691282272
-1.4233735799789429,2.2815499305725098,-0.11047343164682388
-1.417585849761963,2.307910919189453,-0.11479943990707397
-1.4085314273834229,2.3315277099609375,-0.11899568885564804
-1.3992568254470825,2.3550994396209717,-0.12320061773061752
-1.3906376361846924,2.3781213760375977,-0.12725801765918732
-1.3769128322601318,2.394916296005249,-0.13102956116199493
-1.3630435466766357,2.4116196632385254,-0.1347530037164688
-1.334612250328064,2.400541067123413,-0.13679470121860504
-1.325073003768921,2.4234397411346436,-0.14072303473949432
-1.3146449327468872,2.446657419204712,-0.1446617990732193
-1.2984501123428345,2.45951509475708,-0.148018479347229
-1.288437843322754,2.482184648513794,-0.1518607884645462
-1.2811744213104248,2.5120558738708496,-0.15613716840744019
-1.2733051776885986,2.542065382003784,-0.16044938564300537
-1.2586463689804077,2.557864189147949,-0.1638384610414505
-1.2472020387649536,2.58060884475708,-0.16770264506340027
-1.2284756898880005,2.5893898010253906,-0.17055009305477142
-1.1964566707611084,2.569783926010132,-0.1715082973241806
-1.1993600130081177,2.624079704284668,-0.1773568093776703
-1.184185266494751,2.6393237113952637,-0.18059714138507843
-1.1776422262191772,2.6761748790740967,-0.1852460354566574
-1.1424821615219116,2.6487808227539062,-0.18548989295959473
-1.148111343383789,2.714012622833252,-0.19215239584445953
-1.1485376358032227,2.7685837745666504,-0.19813445210456848
-1.1403684616088867,2.805460214614868,-0.20279866456985474
-1.1230406761169434,2.8206441402435303,-0.20592373609542847
-1.1126517057418823,2.853867292404175,-0.21039776504039764
-1.1010782718658447,2.8832058906555176,-0.21456748247146606
-1.0996836423873901,2.9418652057647705,-0.22086982429027557
-1.0826183557510376,2.9604508876800537,-0.22417859733104706
-1.0720638036727905,2.9972259998321533,-0.22888772189617157
-1.0481791496276855,2.997217893600464,-0.2308134287595749
-1.0446794033050537,3.055952548980713,-0.23720042407512665
-1.026507019996643,3.074246406555176,-0.2404014766216278
-1.0069425106048584,3.088721752166748,-0.24332492053508759
-0.9876866340637207,3.1029281616210938,-0.24621029198169708
-0.9725580811500549,3.131995677947998,-0.25033214688301086
-0.957024872303009,3.1610286235809326,-0.25427916646003723
-0.940015435218811,3.1862618923187256,-0.2579506039619446
-0.9218251705169678,3.207608222961426,-0.2613227963447571
-0.9057379961013794,3.2362825870513916,-0.26530516147613525
-0.8891534209251404,3.2649295330047607,-0.26922765374183655
-0.8725498914718628,3.297443389892578,-0.2734096646308899
-0.8530222773551941,3.318467378616333,-0.2766461670398712
-0.8373662233352661,3.354401111602783,-0.2811371386051178
-0.8176654577255249,3.375117778778076,-0.2843814194202423
-0.8018572926521301,3.4147565364837646,-0.2890690267086029
-0.3588716387748718,1.5791770219802856,-0.13429927825927734
-0.3494081497192383,1.589200496673584,-0.13576506078243256
-0.33833473920822144,1.5915254354476929,-0.13657547533512115
-0.32409968972206116,1.578525424003601,-0.13605959713459015
-0.30844202637672424,1.5577995777130127,-0.1347701996564865
-0.3016291856765747,1.5828520059585571,-0.13745778799057007
-0.2828119993209839,1.5427566766738892,-0.13447639346122742
-0.27476102113723755,1.5599620342254639,-0.13648459315299988
-0.2638677954673767,1.56178617477417,-0.13711810111999512
-0.2528795599937439,1.563553810119629,-0.13767628371715546
