X,Y,Z
-2.1632163524627686,4.216028213500977,0.3810873329639435
-4.718722343444824,9.04985237121582,0.810073733329773
-2.224217653274536,4.198282241821289,0.37210485339164734
-2.2440826892852783,4.166052341461182,0.3653873801231384
-2.246640205383301,4.1030683517456055,0.3559933304786682
-2.2531158924102783,4.05102014541626,0.34738606214523315
-2.275787591934204,4.029830455780029,0.34155380725860596
-2.303305149078369,4.0146284103393555,0.3360747992992401
-2.331367015838623,3.9988651275634766,0.3304591476917267
-2.353458881378174,3.977322578430176,0.32417553663253784
-2.379842758178711,3.962064743041992,0.31834468245506287
-2.4068970680236816,3.9461679458618164,0.31234145164489746
-2.434210777282715,3.929863452911377,0.3061757981777191
-2.4554636478424072,3.907898187637329,0.29942530393600464
-2.484933853149414,3.89894962310791,0.29368001222610474
-2.5124711990356445,3.881772041320801,0.2868526577949524
-2.534045457839966,3.858893871307373,0.2795953154563904
-2.586787462234497,3.885279655456543,0.2757953703403473
-2.6258492469787598,3.8877625465393066,0.2699514329433441
-2.085789442062378,3.043393135070801,0.20633582770824432
-2.0497219562530518,2.9502124786376953,0.1949777901172638
-2.0690858364105225,2.937058448791504,0.18894855678081512
-2.0891852378845215,2.9232044219970703,0.1825142651796341
-1.036568522453308,1.4315259456634521,0.08660229295492172
-1.0853309631347656,1.4782642126083374,0.08635871112346649
-1.0997225046157837,1.4775415658950806,0.08303479850292206
-2.04259991645813,2.8872408866882324,-0.12879735231399536
-2.0399961471557617,2.926893711090088,-0.13725300133228302
-2.101372480392456,3.064415693283081,-0.15063859522342682
-2.0742931365966797,3.0730268955230713,-0.15770819783210754
-2.0518267154693604,3.0877058506011963,-0.16473117470741272
-2.0369434356689453,3.11582612991333,-0.17249928414821625
-2.03808331489563,3.1658737659454346,-0.18117612600326538
-2.0105478763580322,3.1738131046295166,-0.18744388222694397
-2.32037091255188,3.7250914573669434,-0.22688522934913635
-2.2941670417785645,3.7408392429351807,-0.23414850234985352
-2.2667622566223145,3.757049083709717,-0.2414044737815857
-2.240753173828125,3.7766835689544678,-0.24887719750404358
-2.2139387130737305,3.7920048236846924,-0.2557917833328247
-2.1900041103363037,3.814399003982544,-0.2632142901420593
-2.1617586612701416,3.8300015926361084,-0.270051509141922
-2.130324602127075,3.8381855487823486,-0.2762262523174286
-2.1069657802581787,3.8594725131988525,-0.28320619463920593
-2.0748209953308105,3.867527723312378,-0.28913626074790955
-2.045825481414795,3.882451057434082,-0.2956750988960266
-2.029388666152954,3.916952133178711,-0.30339232087135315
-1.9978629350662231,3.9239068031311035,-0.308942973613739
-1.9692301750183105,3.9378747940063477,-0.31499776244163513
-1.9476855993270874,3.9654622077941895,-0.3221209943294525
-1.9160088300704956,3.9717307090759277,-0.3274826407432556
-1.8940201997756958,3.9990336894989014,-0.3344017267227173
-1.8649277687072754,4.012201309204102,-0.3401349186897278
-1.8394792079925537,4.032014846801758,-0.3463771343231201
-1.811221718788147,4.044309616088867,-0.35190969705581665
-1.782063603401184,4.056768894195557,-0.3573191463947296
-1.7583259344100952,4.08358907699585,-0.3640800416469574
-1.7292656898498535,4.095503807067871,-0.3693959414958954
-1.7006251811981201,4.107006072998047,-0.3746197521686554
-1.6770408153533936,4.133033752441406,-0.38102132081985474
-1.6472899913787842,4.144513130187988,-0.3860809803009033
-1.6215076446533203,4.166721343994141,-0.3921954035758972
-1.5950943231582642,4.18476676940918,-0.397822767496109
-1.5680067539215088,4.2028398513793945,-0.40331581234931946
-1.5378857851028442,4.213499546051025,-0.4080459177494049
-1.507786750793457,4.223905563354492,-0.41276052594184875
-1.4776480197906494,4.234081268310547,-0.41746968030929565
-1.452704668045044,4.258697509765625,-0.42344361543655396
-1.183775544166565,3.5528032779693604,-0.3560788631439209
-1.1499521732330322,3.5349180698394775,-0.3570999503135681
-1.1227911710739136,3.5351219177246094,-0.3598880469799042
-1.3484021425247192,4.352203369140625,-0.44650501012802124
-1.3219103813171387,4.376154899597168,-0.4520593583583832
-1.2907545566558838,4.38502836227417,-0.45608940720558167
-1.2619577646255493,4.401072978973389,-0.46086591482162476
-1.2354360818862915,4.424317836761475,-0.46640005707740784
-1.2042770385742188,4.4325032234191895,-0.4701618254184723
-1.1742955446243286,4.448184967041016,-0.4746634364128113
-1.1408601999282837,4.448466777801514,-0.4774954915046692
-1.1191365718841553,4.493642330169678,-0.4851539731025696
-1.0630720853805542,4.399013996124268,-0.477663516998291
-1.038187861442566,4.432539939880371,-0.48371797800064087
-0.8637639880180359,3.810727119445801,-0.4179883301258087
-0.8369336128234863,3.8164103031158447,-0.4207119047641754
-0.7990058064460754,3.768672227859497,-0.4175208806991577
-0.7803349494934082,3.8119516372680664,-0.42425036430358887
-0.7489516139030457,3.7942347526550293,-0.42404600977897644
-0.7231590747833252,3.8068735599517822,-0.42728161811828613
-0.6979420185089111,3.8192102909088135,-0.430463969707489
-0.672650158405304,3.831367254257202,-0.4336499869823456
-0.6406130790710449,3.8051369190216064,-0.4321831464767456
-0.6212647557258606,3.855311393737793,-0.43937018513679504
-0.5901681780815125,3.836404323577881,-0.43873947858810425
-0.5634468197822571,3.840197801589966,-0.4406786561012268
-0.5409345030784607,3.87457013130188,-0.4460974931716919
-0.5117049217224121,3.862699508666992,-0.4458833932876587
-0.4909064471721649,3.9160683155059814,-0.4532311260700226
-0.46075868606567383,3.8961026668548584,-0.452120304107666
-0.43402037024497986,3.906796932220459,-0.45459944009780884
-0.4107939302921295,3.948160171508789,-0.4604848027229309
-0.3895522356033325,4.016452789306641,-0.46932122111320496
-0.3600766956806183,4.003481864929199,-0.46869567036628723
-0.33599787950515747,4.052156448364258,-0.4753149151802063
-0.30794844031333923,4.0620245933532715,-0.4774302840232849
-0.12836235761642456,1.8655537366867065,-0.2195795774459839
-0.2529744505882263,4.092830657958984,-0.4822927713394165
-0.22784359753131866,4.156381607055664,-0.49037155508995056
-0.1955716609954834,4.088027000427246,-0.48290959000587463
-0.16584499180316925,4.069836616516113,-0.48139432072639465
-0.1386464387178421,4.10574197769165,-0.4859027564525604
-0.10928626358509064,4.079425811767578,-0.48301592469215393
-0.07895009219646454,3.983090400695801,-0.4718543291091919
-0.051274508237838745,3.9835050106048584,-0.47217047214508057
-0.023129059001803398,3.983733892440796,-0.4724583923816681
0.004429996479302645,3.9023525714874268,-0.46267443895339966
0.03123519942164421,3.863452672958374,-0.45795324444770813
0.05773324519395828,3.8398847579956055,-0.45507311820983887
0.04196861386299133,1.9080675840377808,-0.2260971963405609
0.05600988119840622,1.934885859489441,-0.22920092940330505
0.06997975707054138,1.9422268867492676,-0.22984515130519867
0.08279554545879364,1.9262232780456543,-0.22774295508861542
0.09579557925462723,1.9178838729858398,-0.22656016051769257
0.10847920179367065,1.9055827856063843,-0.22492201626300812
0.12121003121137619,1.897082805633545,-0.2236522138118744
0.1351417601108551,1.9039762020111084,-0.2240866869688034
0.1492389440536499,1.9146531820297241,-0.22498027980327606
0.16386716067790985,1.9290881156921387,-0.22631996870040894
0.17657171189785004,1.9202302694320679,-0.22493642568588257
0.18722893297672272,1.8920003175735474,-0.22116820514202118
0.20138448476791382,1.8984296321868896,-0.22138908505439758
0.21454603970050812,1.8970654010772705,-0.22071847319602966
0.23002827167510986,1.914872169494629,-0.222283273935318
0.2443152368068695,1.9210046529769897,-0.2224959433078766
0.25759726762771606,1.9193675518035889,-0.22164219617843628
0.27434059977531433,1.940670132637024,-0.22340495884418488
0.2831914722919464,1.9081149101257324,-0.2189924716949463
0.5142008066177368,3.306121587753296,-0.3782961368560791
0.5309549570083618,3.2643301486968994,-0.37235990166664124
0.5483248829841614,3.2301690578460693,-0.36705970764160156
0.5686018466949463,3.215039014816284,-0.36395955085754395
0.5870331525802612,3.188248634338379,-0.3595442473888397
0.6063148379325867,3.169029712677002,-0.3560327887535095
0.6237838864326477,3.1421031951904297,-0.35155999660491943
0.6454542279243469,3.1379551887512207,-0.3494832515716553
0.6638878583908081,3.1184582710266113,-0.34571951627731323
0.6833966970443726,3.1025454998016357,-0.3423483073711395
0.7015506625175476,3.0827887058258057,-0.33860543370246887
0.7192772030830383,3.06299090385437,-0.33469173312187195
0.7366980910301208,3.0431151390075684,-0.33073243498802185
0.7557590007781982,3.0306806564331055,-0.3276108205318451
0.7589033246040344,2.9539928436279297,-0.31755122542381287
0.7794602513313293,2.9488821029663086,-0.3152495324611664
0.7976877689361572,2.936218500137329,-0.3119469881057739
0.8157774806022644,2.923440456390381,-0.30865705013275146
0.8274213671684265,2.8881006240844727,-0.3030133545398712
0.8446199297904968,2.871232032775879,-0.2992996275424957
0.8386458158493042,2.7799947261810303,-0.2878268361091614
0.8393476605415344,2.7150144577026367,-0.27909356355667114
0.8790808320045471,2.776172399520874,-0.2833371162414551
0.8744202852249146,2.696277618408203,-0.2731718420982361
0.9082381129264832,2.734558343887329,-0.27496540546417236
0.9219440817832947,2.7138280868530273,-0.2706630229949951
0.9353874325752258,2.693039894104004,-0.26639410853385925
0.9539579749107361,2.6867966651916504,-0.2635689377784729
0.9859815239906311,2.7169103622436523,-0.264265775680542
1.0019774436950684,2.7030463218688965,-0.26056361198425293
1.0152384042739868,2.6817569732666016,-0.2560698688030243
1.025147557258606,2.653259754180908,-0.2509722113609314
1.0336390733718872,2.6209919452667236,-0.24552582204341888
1.0517768859863281,2.614053964614868,-0.24244087934494019
1.0636334419250488,2.5927248001098633,-0.23794607818126678
1.078550934791565,2.578411102294922,-0.2340843230485916
1.0903407335281372,2.5568180084228516,-0.22958356142044067
1.10194730758667,2.535153388977051,-0.22508934140205383
1.1191339492797852,2.5279054641723633,-0.2217848002910614
1.1330705881118774,2.513437271118164,-0.2178644835948944
1.1442286968231201,2.49153995513916,-0.21323689818382263
1.1533783674240112,2.4661223888397217,-0.20836982131004333
1.1667054891586304,2.4515092372894287,-0.20434753596782684
1.1832566261291504,2.443847417831421,-0.20092345774173737
1.1966283321380615,2.4289298057556152,-0.1968667209148407
1.2138620615005493,2.4206528663635254,-0.1932748705148697
1.2230433225631714,2.398829698562622,-0.18858450651168823
1.2391413450241089,2.3908329010009766,-0.18500970304012299
1.2447365522384644,2.3618052005767822,-0.17975859344005585
1.26480233669281,2.360248327255249,-0.17657625675201416
1.2694169282913208,2.3314504623413086,-0.1713232845067978
1.289044976234436,2.329845666885376,-0.16804495453834534
1.2995330095291138,2.3108787536621094,-0.1634511649608612
1.315285086631775,2.3022217750549316,-0.15957404673099518
1.3266485929489136,2.286947250366211,-0.15523089468479156
1.3183414936065674,2.2378599643707275,-0.14860926568508148
1.338262915611267,2.2353694438934326,-0.14496305584907532
1.33278489112854,2.193380355834961,-0.13882872462272644
1.3513679504394531,2.1914002895355225,-0.13527049124240875
1.3707351684570312,2.18880558013916,-0.13147945702075958
1.3707573413848877,2.156749963760376,-0.12592115998268127
1.3851042985916138,2.14780855178833,-0.12168331444263458
1.3998318910598755,2.1384832859039307,-0.11731340736150742
1.4056358337402344,2.1161978244781494,-0.11217928677797318
1.4150211811065674,2.1007590293884277,-0.1074438989162445
1.429355502128601,2.091264247894287,-0.10282961279153824
1.4391192197799683,2.0752949714660645,-0.09773878753185272
1.44347083568573,2.053428888320923,-0.09248499572277069
1.453116774559021,2.0372512340545654,-0.08721191436052322
1.4411070346832275,1.9932125806808472,-0.08079560101032257
1.47024667263031,2.0060043334960938,-0.0765894204378128
1.4744383096694946,1.9836992025375366,-0.07069507986307144
1.4192267656326294,1.9961082935333252,0.13845165073871613
1.4655205011367798,2.09196138381958,0.14949622750282288
1.4448868036270142,2.096435308456421,0.15409786999225616
1.4332480430603027,2.113471031188965,0.15950798988342285
1.429116129875183,2.1393983364105225,0.1653183251619339
1.4125441312789917,2.150020122528076,0.16988693177700043
1.4002071619033813,2.1669981479644775,0.17495939135551453
1.3932870626449585,2.1896119117736816,0.18021482229232788
1.3890228271484375,2.219602346420288,0.1860293745994568
1.3719946146011353,2.229814291000366,0.1902194768190384
1.3642969131469727,2.2524378299713135,0.19523775577545166
1.3515762090682983,2.268826723098755,0.1997205913066864
1.344229817390442,2.295445203781128,0.2050243467092514
1.3272511959075928,2.3049681186676025,0.2087647169828415
1.3187199831008911,2.3274543285369873,0.2135644406080246
1.301491141319275,2.336808443069458,0.21707724034786224
1.287363052368164,2.3531687259674072,0.22126948833465576
1.273873209953308,2.369020700454712,0.22532111406326294
1.2645028829574585,2.391347646713257,0.22992677986621857
1.2612537145614624,2.4278903007507324,0.23583489656448364
1.2360639572143555,2.423034906387329,0.237712100148201
1.217984914779663,2.431856155395508,0.24093088507652283
1.2095117568969727,2.4574806690216064,0.2457030564546585
1.2053269147872925,2.4938478469848633,0.25151634216308594
1.183524489402771,2.495361566543579,0.2537620961666107
1.174891710281372,2.52489972114563,0.258883535861969
1.1538360118865967,2.5257506370544434,0.2609905004501343
1.145365595817566,2.5548977851867676,0.2660672068595886
1.129740595817566,2.5700623989105225,0.26949694752693176
1.1169980764389038,2.5922861099243164,0.2736967206001282
1.1117316484451294,2.6322882175445557,0.2798040211200714
1.0962634086608887,2.646906614303589,0.2831839621067047
1.0830384492874146,2.6688499450683594,0.2873651385307312
1.0692672729492188,2.690866470336914,0.29140082001686096
1.0524133443832397,2.7055747509002686,0.29467397928237915
1.0370277166366577,2.7237188816070557,0.29832735657691956
1.0261204242706299,2.75247859954834,0.30312609672546387
1.0063679218292236,2.7594966888427734,0.30553147196769714
0.988933801651001,2.773796796798706,0.3085646331310272
0.9496171474456787,2.72562313079834,0.3046391010284424
0.9299759864807129,2.732144832611084,0.30680277943611145
0.9108505845069885,2.738344192504883,0.3089047074317932
0.8889486193656921,2.737126588821411,0.3101939558982849
0.8668363094329834,2.7358479499816895,0.3112490475177765
0.8734447956085205,2.8271472454071045,0.3228871822357178
0.8743017911911011,2.9037933349609375,0.33293774724006653
0.8560837507247925,2.917086601257324,0.33574146032333374
0.851709246635437,2.978759765625,0.34415072202682495
0.834260106086731,2.9995994567871094,0.3477466404438019
0.8208079934120178,3.0352869033813477,0.35298603773117065
0.802909791469574,3.055920362472534,0.35651084780693054
0.7850307822227478,3.0763821601867676,0.3600308895111084
0.7654324173927307,3.089110851287842,0.36265143752098083
0.7434595227241516,3.0942678451538086,0.3643959164619446
0.7257552146911621,3.1182174682617188,0.3681226670742035
0.7052200436592102,3.1307036876678467,0.37052133679389954
0.6861631870269775,3.150643825531006,0.37382903695106506
0.6656442880630493,3.1627964973449707,0.37622204422950745
0.6516805291175842,3.2090845108032227,0.38272058963775635
0.6291167736053467,3.2134170532226562,0.3841198980808258
0.6134433746337891,3.2557833194732666,0.3899223208427429
0.5971990823745728,3.298083782196045,0.39575397968292236
0.5770637392997742,3.321202516555786,0.39931732416152954
0.556061863899231,3.3403608798980713,0.40243059396743774
0.5364534854888916,3.366982936859131,0.40645790100097656
0.5162990689277649,3.393540382385254,0.4103447496891022
0.49563392996788025,3.4200167655944824,0.4141189754009247
0.47303271293640137,3.4348411560058594,0.41650885343551636
0.45135369896888733,3.46110200881958,0.4203226864337921
0.430124968290329,3.487130641937256,0.42411723732948303
0.41079577803611755,3.5322885513305664,0.4302709400653839
0.39023303985595703,3.573530912399292,0.43579113483428955
0.36825233697891235,3.606961965560913,0.4402622878551483
0.3439871072769165,3.6209557056427,0.4423874318599701
0.32149383425712585,3.6618599891662598,0.4478357434272766
0.2978118360042572,3.6871161460876465,0.4513893723487854
0.2746879756450653,3.7238149642944336,0.45637258887290955
0.2501962184906006,3.7487916946411133,0.4597499966621399
0.2273777574300766,3.8084614276885986,0.4672648310661316
0.2022641897201538,3.84865403175354,0.47242215275764465
0.1766921877861023,3.880913496017456,0.4766295552253723
0.1510356217622757,3.91686749458313,0.48131635785102844
0.1242751032114029,3.933274269104004,0.4836280643939972
0.09797226637601852,3.980527400970459,0.48958370089530945
0.07074552774429321,4.0392608642578125,0.4967982769012451
0.04304935410618782,4.086170673370361,0.5025830268859863
0.014633005484938622,4.1135029792785645,0.5059848427772522
-0.014140079729259014,4.16002082824707,0.5117720365524292
-0.04326942190527916,4.186953067779541,0.5151754021644592
-0.07363124191761017,4.233069896697998,0.5208210945129395
-0.10439664870500565,4.290633201599121,0.5276696681976318
-0.13361582159996033,4.2743449211120605,0.5254589319229126
-0.162807896733284,4.261729717254639,0.5237261056900024
-0.20101962983608246,4.450318813323975,0.5467376112937927
-0.2366616427898407,4.537903785705566,0.5573567748069763
-0.2724701464176178,4.598094940185547,0.5645196437835693
-0.3043121099472046,4.596188068389893,0.5637798309326172
-0.3451949954032898,4.717806816101074,0.5782061219215393
-0.4184397757053375,5.2217206954956055,0.6394508481025696
-0.45600128173828125,5.234247207641602,0.6404989361763
-0.49151408672332764,5.215558052062988,0.6377500295639038
-0.5401276350021362,5.335595607757568,0.6519174575805664
-0.5722551941871643,5.289504528045654,0.645423173904419
-0.47911524772644043,4.160675525665283,0.5070285797119141
-0.6393290758132935,5.235256195068359,0.6371846795082092
-0.6736934781074524,5.211555480957031,0.6335194706916809
-0.7177431583404541,5.264548301696777,0.6392133235931396
-0.7481423616409302,5.2173848152160645,0.6327306628227234
-0.7804099917411804,5.189336776733398,0.6281867027282715
-0.8159469366073608,5.184079647064209,0.6264361143112183
-0.8413861393928528,5.113410472869873,0.6168051958084106
-0.8786374926567078,5.119160175323486,0.6164445877075195
-0.9122298955917358,5.101670742034912,0.6133059859275818
-0.9391718506813049,5.04965353012085,0.6060128808021545
-0.9736474752426147,5.04337739944458,0.6038593649864197
-1.0050865411758423,5.0216383934021,0.5998846292495728
-1.052642583847046,5.075563430786133,0.6049405932426453
-1.0827739238739014,5.0456743240356445,0.6000376343727112
-1.1001404523849487,4.958742141723633,0.5883988738059998
-1.1405175924301147,4.977748870849609,0.589287519454956
-1.162710189819336,4.921091079711914,0.5809299349784851
-1.1930817365646362,4.898144245147705,0.5765696167945862
-1.2159514427185059,4.848811626434326,0.5691797137260437
-1.2213655710220337,4.731586933135986,0.5538665056228638
-1.2462739944458008,4.693258285522461,0.5478542447090149
-1.2785747051239014,4.684871673583984,0.5452029705047607
-1.3108127117156982,4.676292896270752,0.542288064956665
-1.3403486013412476,4.660166263580322,0.5385558009147644
-1.3697254657745361,4.643852233886719,0.5348325371742249
-1.110877275466919,3.671938896179199,0.42141690850257874
-1.1307168006896973,3.645822048187256,0.4169641435146332
-1.153580904006958,3.6307976245880127,0.41355112195014954
-1.4843424558639526,4.5650200843811035,0.5177951455116272
-1.5127284526824951,4.547874927520752,0.5137083530426025
-1.5576404333114624,4.578217029571533,0.5149638652801514
-1.6265392303466797,4.674022674560547,0.5235015749931335
-1.6418222188949585,4.615503787994385,0.5146483182907104
-1.6733312606811523,4.604596138000488,0.5108597874641418
-1.7069692611694336,4.600935459136963,0.5079355835914612
-1.7214512825012207,4.546122074127197,0.49940040707588196
-1.729324460029602,4.472795009613037,0.4888268709182739
-1.7847644090652466,4.522482395172119,0.4917214810848236
-1.8155605792999268,4.510662078857422,0.48753219842910767
-1.839850902557373,4.484452247619629,0.48186326026916504
-1.8878229856491089,4.515514850616455,0.4823557436466217
-1.9162170886993408,4.495547771453857,0.4772787094116211
-1.9352046251296997,4.4539713859558105,0.4699467420578003
-1.9655860662460327,4.441133975982666,0.4653245210647583
-1.9712111949920654,4.375215530395508,0.4552239775657654
-2.0101218223571777,4.38362979888916,0.45289716124534607
-2.055446147918701,4.40171480178833,0.4514114558696747
-2.0544357299804688,4.320980072021484,0.4398233890533447
-2.0801877975463867,4.300511360168457,0.43408647179603577
-2.098378896713257,4.266161918640137,0.42705559730529785
-2.1617588996887207,4.322084903717041,0.42900073528289795
-2.191859483718872,4.307416915893555,0.4237539768218994
-2.196202516555786,4.244471073150635,0.41372278332710266
-2.2277209758758545,4.237332344055176,0.4090176224708557
-2.2524056434631348,4.215965270996094,0.4028845429420471
-2.2887978553771973,4.214582443237305,0.39856401085853577
-2.235485553741455,4.049014091491699,0.3787972927093506
-2.2620902061462402,4.034741401672363,0.3731098771095276
-2.2962734699249268,4.033843040466309,0.3686474561691284
-2.312282085418701,3.9982621669769287,0.36083531379699707
-2.3442182540893555,3.9892053604125977,0.3553615212440491
-2.374504804611206,3.98087477684021,0.3497641980648041
-2.396397590637207,3.9591732025146484,0.34297090768814087
-2.4271576404571533,3.9500925540924072,0.3371151387691498
-2.4552838802337646,3.933248519897461,0.33031588792800903
-2.4765303134918213,3.9112496376037598,0.3229941427707672
-2.497556209564209,3.8891520500183105,0.3156929612159729
-2.520085573196411,3.865870714187622,0.30795741081237793
-2.546260118484497,3.8492629528045654,0.30059996247291565
-2.5930678844451904,3.865504741668701,0.295551061630249
-2.066011667251587,3.0364668369293213,0.22708119451999664
-2.049365282058716,2.967989683151245,0.21665701270103455
-2.059190273284912,2.9426209926605225,0.20939676463603973
-2.0648036003112793,2.9104979038238525,0.20156386494636536
-2.1034646034240723,2.9217047691345215,0.1961686909198761
-1.0734895467758179,1.4718140363693237,0.0956951454281807
-1.0878546237945557,1.4711860418319702,0.09231805056333542
-2.053513765335083,2.8793487548828125,-0.13189750909805298
-2.0359814167022705,2.900923728942871,-0.14051257073879242
-2.0907366275787354,3.0241172313690186,-0.15373921394348145
-2.0807127952575684,3.0589654445648193,-0.16279080510139465
-2.067185640335083,3.0865113735198975,-0.1711515635251999
-2.0575294494628906,3.1206157207489014,-0.17971734702587128
-2.0334975719451904,3.1358816623687744,-0.18735644221305847
-2.0175366401672363,3.1596407890319824,-0.19500599801540375
-2.334568738937378,3.715608835220337,-0.2365216463804245
-2.306629180908203,3.7324864864349365,-0.24476554989814758
-2.2802340984344482,3.7481558322906494,-0.252517968416214
-2.2524452209472656,3.7643871307373047,-0.26035359501838684
-2.224443197250366,3.780463457107544,-0.26805245876312256
-2.2033016681671143,3.8058149814605713,-0.2761785686016083
-2.170182466506958,3.8108112812042236,-0.2827218472957611
-2.1419334411621094,3.826216459274292,-0.2899908423423767
-2.115591049194336,3.844740390777588,-0.2974866032600403
-2.092334508895874,3.8657734394073486,-0.304909884929657
-2.0585360527038574,3.8700978755950928,-0.31092599034309387
-2.0391697883605957,3.901777744293213,-0.319162517786026
-2.0080063343048096,3.9086053371429443,-0.3251962959766388
-1.983189582824707,3.9294278621673584,-0.3324182629585266
-1.961393117904663,3.9571964740753174,-0.3400980532169342
-1.92922842502594,3.9637575149536133,-0.3459530472755432
-1.9047257900238037,3.983675241470337,-0.3528188467025757
-1.8794225454330444,4.003727912902832,-0.35963693261146545
-1.8502992391586304,4.0167155265808105,-0.36577537655830383
-1.8240911960601807,4.03666353225708,-0.37260937690734863
-1.7926232814788818,4.041673183441162,-0.3778728246688843
-1.769903540611267,4.068110466003418,-0.38501861691474915
-1.74049711227417,4.080229759216309,-0.390789657831192
-1.71430242061615,4.099190711975098,-0.3971980810165405
-1.6879820823669434,4.117953300476074,-0.40361425280570984
-1.658597707748413,4.129337310791016,-0.40909096598625183
-1.634580373764038,4.155086994171143,-0.41594958305358887
-1.6090328693389893,4.177009582519531,-0.42245036363601685
-1.579725742340088,4.187642574310303,-0.42775705456733704
-1.5521831512451172,4.205678939819336,-0.43377336859703064
-1.52200186252594,4.216171741485596,-0.4388394355773926
-1.4917479753494263,4.226441860198975,-0.44390493631362915
-1.4621604681015015,4.236247539520264,-0.44884681701660156
-1.4398062229156494,4.267996311187744,-0.4560748040676117
-1.1572003364562988,3.5137875080108643,-0.3785330653190613
-1.1618558168411255,3.6140079498291016,-0.39242175221443176
-1.1178205013275146,3.5623483657836914,-0.3898237347602844
-1.0974489450454712,3.5845131874084473,-0.3952692747116089
-1.0742048025131226,3.5992603302001953,-0.3996696472167969
-1.0464329719543457,3.598947525024414,-0.4023943245410919
-1.0025454759597778,3.542452096939087,-0.398836225271225
-0.98604816198349,3.578925609588623,-0.4056572914123535
-0.9699203372001648,3.6191439628601074,-0.41281604766845703
-0.9403693079948425,3.610525369644165,-0.41427677869796753
-0.9205074906349182,3.639305591583252,-0.4200546443462372
-0.8964092135429382,3.6529388427734375,-0.42414265871047974
-0.8726872801780701,3.6662912368774414,-0.4281788170337677
-0.8537209630012512,3.702291488647461,-0.4345644414424896
-0.8292427659034729,3.715468406677246,-0.4383082687854767
-0.8047104477882385,3.728461980819702,-0.4420536458492279
-0.7837836146354675,3.7603232860565186,-0.4480963945388794
-0.7574669122695923,3.7653920650482178,-0.45078322291374207
-0.7324158549308777,3.7779507637023926,-0.4541792869567871
-0.7058328986167908,3.7827086448669434,-0.456661581993103
-0.6834818720817566,3.8101589679718018,-0.461906373500824
-0.656429648399353,3.8146066665649414,-0.4644263684749603
-0.632171630859375,3.8341617584228516,-0.4684535264968872
-0.6040394306182861,3.830587148666382,-0.4696023464202881
-0.5806056261062622,3.857483148574829,-0.47451621294021606
-0.5548126697540283,3.8688554763793945,-0.4775451421737671
-0.5289427638053894,3.8839619159698486,-0.4810289740562439
-0.503718912601471,3.902742862701416,-0.4846125841140747
-0.47638052701950073,3.905965566635132,-0.48629286885261536
-0.4508233964443207,3.9243969917297363,-0.48989418148994446
-0.4218687117099762,3.911811113357544,-0.48963940143585205
-0.3977202773094177,3.9453232288360596,-0.4949835240840912
-0.375088632106781,4.005779266357422,-0.5035166144371033
-0.3497806489467621,4.039034843444824,-0.5086599588394165
-0.3234451413154602,4.064398288726807,-0.512846052646637
-0.2957180142402649,4.074121475219727,-0.5150887966156006
-0.27060315012931824,4.126240253448486,-0.5223785042762756
-0.23857958614826202,4.08152961730957,-0.5173094868659973
-0.20910058915615082,4.063643932342529,-0.5156458020210266
-0.18112154304981232,4.07264518737793,-0.5174164772033691
-0.15160876512527466,4.042727947235107,-0.5142633318901062
-0.12520146369934082,4.101744651794434,-0.5219784379005432
-0.09564529359340668,4.083118438720703,-0.5198357701301575
-0.06616440415382385,4.0216546058654785,-0.5122560262680054
-0.03782772645354271,3.979355812072754,-0.5071344971656799
-0.010077903978526592,3.948498010635376,-0.5033801794052124
0.017160598188638687,3.9058704376220703,-0.4977847635746002
0.0440652035176754,3.843677282333374,-0.4897216260433197
0.03675282374024391,1.9952607154846191,-0.25415799021720886
0.0484488382935524,1.9097458124160767,-0.24322178959846497
0.06270742416381836,1.9403709173202515,-0.2469807118177414
0.07557758688926697,1.9244393110275269,-0.24470305442810059
0.08857148885726929,1.9161652326583862,-0.24341417849063873
0.10253250598907471,1.9232698678970337,-0.24408642947673798
0.1138089969754219,1.887734293937683,-0.23936577141284943
0.12587034702301025,1.8714898824691772,-0.2369496375322342
0.1399964839220047,1.8860968351364136,-0.2383880615234375
0.15652699768543243,1.927639126777649,-0.243229940533638
0.16777895390987396,1.8995256423950195,-0.23928314447402954
0.18210311233997345,1.909953236579895,-0.24021294713020325
0.19415980577468872,1.8971691131591797,-0.23802289366722107
0.20857472717761993,1.9074300527572632,-0.23872987926006317
0.22090084850788116,1.898329734802246,-0.23702391982078552
0.23812834918498993,1.92759370803833,-0.24010147154331207
0.2505005896091461,1.9183059930801392,-0.2383384108543396
0.26798588037490845,1.9473758935928345,-0.2411784678697586
0.2781132757663727,1.9225729703903198,-0.2373548299074173
0.29375869035720825,1.9360542297363281,-0.23827029764652252
0.5163096785545349,3.247666835784912,-0.398423433303833
0.5426420569419861,3.267185688018799,-0.39939749240875244
0.5612521171569824,3.2406697273254395,-0.39460453391075134
0.5802097320556641,3.2178661823272705,-0.39030253887176514
0.5882865786552429,3.1377413272857666,-0.37910279631614685
0.6131197810173035,3.1490280628204346,-0.3789912462234497
0.6352751851081848,3.1449053287506104,-0.37672844529151917
0.6521997451782227,3.1179308891296387,-0.3717421591281891
0.6696525812149048,3.0946505069732666,-0.3672334551811218
0.6929172873497009,3.0977461338043213,-0.36586472392082214
0.7057496905326843,3.055304765701294,-0.3590877950191498
0.7289774417877197,3.0581278800964355,-0.357402503490448
0.7389727830886841,3.00808048248291,-0.3496117889881134
0.7598078846931458,3.003175973892212,-0.34710708260536194
0.7680109739303589,2.9492547512054443,-0.33897408843040466
0.7863770127296448,2.9366743564605713,-0.33548352122306824
0.802810788154602,2.916433095932007,-0.3310147821903229
0.8186341524124146,2.8961985111236572,-0.3266233503818512
0.8204178214073181,2.827314853668213,-0.3167895972728729
0.8079732656478882,2.713866949081421,-0.302078515291214
0.8266133069992065,2.708557367324829,-0.299288809299469
0.8664305806159973,2.769758939743042,-0.30376818776130676
0.8855847120285034,2.7640092372894287,-0.30088964104652405
0.9000255465507507,2.7433018684387207,-0.2963894009590149
0.9115228652954102,2.7152421474456787,-0.291012167930603
0.9011126756668091,2.6246984004974365,-0.2789698839187622
0.908791720867157,2.5894289016723633,-0.27291974425315857
0.9455826878547668,2.6344399452209473,-0.2752365171909332
0.9946814775466919,2.712071657180786,-0.2808479368686676
1.0050623416900635,2.6836843490600586,-0.2752969264984131
1.023411750793457,2.6770761013031006,-0.2720170021057129
1.0264229774475098,2.6303882598876953,-0.26468008756637573
1.0422332286834717,2.6161282062530518,-0.2606019377708435
1.0571484565734863,2.6020805835723877,-0.25646838545799255
1.0718963146209717,2.587955951690674,-0.25234657526016235
1.077605128288269,2.5521633625030518,-0.24613292515277863
1.092375636100769,2.5377378463745117,-0.2419871985912323
1.1100411415100098,2.530402183532715,-0.2383895218372345
1.120869755744934,2.508915662765503,-0.2335011214017868
1.1332082748413086,2.4908735752105713,-0.2289489209651947
1.1506098508834839,2.4832160472869873,-0.2253151834011078
1.1642552614212036,2.4685730934143066,-0.22099891304969788
1.1744862794876099,2.446791648864746,-0.21598605811595917
1.1877394914627075,2.432046890258789,-0.21165825426578522
1.1978226900100708,2.410040855407715,-0.20665332674980164
1.217776894569397,2.4090793132781982,-0.20341074466705322
1.230433464050293,2.3942060470581055,-0.19897745549678802
1.2431771755218506,2.37914776802063,-0.19450990855693817
1.2527652978897095,2.356804847717285,-0.18935495615005493
1.2686457633972168,2.3486135005950928,-0.1853591948747635
1.274980902671814,2.323289632797241,-0.1800367534160614
1.2909578084945679,2.3147637844085693,-0.17595486342906952
1.3031576871871948,2.2992732524871826,-0.17129957675933838
1.3148406744003296,2.283932685852051,-0.16657154262065887
1.3143218755722046,2.248474359512329,-0.16049356758594513
1.3180851936340332,2.219406843185425,-0.15478412806987762
1.333075761795044,2.21073055267334,-0.1505056768655777
1.3436294794082642,2.1954805850982666,-0.14578509330749512
1.3589223623275757,2.18634295463562,-0.14129194617271423
1.3655996322631836,2.1640379428863525,-0.13595421612262726
1.3776946067810059,2.1520044803619385,-0.13128265738487244
1.3921655416488647,2.142947196960449,-0.1267056167125702
1.3984267711639404,2.1204724311828613,-0.12119855731725693
1.4124987125396729,2.1113948822021484,-0.11640369147062302
1.4222073554992676,2.095702648162842,-0.11123695224523544
1.4277249574661255,2.0732810497283936,-0.10556759685277939
1.4455077648162842,2.070697546005249,-0.10091844946146011
1.4548845291137695,2.054809808731079,-0.09542249888181686
1.4074324369430542,1.9594403505325317,-0.08616799861192703
1.4589844942092896,2.0042853355407715,-0.0832417756319046
1.472862720489502,1.9943411350250244,-0.07748529314994812
1.4635993242263794,2.073512554168701,0.15846873819828033
1.4590660333633423,2.1000616550445557,0.16514980792999268
1.442495346069336,2.111043930053711,0.17060793936252594
1.435952067375183,2.133906364440918,0.1766742467880249
1.4240565299987793,2.1508066654205322,0.18211722373962402
1.40308678150177,2.154834032058716,0.1864558309316635
1.3920392990112305,2.1708598136901855,0.19148653745651245
1.3800997734069824,2.187293767929077,0.19649426639080048
1.3876641988754272,2.2372796535491943,0.20461806654930115
1.3754518032073975,2.253544807434082,0.2094973474740982
1.36537766456604,2.2729129791259766,0.2145722508430481
1.3480931520462036,2.2828197479248047,0.21865695714950562
1.338550090789795,2.3060550689697266,0.22404947876930237
1.3259258270263672,2.321928024291992,0.22857679426670074
1.3167247772216797,2.3446543216705322,0.23369666934013367
1.2990847826004028,2.354100227355957,0.23743028938770294
1.2889143228530884,2.377026081085205,0.24253368377685547
1.2685133218765259,2.3788022994995117,0.24534070491790771
1.2582392692565918,2.4014670848846436,0.25029700994491577
1.2438271045684814,2.4173569679260254,0.2544374167919159
1.229245662689209,2.4331600666046143,0.2585970461368561
1.2172584533691406,2.4518637657165527,0.26295480132102966
1.2033195495605469,2.4670424461364746,0.2669318616390228
1.188051462173462,2.482708692550659,0.2708742618560791
1.1762478351593018,2.5051674842834473,0.27555230259895325
1.1614222526550293,2.520298719406128,0.2793980538845062
1.1533474922180176,2.549285888671875,0.28475797176361084
1.1412453651428223,2.5714144706726074,0.28927192091941833
1.122301459312439,2.579416275024414,0.2921338975429535
1.1075341701507568,2.598134994506836,0.29626864194869995
1.1071194410324097,2.6485912799835205,0.3039660155773163
1.0885788202285767,2.6559462547302246,0.3067418932914734
1.0751304626464844,2.677861213684082,0.3110504150390625
1.064085841178894,2.7070164680480957,0.3161930441856384
1.0453566312789917,2.718151807785034,0.31929492950439453
1.0288995504379272,2.7324235439300537,0.32269880175590515
1.0151265859603882,2.75382661819458,0.32696130871772766
1.0031399726867676,2.7827017307281494,0.3319713771343231
0.9777121543884277,2.774998664855957,0.3325839042663574
0.9407468438148499,2.734156370162964,0.3292332887649536
0.9238755702972412,2.747821807861328,0.3323718309402466
0.8949543833732605,2.72445011138916,0.33101892471313477
0.8779128193855286,2.737884998321533,0.3340153098106384
0.8604511022567749,2.751309871673584,0.3369229733943939
0.8831751942634583,2.898329973220825,0.35630276799201965
0.8668849468231201,2.919177293777466,0.36022400856018066
0.8572962880134583,2.9621567726135254,0.366886705160141
0.8396909236907959,2.979032039642334,0.37032991647720337
0.8285595774650574,3.022151470184326,0.3768315613269806
0.810860812664032,3.0427722930908203,0.38056710362434387
0.7886262536048889,3.048372745513916,0.3824708163738251
0.772874653339386,3.0761678218841553,0.38714125752449036
0.7559763193130493,3.100090980529785,0.3913525342941284
0.7340921759605408,3.1051299571990967,0.3930608332157135
0.7170726656913757,3.1327710151672363,0.39751410484313965
0.697632908821106,3.1528351306915283,0.4010547399520874
0.6783924102783203,3.1726856231689453,0.40457883477211
0.6609610915184021,3.199913740158081,0.4090540409088135
0.6409099698066711,3.2156455516815186,0.4120902717113495
0.6210708618164062,3.2351467609405518,0.41541779041290283
0.608903706073761,3.3003602027893066,0.4245925545692444
0.5888091325759888,3.323512315750122,0.42838340997695923
0.5666080713272095,3.3350586891174316,0.4307015836238861
0.5471110939979553,3.361699342727661,0.43498557806015015
0.5284619927406311,3.395883321762085,0.44028031826019287
0.505212128162384,3.4071125984191895,0.4423641264438629
0.48383334279060364,3.42964506149292,0.4458853304386139
0.4637033939361572,3.463562250137329,0.4509178102016449
0.44124388694763184,3.481980562210083,0.4539613425731659
0.4211447834968567,3.519449472427368,0.4595124423503876
0.39920753240585327,3.5452589988708496,0.4635756313800812
0.3762781023979187,3.571035385131836,0.46737736463546753
0.35603585839271545,3.6236166954040527,0.4746650457382202
0.3333131670951843,3.6567981243133545,0.4794441759586334
0.30896052718162537,3.674387216567993,0.48220640420913696
0.2857652008533478,3.7072458267211914,0.48699823021888733
0.26141807436943054,3.736121654510498,0.49130696058273315
0.2392103672027588,3.799640417098999,0.4999105632305145
0.2150113433599472,3.843703031539917,0.5059139132499695
0.18959814310073853,3.876006841659546,0.5103988647460938
0.16346055269241333,3.9004006385803223,0.5138701796531677
0.13732759654521942,3.943979501724243,0.5199025869369507
0.11056041717529297,3.968010663986206,0.5233832597732544
0.08361993730068207,4.003509998321533,0.5281497836112976
0.05669479817152023,4.073691368103027,0.5373874306678772
0.02856302075088024,4.116580963134766,0.5430504679679871
-0.0006107467925176024,4.147655963897705,0.5471825003623962
-0.02976602129638195,4.190144062042236,0.5528472065925598
-0.059566885232925415,4.236297130584717,0.5590237975120544
-0.09018266201019287,4.293879508972168,0.5665345788002014
-0.12064628303050995,4.3164238929748535,0.5692402124404907
-0.14926600456237793,4.276825428009033,0.5637785196304321
-0.18007029592990875,4.291192054748535,0.565456211566925
-0.21975351870059967,4.491031646728516,0.5915950536727905
-0.28903087973594666,5.17001485824585,0.6808451414108276
-0.3268570601940155,5.198883533477783,0.6843279004096985
-0.367379754781723,5.262302398681641,0.6920461058616638
-0.4037797152996063,5.25199031829834,0.6900842189788818
-0.43911314010620117,5.237616539001465,0.6876341104507446
-0.4754297733306885,5.234566688537598,0.6867033243179321
-0.5151754021644592,5.265955448150635,0.690319299697876
-0.5710679888725281,5.447304725646973,0.713520884513855
-0.6010209321975708,5.370224952697754,0.7024566531181335
-0.617872953414917,5.196892261505127,0.6788939833641052
-0.6555352807044983,5.208077907562256,0.6794956922531128
-0.697174072265625,5.245845317840576,0.6835833191871643
-0.7314782738685608,5.225711345672607,0.6801507472991943
-0.7706148028373718,5.235942840576172,0.6806513667106628
-0.7988080978393555,5.181005477905273,0.6722818613052368
-0.8355340957641602,5.183304786682129,0.6713806986808777
-0.8607579469680786,5.1165618896484375,0.6615804433822632
-0.8973622918128967,5.118381500244141,0.6606817841529846
-0.9301787614822388,5.097009181976318,0.6568127274513245
-0.9625728130340576,5.07151985168457,0.6524146199226379
-0.9957031011581421,5.057519912719727,0.6491054892539978
-1.0317336320877075,5.058503150939941,0.6477519273757935
-1.0598703622817993,5.021293640136719,0.6415422558784485
-1.086148977279663,4.976304531097412,0.634377658367157
-1.1196961402893066,4.9612202644348145,0.6310274004936218
-1.1664167642593384,5.0064921379089355,0.635351300239563
-1.1868531703948975,4.942251205444336,0.6254090666770935
-1.2288620471954346,4.968277454376221,0.6269243955612183
-1.1947071552276611,4.693358898162842,0.5905784368515015
-1.2394262552261353,4.7302093505859375,0.5935161709785461
-1.2663193941116333,4.69932746887207,0.5879881381988525
-1.2966790199279785,4.683344841003418,0.5842424035072327
-1.3262989521026611,4.667364120483398,0.5802264213562012
-1.357886552810669,4.658654689788818,0.5771471858024597
-1.392228126525879,4.656994342803955,0.574927806854248
-1.123279333114624,3.6646642684936523,0.45083972811698914
-1.1441458463668823,3.642246723175049,0.44652214646339417
-1.466018795967102,4.558110237121582,0.556625485420227
-1.4967620372772217,4.548531532287598,0.5531507134437561
-1.5279994010925293,4.538563251495361,0.5496124625205994
-1.6094892024993896,4.675237655639648,0.5637999176979065
-1.6278619766235352,4.624078273773193,0.555260181427002
-1.6520768404006958,4.591182708740234,0.5489231944084167
-1.6949702501296997,4.613239288330078,0.5488292574882507
-1.7163784503936768,4.576780319213867,0.5417976975440979
-1.7559969425201416,4.587162494659424,0.5402871966362
-1.7879002094268799,4.57531213760376,0.536123514175415
-1.80829656124115,4.534346103668213,0.5285844802856445
-1.8418434858322144,4.529722690582275,0.5250173807144165
-1.8513206243515015,4.467564582824707,0.5147650837898254
-1.8908143043518066,4.476823806762695,0.5127290487289429
-1.9094041585922241,4.435631275177002,0.5049043893814087
-1.923137903213501,4.383582592010498,0.4958845376968384
-1.9559080600738525,4.378108978271484,0.49193522334098816
-2.0059118270874023,4.41152811050415,0.4922339916229248
-2.039041519165039,4.405434608459473,0.4880395531654358
-2.04787540435791,4.346098899841309,0.4779365360736847
-2.0883615016937256,4.353234767913818,0.4751352071762085
-2.114133834838867,4.332703590393066,0.4690747559070587
-2.135929822921753,4.305220603942871,0.46224555373191833
-2.177260160446167,4.315559387207031,0.45941483974456787
-2.210970401763916,4.307730197906494,0.4545048177242279
-2.1831929683685303,4.182554244995117,0.43728387355804443
-2.2308108806610107,4.206446647644043,0.4354778230190277
-2.288029193878174,4.247036933898926,0.4353293180465698
-2.2365310192108154,4.085231781005859,0.41441595554351807
-2.2562062740325928,4.052761077880859,0.40659961104393005
-2.275516986846924,4.024686813354492,0.39914748072624207
-2.305778980255127,4.017009735107422,0.39368435740470886
-2.3325605392456055,4.002127170562744,0.3874444365501404
-2.36454176902771,3.9929986000061035,0.38153162598609924
-2.387650489807129,3.970782995223999,0.3741346299648285
-2.413435220718384,3.9557902812957764,0.36745747923851013
-2.4397573471069336,3.9402430057525635,0.3606136739253998
-2.4632225036621094,3.9170727729797363,0.3528099060058594
-2.480530023574829,3.8883163928985596,0.34437212347984314
-2.5060524940490723,3.8725666999816895,0.3369763493537903
-2.5367109775543213,3.862544059753418,0.3298547863960266
-2.604262113571167,3.9073004722595215,0.3270593285560608
-2.6423213481903076,3.910593032836914,0.3205189108848572
-2.075308322906494,3.0289011001586914,0.24280548095703125
-2.0724217891693115,2.9793505668640137,0.23293884098529816
-2.0643153190612793,2.928447961807251,0.22310087084770203
-2.087768316268921,2.9218902587890625,0.216587632894516
-1.0803444385528564,1.4902337789535522,0.10711394250392914
-1.0826709270477295,1.4743272066116333,0.10257120430469513
-1.0993281602859497,1.4768435955047607,0.09911870211362839
-2.0380849838256836,2.880202293395996,-0.14272893965244293
-2.080960273742676,2.9879448413848877,-0.15619820356369019
-2.083894968032837,3.0376551151275635,-0.16640177369117737
-2.0777783393859863,3.079092025756836,-0.1764410436153412
-2.0640509128570557,3.106592893600464,-0.1852894127368927
-2.051867723464966,3.1375036239624023,-0.19422300159931183
-2.0259006023406982,3.14919376373291,-0.20199938118457794
-2.35418438911438,3.716489315032959,-0.24609410762786865
-2.3202996253967285,3.723367929458618,-0.254255086183548
-2.2924306392669678,3.7399909496307373,-0.26293429732322693
-2.2678699493408203,3.7589030265808105,-0.2714137136936188
-2.238572359085083,3.7712957859039307,-0.279333233833313
-2.2104997634887695,3.78720760345459,-0.28749576210975647
-2.1828060150146484,3.802622079849243,-0.2955130934715271
-2.1575233936309814,3.8208937644958496,-0.30350279808044434
-2.127350091934204,3.8327019214630127,-0.3109337091445923
-2.1049880981445312,3.8577280044555664,-0.31937164068222046
-2.074251651763916,3.864891767501831,-0.32610559463500977
-2.052964925765991,3.893235921859741,-0.33465713262557983
-2.0208959579467773,3.900580406188965,-0.3413088619709015
-1.9966583251953125,3.9211628437042236,-0.34897515177726746
-1.9723186492919922,3.941547393798828,-0.35656771063804626
-1.9400718212127686,3.948218584060669,-0.3628227114677429
-1.914108395576477,3.9688682556152344,-0.3704765737056732
-1.8895649909973145,3.9886040687561035,-0.37776878476142883
-1.8611406087875366,4.0013203620910645,-0.38434770703315735
-1.8353303670883179,4.021152019500732,-0.391541063785553
-1.8094679117202759,4.040748596191406,-0.3987249433994293
-1.784183144569397,4.059848308563232,-0.40575993061065674
-1.7547085285186768,4.072037220001221,-0.4121073782444
-1.7283018827438354,4.091134548187256,-0.41899195313453674
-1.6988507509231567,4.102820873260498,-0.42512810230255127
-1.6729552745819092,4.121217727661133,-0.43187060952186584
-1.6407802104949951,4.125147819519043,-0.43699321150779724
-1.6162000894546509,4.150905132293701,-0.44440701603889465
-1.6071103811264038,4.2162580490112305,-0.4560747742652893
-1.2935558557510376,3.4658961296081543,-0.3786519765853882
-1.2610466480255127,3.452542781829834,-0.3808436393737793
-1.2219443321228027,3.4207401275634766,-0.3807944655418396
-1.205968976020813,3.4547200202941895,-0.38813602924346924
-1.1866939067840576,3.4773194789886475,-0.3941343128681183
-1.1622767448425293,3.4850668907165527,-0.39844340085983276
-1.1398062705993652,3.500180721282959,-0.403373658657074
-1.1148258447647095,3.5077450275421143,-0.4074610471725464
-1.0942296981811523,3.5300052165985107,-0.4133109748363495
-1.0695314407348633,3.5370941162109375,-0.4173349142074585
-1.0467098951339722,3.5515589714050293,-0.42201459407806396
-1.0236190557479858,3.5659124851226807,-0.42664703726768494
-0.9983713030815125,3.572615623474121,-0.4303819239139557
-0.9784771800041199,3.5977773666381836,-0.4363413155078888
-0.9547287821769714,3.6117327213287354,-0.4409167468547821
-0.9291028380393982,3.6179938316345215,-0.4443157911300659
-0.9053403735160828,3.6315901279449463,-0.44864049553871155
-0.8816906809806824,3.644967555999756,-0.45294469594955444
-0.8597548007965088,3.6657183170318604,-0.458194762468338
-0.8368953466415405,3.6865198612213135,-0.4632083475589752
-0.8175156116485596,3.722245693206787,-0.4700591266155243
-0.7936777472496033,3.738905191421509,-0.4745493233203888
-0.7722204327583313,3.766754150390625,-0.4804830551147461
-0.7442894577980042,3.764098882675171,-0.4824243485927582
-0.7201414108276367,3.7842283248901367,-0.48707816004753113
-0.6934725642204285,3.7888641357421875,-0.48973098397254944
-0.6696412563323975,3.8085453510284424,-0.4943466782569885
-0.6431445479393005,3.812767267227173,-0.49697619676589966
-0.6201572418212891,3.8398196697235107,-0.5022889971733093
-0.5927949547767639,3.8438432216644287,-0.5045453906059265
-0.5680980086326599,3.862940549850464,-0.5087845921516418
