X,Y,Z
2.671776056289673,3.649275779724121,-0.07670919597148895
2.6952505111694336,3.6320652961730957,-0.07218970358371735
2.654235363006592,3.71937894821167,0.09492720663547516
2.6043448448181152,3.7067410945892334,0.09840245544910431
2.5511653423309326,3.6913256645202637,0.10168243199586868
1.052785038948059,1.546189308166504,0.043972574174404144
1.049730896949768,1.567055344581604,0.04593372717499733
1.0337474346160889,1.5682536363601685,0.04728391021490097
1.0225603580474854,1.5755259990692139,0.04875318333506584
1.0189731121063232,1.5963650941848755,0.05060533061623573
0.9988476037979126,1.5905758142471313,0.05158379673957825
0.9877389669418335,1.5974549055099487,0.05290067195892334
0.975793182849884,1.604736089706421,0.05420675873756409
0.9575371742248535,1.6020195484161377,0.05518243834376335
0.9800007343292236,1.6658252477645874,0.05839079990983009
1.3687989711761475,2.365604877471924,0.08432140946388245
1.8105157613754272,3.183408260345459,0.11531560122966766
1.7684859037399292,3.1622073650360107,0.11630887538194656
1.7573119401931763,3.1951098442077637,0.11926299333572388
1.761612057685852,3.259385585784912,0.1233205497264862
1.7484242916107178,3.292942762374878,0.12624908983707428
2.3627138137817383,4.526854991912842,0.17572975158691406
2.3311519622802734,4.543080806732178,0.17849701642990112
2.293593645095825,4.553308963775635,0.18096153438091278
2.260040521621704,4.569948673248291,0.1836525797843933
2.224245309829712,4.5786943435668945,0.18595534563064575
2.195605754852295,4.601044654846191,0.18879327178001404
2.162051200866699,4.6168060302734375,0.19124533236026764
2.13142728805542,4.639514923095703,0.19398438930511475
2.094461441040039,4.647656440734863,0.19610942900180817
2.0652170181274414,4.669164180755615,0.19873377680778503
2.0255956649780273,4.669379234313965,0.2003781497478485
1.7288930416107178,4.06607723236084,0.17585529386997223
1.7098541259765625,4.103651523590088,0.17885759472846985
1.6807042360305786,4.115594863891602,0.18072955310344696
1.6577444076538086,4.141635894775391,0.18320754170417786
1.6248817443847656,4.146179676055908,0.18461903929710388
1.5975955724716187,4.165053367614746,0.18667973577976227
1.5706154108047485,4.183564186096191,0.18871812522411346
1.5382112264633179,4.187195301055908,0.19008907675743103
1.5060601234436035,4.1904988288879395,0.1913861781358719
1.4757746458053589,4.201189994812012,0.19292978942394257
1.4530508518218994,4.233795642852783,0.195494145154953
1.4230852127075195,4.24389123916626,0.19701389968395233
1.3930121660232544,4.253786563873291,0.1985355168581009
1.3677915334701538,4.278286457061768,0.2006748616695404
1.337096929550171,4.287914752960205,0.20203928649425507
1.30629563331604,4.297333717346191,0.20340541005134583
1.2781881093978882,4.313854694366455,0.20510327816009521
1.2524280548095703,4.337588787078857,0.20714838802814484
1.2224647998809814,4.350119113922119,0.20864108204841614
1.19342839717865,4.366208076477051,0.21020206809043884
1.1621798276901245,4.374570846557617,0.21140426397323608
1.131237268447876,4.382617473602295,0.2125924527645111
1.1045209169387817,4.40546178817749,0.2144990861415863
1.0769355297088623,4.428293228149414,0.21641625463962555
1.0453764200210571,4.435799598693848,0.21742907166481018
1.013806939125061,4.443071365356445,0.21844054758548737
0.9856349229812622,4.4653401374816895,0.22020083665847778
0.9512754678726196,4.456779956817627,0.22043925523757935
0.9063422083854675,4.398384094238281,0.2182222157716751
0.754368245601654,3.7961690425872803,0.1888195127248764
0.7274446487426758,3.801384925842285,0.18953163921833038
0.8339879512786865,4.531614303588867,0.2264886498451233
0.807677686214447,4.56803560256958,0.22886596620082855
0.7765872478485107,4.581295490264893,0.23010589182376862
0.7432782649993896,4.5788726806640625,0.23050019145011902
0.7145022749900818,4.6071085929870605,0.23231840133666992
0.6865057349205017,4.642882823944092,0.23453307151794434
0.6537826657295227,4.647570610046387,0.23519067466259003
0.6208915114402771,4.652045249938965,0.2358509749174118
0.5909609794616699,4.675570964813232,0.23748332262039185
0.5590739250183105,4.687323093414307,0.23839198052883148
0.5278364419937134,4.70662260055542,0.23965463042259216
0.4955401122570038,4.717953681945801,0.2405247688293457
0.46405771374702454,4.736809730529785,0.24179022014141083
0.43120792508125305,4.747723579406738,0.24266764521598816
0.3997787535190582,4.770025253295898,0.2441076636314392
0.36601129174232483,4.7688069343566895,0.24419724941253662
0.33341315388679504,4.782914161682129,0.24508361518383026
0.3018554449081421,4.81626558303833,0.24696962535381317
0.2681626081466675,4.826058387756348,0.24766342341899872
0.2357281744480133,4.851170539855957,0.249153271317482
0.20289623737335205,4.876071453094482,0.25055211782455444
0.16925568878650665,4.889060974121094,0.2512473165988922
0.13533589243888855,4.897917747497559,0.25174251198768616
0.10124298185110092,4.9299516677856445,0.25344258546829224
0.06697147339582443,4.9305315017700195,0.25353726744651794
0.0327509269118309,4.946476936340332,0.2544347643852234
-0.0016506966203451157,4.96999454498291,0.2555808126926422
-0.03629530966281891,4.981572151184082,0.2560780942440033
-0.07191672176122665,5.004599571228027,0.2571743130683899
-0.10671507567167282,5.003983974456787,0.25706925988197327
-0.14239069819450378,5.034322261810303,0.2585664689540863
-0.17711439728736877,5.025419235229492,0.25805121660232544
-0.21288909018039703,5.047473430633545,0.2589520215988159
-0.24826236069202423,5.053685188293457,0.25905072689056396
-0.2880570590496063,5.125829219818115,0.2625347375869751
-0.3207395076751709,5.076996803283691,0.2598370611667633
-0.30170002579689026,4.300229072570801,0.2199266254901886
-0.3279264271259308,4.251372814178467,0.2172320932149887
-0.35858848690986633,4.264577388763428,0.21761554479599
-0.389289528131485,4.269741058349609,0.21759232878684998
-0.41157135367393494,4.193198204040527,0.21342472732067108
-0.4366486966609955,4.151455879211426,0.2110442817211151
-0.46160051226615906,4.11344575881958,0.20886823534965515
-0.4854390621185303,4.071439743041992,0.2064022272825241
-0.5046514272689819,3.994427442550659,0.2021205872297287
-0.5301231145858765,3.9754111766815186,0.2007974088191986
-0.5505523085594177,3.9214515686035156,0.19772368669509888
-0.5743588805198669,3.894402503967285,0.19602131843566895
-0.5930831432342529,3.83636212348938,0.1927735060453415
-0.6154235005378723,3.805213451385498,0.1907311975955963
-0.633712112903595,3.754772663116455,0.18774716556072235
-0.6553562879562378,3.7273223400115967,0.185930535197258
-0.6734641790390015,3.6805052757263184,0.18315881490707397
-0.6961271166801453,3.6604340076446533,0.18173255026340485
-0.7130698561668396,3.613471031188965,0.17893022298812866
-0.7319058179855347,3.577887773513794,0.17662598192691803
-0.7458388209342957,3.523216962814331,0.173408642411232
-0.7700027823448181,3.5180530548095703,0.17264123260974884
-0.7771840691566467,3.4365487098693848,0.16814130544662476
-0.8027872443199158,3.438709259033203,0.1677529364824295
-0.8201899528503418,3.406555652618408,0.16557888686656952
-0.8376539945602417,3.3782296180725098,0.16361083090305328
-0.8528732061386108,3.342254638671875,0.1612882763147354
-0.8700846433639526,3.313657283782959,0.15932676196098328
-0.8910706639289856,3.300034523010254,0.15809667110443115
-0.9067739844322205,3.267460584640503,0.155901238322258
-0.9224985837936401,3.238764524459839,0.15386894345283508
-0.9334982633590698,3.1950225830078125,0.1511411815881729
-0.9520734548568726,3.1773626804351807,0.1496555507183075
-0.9672695398330688,3.148329257965088,0.14764055609703064
-0.9870124459266663,3.134060859680176,0.14628948271274567
-1.0081655979156494,3.1273696422576904,0.1452389806509018
-1.0170488357543945,3.0834741592407227,0.14247599244117737
-1.029342532157898,3.0506231784820557,0.1402372568845749
-1.0454270839691162,3.0286877155303955,0.13850362598896027
-1.0611581802368164,3.00671124458313,0.13676902651786804
-1.07639741897583,2.9847512245178223,0.1349615454673767
-1.0883607864379883,2.9555187225341797,0.13285432755947113
-1.1042996644973755,2.937145471572876,0.13124214112758636
-1.1051480770111084,2.878422975540161,0.12783047556877136
-1.1307156085968018,2.885300397872925,0.12733393907546997
-1.1315165758132935,2.830467939376831,0.12404271215200424
-1.1416391134262085,2.801179885864258,0.12191131711006165
-1.1547105312347412,2.7789695262908936,0.12009109556674957
-1.1542571783065796,2.72418475151062,0.1168685033917427
-1.148165225982666,2.658917188644409,0.11320711672306061
-1.1552023887634277,2.6260976791381836,0.11089999228715897
-1.169539213180542,2.611243486404419,0.10938245803117752
-1.1907196044921875,2.6102893352508545,0.10842595994472504
-1.2022379636764526,2.5878500938415527,0.10657632350921631
-1.2412381172180176,2.6256682872772217,0.10715444386005402
-1.2487703561782837,2.5961830615997314,0.10494917631149292
-1.2610118389129639,2.5772814750671387,0.10319429636001587
-1.2719683647155762,2.5545144081115723,0.10126140713691711
-1.2823686599731445,2.531872272491455,0.0993267297744751
-1.2955089807510376,2.5164501667022705,0.09764856100082397
-1.3012441396713257,2.48713755607605,0.09544862806797028
-1.3114367723464966,2.464158773422241,0.09343807399272919
-1.3228650093078613,2.444788694381714,0.09158577024936676
-1.3351436853408813,2.4292538166046143,0.08984898030757904
-1.3396631479263306,2.4000260829925537,0.08762265741825104
-1.3561787605285645,2.3907883167266846,0.08608365803956985
-1.365077018737793,2.367764949798584,0.08401676267385483
-1.3962253332138062,2.385850429534912,0.08338620513677597
-1.3838281631469727,2.329758405685425,0.0801749974489212
-1.3858954906463623,2.2967214584350586,0.07771383225917816
-1.4197123050689697,2.3173437118530273,0.07705417275428772
-1.4390825033187866,2.314621925354004,0.07555435597896576
-1.4503049850463867,2.298434019088745,0.07360328733921051
-1.4261893033981323,2.225904703140259,0.06983716785907745
-1.4574769735336304,2.2429490089416504,0.06888152658939362
-1.4417550563812256,2.1879568099975586,0.06572315096855164
-1.4442211389541626,2.1582510471343994,0.06321549415588379
-1.4670740365982056,2.161741256713867,0.061700738966464996
-1.4697394371032715,2.136324405670166,0.0593598335981369
-1.4845436811447144,2.126119375228882,0.057308755815029144
-1.4937163591384888,2.110177516937256,0.0550956092774868
-1.498295545578003,2.0877842903137207,0.05266452953219414
-1.5035290718078613,2.0647804737091064,0.05010728910565376
-1.516282320022583,2.0554862022399902,0.047879017889499664
-1.4980740547180176,2.0978174209594727,-0.04079871624708176
-1.491480827331543,2.1215898990631104,-0.04336390644311905
-1.4955424070358276,2.161564826965332,-0.046243928372859955
-1.4714232683181763,2.1591293811798096,-0.048093006014823914
-1.481014609336853,2.2091660499572754,-0.051121845841407776
-1.4693912267684937,2.2262308597564697,-0.053321048617362976
-1.4445123672485352,2.223799705505371,-0.0550166592001915
-1.431931495666504,2.2411463260650635,-0.057157330214977264
-1.4202150106430054,2.2577738761901855,-0.059187691658735275
-1.4264965057373047,2.3044402599334717,-0.062004923820495605
-1.433607816696167,2.355011224746704,-0.06496737152338028
-1.4005486965179443,2.338428020477295,-0.0660337284207344
-1.3879157304763794,2.354969024658203,-0.06796333193778992
-1.3900548219680786,2.3988966941833496,-0.07069448381662369
-1.3533855676651,2.37488055229187,-0.07139244675636292
-1.3520573377609253,2.411465644836426,-0.07386600226163864
-1.3340131044387817,2.421442747116089,-0.07553048431873322
-1.3235704898834229,2.4448909759521484,-0.07759831100702286
-1.308244228363037,2.457500457763672,-0.07926979660987854
-1.3016589879989624,2.4874165058135986,-0.08149553835391998
-1.2940996885299683,2.517676830291748,-0.08372816443443298
-1.2755229473114014,2.5270867347717285,-0.08528789132833481
-1.2613825798034668,2.542844295501709,-0.0870005264878273
-1.2791458368301392,2.625425100326538,-0.09101122617721558
-1.2432068586349487,2.5993688106536865,-0.0912519246339798
-1.216247797012329,2.590491533279419,-0.0920628234744072
-1.1850899457931519,2.5704901218414307,-0.09243232756853104
-1.1696468591690063,2.586076498031616,-0.09406169503927231
-1.1540684700012207,2.6015615463256836,-0.09565289318561554
-1.168092131614685,2.6848976612091064,-0.09976652264595032
-1.158583641052246,2.714451789855957,-0.10189279913902283
-1.1559463739395142,2.7621376514434814,-0.10470040142536163
-1.1445434093475342,2.7921628952026367,-0.10684430599212646
-1.1331716775894165,2.8220036029815674,-0.10898229479789734
-1.117795467376709,2.8406689167022705,-0.11067375540733337
-1.1063448190689087,2.8702144622802734,-0.11279474198818207
-1.107790231704712,2.936460018157959,-0.11631566286087036
-1.0890229940414429,2.951744556427002,-0.1178617775440216
-1.0722121000289917,2.97029709815979,-0.11951560527086258
-1.059281349182129,2.9997336864471436,-0.12161514163017273
-1.0455880165100098,3.029273509979248,-0.1236790344119072
-1.0338428020477295,3.0662269592285156,-0.12604038417339325
-1.0128031969070435,3.0773022174835205,-0.1273643970489502
-1.0009185075759888,3.1139564514160156,-0.12972766160964966
-0.9861672520637512,3.1431658267974854,-0.1317882537841797
-0.9614591002464294,3.1426050662994385,-0.13252413272857666
-0.9501922130584717,3.1867353916168213,-0.1351586878299713
-0.9310169219970703,3.204540729522705,-0.136685311794281
-0.9125398397445679,3.2260329723358154,-0.13838785886764526
-0.8981450796127319,3.262423276901245,-0.1406858265399933
-0.882988691329956,3.298849105834961,-0.1429460197687149
-0.8683696985244751,3.338992118835449,-0.14538709819316864
-0.8430817127227783,3.3373751640319824,-0.14601172506809235
-0.8268669843673706,3.3735415935516357,-0.14830996096134186
-0.8121239542961121,3.417208433151245,-0.1508670151233673
-0.7887806296348572,3.4266390800476074,-0.15188413858413696
-0.7678899765014648,3.4473378658294678,-0.15341170132160187
-0.7569969296455383,3.51360821723938,-0.1569785624742508
-0.7392517924308777,3.5532279014587402,-0.15938936173915863
-0.7203918695449829,3.5889129638671875,-0.16153621673583984
-0.7009440660476685,3.624530792236328,-0.16366812586784363
-0.680314838886261,3.656214475631714,-0.1656389683485031
-0.6645020842552185,3.7146010398864746,-0.16883081197738647
-0.6402207612991333,3.730706214904785,-0.17012789845466614
-0.624160885810852,3.7966859340667725,-0.1735857129096985
-0.5999038219451904,3.8163673877716064,-0.17491105198860168
-0.5782952904701233,3.855189561843872,-0.1771279126405716
-0.5580334067344666,3.90545392036438,-0.1798851042985916
-0.5361190438270569,3.9518139362335205,-0.18248917162418365
-0.29001474380493164,2.256387710571289,-0.10440176725387573
-0.27318838238716125,2.250612497329712,-0.104323610663414
-0.25470587611198425,2.2292027473449707,-0.10352302342653275
-0.24087554216384888,2.246425151824951,-0.10451868921518326
-0.22526192665100098,2.2480316162109375,-0.10479416698217392
-0.20786017179489136,2.2340219020843506,-0.10429327934980392
-0.1942543387413025,2.2587366104125977,-0.10557364672422409
-0.17908450961112976,2.2678093910217285,-0.10612981766462326
-0.16325777769088745,2.2689948081970215,-0.10632233321666718
-0.14695817232131958,2.2622792720794678,-0.10614893585443497
-0.12954074144363403,2.2398862838745117,-0.10519573092460632
-0.11544991284608841,2.271908760070801,-0.10675545036792755
-0.09923012554645538,2.264859199523926,-0.10648488253355026
-0.08430422842502594,2.288886785507202,-0.10768095403909683
-0.14994731545448303,5.019547939300537,-0.23630176484584808
-0.1130591481924057,4.961963653564453,-0.23368529975414276
-0.07825368642807007,4.947024345397949,-0.23295533657073975
-0.04361720755696297,4.931842803955078,-0.23222534358501434
-0.009285200387239456,4.91641902923584,-0.23149530589580536
0.024864759296178818,4.916364669799805,-0.23150016367435455
0.02631368115544319,2.1693122386932373,-0.10214148461818695
0.042135078459978104,2.2080929279327393,-0.1038995310664177
0.05664908513426781,2.176546096801758,-0.10235318541526794
0.07306192815303802,2.215101718902588,-0.10410817712545395
0.08907902985811234,2.2301394939422607,-0.10476146638393402
0.10384602099657059,2.213879346847534,-0.10394956916570663
0.11694258451461792,2.1663436889648438,-0.10158709436655045
0.13054868578910828,2.1421191692352295,-0.10032746195793152
0.1453913003206253,2.1411707401275635,-0.10016430169343948
0.15824486315250397,2.112877130508423,-0.0987277701497078
0.1831129789352417,2.236182689666748,-0.104374960064888
0.4171135127544403,4.687350273132324,-0.2183961570262909
0.4502256512641907,4.692151069641113,-0.21821315586566925
0.48066917061805725,4.66954231262207,-0.216766357421875
0.5114145874977112,4.650598049163818,-0.21550096571445465
0.5446825623512268,4.654702186584473,-0.21531419456005096
0.5755594372749329,4.635287761688232,-0.21393203735351562
0.6055284142494202,4.615759372711182,-0.21251076459884644
0.6341866254806519,4.588306427001953,-0.2107391506433487
0.6671046614646912,4.591555595397949,-0.2103874832391739
0.6954362392425537,4.563699245452881,-0.20862174034118652
0.7256325483322144,4.547178268432617,-0.2072817087173462
0.756840169429779,4.542128086090088,-0.20640644431114197
0.7880523204803467,4.536856651306152,-0.2055300772190094
0.8111331462860107,4.485246181488037,-0.20256581902503967
0.7067641019821167,3.7585089206695557,-0.16922388970851898
0.7327576875686646,3.753563642501831,-0.16842645406723022
0.7620839476585388,3.7636871337890625,-0.16822847723960876
0.9264537692070007,4.419177055358887,-0.1967822164297104
0.9595072269439697,4.424144268035889,-0.19625899195671082
0.9885209202766418,4.409799575805664,-0.1948850452899933
1.0145150423049927,4.383913993835449,-0.19295065104961395
1.0468355417251587,4.384385585784912,-0.19209541380405426
1.0767860412597656,4.377178192138672,-0.19092734158039093
1.1051055192947388,4.3621134757995605,-0.1894175410270691
1.1315211057662964,4.3392558097839355,-0.18757663667201996
1.1613835096359253,4.331413269042969,-0.18632188439369202
1.189353585243225,4.315777778625488,-0.184656023979187
1.2187837362289429,4.307615756988525,-0.18333709239959717
1.244271159172058,4.284125328063965,-0.18136245012283325
1.2718278169631958,4.267937183380127,-0.17970730364322662
1.2964597940444946,4.244256973266602,-0.17766712605953217
1.328161597251892,4.242685794830322,-0.176500603556633
1.3546171188354492,4.2261762619018555,-0.17474035918712616
1.3815643787384033,4.209290027618408,-0.17295213043689728
1.4158347845077515,4.21442174911499,-0.17207379639148712
1.4356023073196411,4.178913116455078,-0.16944149136543274
1.4665364027023315,4.176496505737305,-0.16815544664859772
1.48765230178833,4.144211769104004,-0.16564977169036865
1.5218006372451782,4.148494243621826,-0.16461732983589172
1.5421733856201172,4.116026878356934,-0.16210412979125977
1.5671303272247314,4.098299026489258,-0.1601131409406662
1.5975933074951172,4.094968318939209,-0.15869192779064178
1.617637276649475,4.061959266662598,-0.15608108043670654
1.6517421007156372,4.065138339996338,-0.15488258004188538
1.6733258962631226,4.039473533630371,-0.15251567959785461
1.7126214504241943,4.056961536407471,-0.1517598032951355
1.9915852546691895,4.62986946105957,-0.17155888676643372
2.0274288654327393,4.622895240783691,-0.16960106790065765
2.0654296875,4.623233318328857,-0.16790153086185455
2.093127965927124,4.602264404296875,-0.16537517309188843
2.123917579650879,4.588217735290527,-0.1631077229976654
2.155768632888794,4.573421955108643,-0.16075469553470612
2.19290828704834,4.56881046295166,-0.1587177813053131
2.223313570022583,4.55417537689209,-0.15630829334259033
2.2518842220306396,4.535839557647705,-0.15378020703792572
2.2796740531921387,4.513274192810059,-0.15104921162128448
2.314465045928955,4.504396915435791,-0.14876283705234528
2.3443286418914795,4.489011287689209,-0.14620506763458252
1.731968641281128,3.262613534927368,-0.10474125295877457
1.7396409511566162,3.223137378692627,-0.10193023830652237
1.7467267513275146,3.1837782859802246,-0.09913493692874908
1.7543864250183105,3.148369312286377,-0.09645577520132065
1.7675026655197144,3.1231484413146973,-0.09410581737756729
1.3631089925765991,2.369351387023926,-0.07010695338249207
1.3140314817428589,2.2488934993743896,-0.06532596796751022
0.9482490420341492,1.5987567901611328,-0.04556211084127426
0.9650813937187195,1.6023755073547363,-0.04475172236561775
0.9741836190223694,1.5923130512237549,-0.043528519570827484
0.9806168675422668,1.5792039632797241,-0.04219675064086914
0.9909788370132446,1.5727524757385254,-0.04105857387185097
1.0166287422180176,1.5888797044754028,-0.040440481156110764
1.0079392194747925,1.55269455909729,-0.038493622094392776
1.022231936454773,1.552711844444275,-0.0374610610306263
1.0396515130996704,1.5552469491958618,-0.036384787410497665
1.049844741821289,1.5484141111373901,-0.035094935446977615
1.0685690641403198,1.5545756816864014,-0.03408898040652275
2.5631251335144043,3.6740942001342773,-0.07760390639305115
2.59114146232605,3.6640305519104004,-0.07440057396888733
2.619877338409424,3.6532256603240967,-0.07102326303720474
2.6445930004119873,3.635443925857544,-0.06734739243984222
2.6833956241607666,3.640984296798706,-0.06410033255815506
2.6080315113067627,3.6807169914245605,0.07809177041053772
2.5840184688568115,3.7070634365081787,0.08180191367864609
1.056341528892517,1.5392510890960693,0.03518744930624962
1.0558747053146362,1.563161015510559,0.03692193701863289
1.0438425540924072,1.571189284324646,0.03826426714658737
1.0177536010742188,1.5556148290634155,0.03892653435468674
1.0211412906646729,1.5859761238098145,0.04071545600891113
1.0049060583114624,1.5870440006256104,0.04175785556435585
0.9831833839416504,1.5776004791259766,0.04245583713054657
0.9819496273994446,1.60128915309906,0.044007763266563416
0.9698846340179443,1.6085951328277588,0.04510609433054924
0.9583577513694763,1.6154594421386719,0.04615078493952751
1.3703080415725708,2.347168445587158,0.06824678927659988
1.8480252027511597,3.2211475372314453,0.09525924175977707
1.783957600593567,3.1631922721862793,0.09506697207689285
1.7618485689163208,3.1755049228668213,0.0968763530254364
1.774473786354065,3.253181219100952,0.10068000108003616
1.7466338872909546,3.2592992782592773,0.10226762294769287
2.382927656173706,4.526206016540527,0.14393939077854156
2.3441383838653564,4.528762340545654,0.14583522081375122
2.31131911277771,4.545525550842285,0.1481182724237442
2.2743124961853027,4.55535364151001,0.1501457244157791
2.241494655609131,4.571518421173096,0.15234829485416412
2.209066390991211,4.5872039794921875,0.15451711416244507
2.176107883453369,4.602859973907471,0.15659889578819275
2.1424055099487305,4.618573188781738,0.15864714980125427
2.112180471420288,4.640984058380127,0.16092023253440857
2.076594591140747,4.648396968841553,0.16262702643871307
2.0468852519989014,4.67001485824585,0.16480422019958496
1.9891281127929688,4.631171226501465,0.16479060053825378
1.7221189737319946,4.091314792633057,0.14675948023796082
1.6933856010437012,4.10323429107666,0.14832647144794464
1.6676969528198242,4.122109889984131,0.15014630556106567
1.6409456729888916,4.141177654266357,0.15190637111663818
1.6104086637496948,4.153092384338379,0.15341512858867645
1.5778151750564575,4.157179355621338,0.15461300313472748
1.5515892505645752,4.175316333770752,0.1563093066215515
1.5197254419326782,4.178659439086914,0.15744253993034363
1.4843847751617432,4.174725532531738,0.15818440914154053
1.4588850736618042,4.200188159942627,0.1600646674633026
1.4340420961380005,4.225179195404053,0.1619134247303009
1.4046263694763184,4.2350006103515625,0.16317342221736908
1.3820881843566895,4.2669878005981445,0.16526955366134644
1.3514784574508667,4.276736736297607,0.16642719507217407
1.3202269077301025,4.286441326141357,0.1676063984632492
1.2921078205108643,4.303108215332031,0.16904336214065552
1.2665125131607056,4.326938152313232,0.17076118290424347
1.2361340522766113,4.3356709480285645,0.17186269164085388
1.2071830034255981,4.351882457733154,0.17316986620426178
1.176070213317871,4.360353946685791,0.17417815327644348
1.145607829093933,4.372450351715088,0.17534686625003815
1.119003176689148,4.395407676696777,0.1769392490386963
1.0882892608642578,4.403073787689209,0.17791663110256195
1.0587573051452637,4.418261528015137,0.17908687889575958
1.0290642976760864,4.433250427246094,0.18026012182235718
0.9987538456916809,4.4481425285339355,0.1814488172531128
0.9677513241767883,4.4549560546875,0.18229757249355316
0.9351400136947632,4.453904628753662,0.18283158540725708
0.765730082988739,3.779449462890625,0.15554259717464447
0.7404361963272095,3.7924153804779053,0.1564560830593109
0.7252933979034424,3.862847089767456,0.15976305305957794
0.82175612449646,4.551469802856445,0.1887091100215912
0.7887278199195862,4.549357891082764,0.1890934407711029
0.7607005834579468,4.5778422355651855,0.19070805609226227
0.7307990193367004,4.598495006561279,0.191929429769516
0.6989383101463318,4.6113152503967285,0.19284148514270782
0.6676459908485413,4.623812675476074,0.1937427818775177
0.6375877857208252,4.643787384033203,0.19496507942676544
0.6052679419517517,4.648086071014404,0.19553998112678528
0.5759304165840149,4.679321765899658,0.19711074233055115
0.5430015325546265,4.683239936828613,0.1975259631872177
0.5102941393852234,4.6947503089904785,0.19827638566493988
0.47990190982818604,4.721475124359131,0.19967402517795563
0.44778379797935486,4.732451915740967,0.2004164308309555
0.4161304831504822,4.750996112823486,0.20143499970436096
0.3840228021144867,4.769350051879883,0.202348530292511
0.35030290484428406,4.775847911834717,0.202771857380867
0.31836584210395813,4.801540374755859,0.20401865243911743
0.2854464054107666,4.811418533325195,0.20460309088230133
0.25281307101249695,4.828864574432373,0.20552007853984833
0.220198392868042,4.853896141052246,0.2066604495048523
0.18657802045345306,4.8787336349487305,0.20776084065437317
0.15288017690181732,4.891615390777588,0.20836184918880463
0.11896529048681259,4.900361061096191,0.20879696309566498
0.08525465428829193,4.924479007720947,0.20989756286144257
0.051261529326438904,4.948363780975342,0.2109888792037964
0.016255104914307594,4.9642157554626465,0.2115986943244934
-0.01835326850414276,4.972016334533691,0.2118765115737915
-0.053277477622032166,4.999087810516357,0.21298547089099884
-0.08804882317781448,4.998598575592041,0.2129303514957428
-0.12300771474838257,5.005670070648193,0.21320758759975433
-0.15803532302379608,5.0125017166137695,0.21341703832149506
-0.19345496594905853,5.011269569396973,0.21318653225898743
-0.22999829053878784,5.048803329467773,0.21461749076843262
-0.2668670415878296,5.082171440124512,0.2158793807029724
-0.30310171842575073,5.095787525177002,0.21631087362766266
-0.28648558259010315,4.310841083526611,0.18287520110607147
-0.3133716881275177,4.262024879455566,0.18058902025222778
-0.34150275588035583,4.244215965270996,0.17959366738796234
-0.3721637427806854,4.257322311401367,0.17991474270820618
-0.3994792699813843,4.231339931488037,0.17859195172786713
-0.4237779974937439,4.177995681762695,0.1761261224746704
-0.4490779936313629,4.136111736297607,0.1741408407688141
-0.47174161672592163,4.0825371742248535,0.17156653106212616
-0.4941632151603699,4.032721996307373,0.16916583478450775
-0.5174251198768616,3.9944052696228027,0.16726164519786835
-0.5387902855873108,3.944333076477051,0.16487714648246765
-0.5616443753242493,3.9056782722473145,0.16297869384288788
-0.5827810168266296,3.8631339073181152,0.16088025271892548
-0.6043686866760254,3.8282310962677,0.15905679762363434
-0.623636782169342,3.7816555500030518,0.15676233172416687
-0.6410788297653198,3.727285861968994,0.15415941178798676
-0.6600779294967651,3.684345006942749,0.1520419418811798
-0.6832938194274902,3.6642520427703857,0.15087324380874634
-0.7024089097976685,3.6288628578186035,0.14898160099983215
-0.7203153967857361,3.589555501937866,0.1469367891550064
-0.7369230389595032,3.5463523864746094,0.1447480469942093
-0.7524834871292114,3.4992048740386963,0.14240892231464386
-0.775542676448822,3.4861960411071777,0.14146362245082855
-0.799575924873352,3.4807894229888916,0.1407901495695114
-0.8106930255889893,3.422112464904785,0.13792233169078827
-0.8312612175941467,3.405150890350342,0.13675084710121155
-0.8470337986946106,3.3691012859344482,0.13482189178466797
-0.8649548292160034,3.3403871059417725,0.13318713009357452
-0.8790351748466492,3.30039644241333,0.13111425936222076
-0.8952223658561707,3.271799087524414,0.12942549586296082
-0.9089508056640625,3.2356181144714355,0.1274515688419342
-0.9265835881233215,3.2143971920013428,0.12607961893081665
-0.9492951035499573,3.2077949047088623,0.1252676248550415
-0.9613516330718994,3.167536973953247,0.12316299229860306
-0.9781768918037415,3.146066904067993,0.1217290610074997
-0.9923068284988403,3.117100954055786,0.12000627815723419
-1.00246262550354,3.076953411102295,0.11786922067403793
-1.0216764211654663,3.0624313354492188,0.11670127511024475
-1.0429363250732422,3.0552899837493896,0.11583087593317032
-1.0481947660446167,3.003952980041504,0.113242968916893
-1.060531735420227,2.974799156188965,0.11149028688669205
-1.0805126428604126,2.967634439468384,0.110572449862957
-1.0860787630081177,2.9198625087738037,0.1081361174583435
-1.098385214805603,2.8902461528778076,0.10637785494327545
-1.1179187297821045,2.8827826976776123,0.10540264844894409
-1.1214230060577393,2.8353261947631836,0.10296478122472763
-1.1375066041946411,2.8205299377441406,0.10172846913337708
-1.154133677482605,2.8053619861602783,0.10046150535345078
-1.1618603467941284,2.7683656215667725,0.09841525554656982
-1.163468360900879,2.721081018447876,0.09597279876470566
-1.153558611869812,2.6488535404205322,0.09268176555633545
-1.1651026010513306,2.626756429672241,0.09116236120462418
-1.1721317768096924,2.5937013626098633,0.08925479650497437
-1.2016478776931763,2.61031436920166,0.08903149515390396
-1.2107219696044922,2.5846128463745117,0.08734996616840363
-1.2430243492126465,2.6082518100738525,0.08733545243740082
-1.2780132293701172,2.6347897052764893,0.08737217634916306
-1.2634437084197998,2.5593650341033936,0.08403567224740982
-1.2807055711746216,2.550809621810913,0.08285646885633469
-1.2868596315383911,2.5214734077453613,0.0810241848230362
-1.2931289672851562,2.491936445236206,0.07917995750904083
-1.3068418502807617,2.4759836196899414,0.07775462418794632
-1.3160672187805176,2.4534201622009277,0.07610482722520828
-1.3266164064407349,2.4344370365142822,0.07456529885530472
-1.3394695520401,2.418503999710083,0.07309316843748093
-1.348547101020813,2.3955838680267334,0.07140910625457764
-1.3605830669403076,2.3798141479492188,0.06992582231760025
-1.3917310237884521,2.3979618549346924,0.06942328065633774
-1.3998994827270508,2.375126838684082,0.06769715249538422
-1.416688084602356,2.3651914596557617,0.06629146635532379
-1.4280742406845093,2.3492374420166016,0.06470799446105957
-1.418684720993042,2.300075054168701,0.06223253533244133
-1.4469112157821655,2.3101587295532227,0.061304282397031784
-1.443652629852295,2.270693302154541,0.0590510331094265
-1.458484172821045,2.2612338066101074,0.057564131915569305
-1.4606808423995972,2.231900930404663,0.05556296184659004
-1.4890203475952148,2.241320848464966,0.05447258800268173
-1.4552443027496338,2.160581111907959,0.051195964217185974
-1.4649258852005005,2.1446125507354736,0.04946744069457054
-1.480049967765808,2.134242296218872,0.04775518178939819
-1.4867669343948364,2.115299701690674,0.045874860137701035
-1.4870452880859375,2.0864298343658447,0.043741706758737564
-1.5055824518203735,2.0827765464782715,0.04206806421279907
-1.513823390007019,2.067155599594116,0.04015316814184189
-1.518542766571045,2.0442991256713867,0.037953976541757584
-1.4857943058013916,2.097075939178467,-0.03455820307135582
-1.51271390914917,2.1688334941864014,-0.037463027983903885
-1.4970983266830444,2.179610013961792,-0.039260778576135635
-1.480131983757019,2.191133499145508,-0.041094936430454254
-1.477666974067688,2.2209675312042236,-0.04313530772924423
-1.4612336158752441,2.231781005859375,-0.04479623958468437
-1.4635052680969238,2.2721848487854004,-0.04705348238348961
-1.4371861219406128,2.265798568725586,-0.0482516847550869
-1.426318645477295,2.286442756652832,-0.05003482103347778
-1.4174472093582153,2.310267448425293,-0.05186735466122627
-1.4094130992889404,2.333414316177368,-0.05361810699105263
-1.4163542985916138,2.3838539123535156,-0.05600428581237793
-1.3749970197677612,2.3537917137145996,-0.056491535156965256
-1.3775315284729004,2.3974239826202393,-0.05870771035552025
-1.34505295753479,2.379939317703247,-0.05939379334449768
-1.3388142585754395,2.4102602005004883,-0.061255041509866714
-1.3288480043411255,2.4335484504699707,-0.06293239444494247
-1.315596342086792,2.449573516845703,-0.06439279764890671
-1.3029835224151611,2.4695260524749756,-0.06595013290643692
-1.2920600175857544,2.4928321838378906,-0.0675826147198677
-1.281509518623352,2.5157816410064697,-0.06918463855981827
-1.2674227952957153,2.531611680984497,-0.07058831304311752
-1.2627034187316895,2.5687923431396484,-0.072563536465168
-1.248693823814392,2.5886099338531494,-0.07408265769481659
-1.2255141735076904,2.5866734981536865,-0.07492949813604355
-1.210740566253662,2.6022047996520996,-0.07627381384372711
-1.178891658782959,2.582453966140747,-0.07654167711734772
-1.1697149276733398,2.6122822761535645,-0.07828161865472794
-1.151364803314209,2.620389699935913,-0.07935383915901184
-1.1621270179748535,2.696582317352295,-0.08252229541540146
-1.1624313592910767,2.7516088485717773,-0.0850110575556755
-1.1515026092529297,2.7815401554107666,-0.08674782514572144
-1.1435452699661255,2.8185269832611084,-0.0887073203921318
-1.1267486810684204,2.8336563110351562,-0.08998226374387741
-1.1132453680038452,2.859915018081665,-0.09159030020236969
-1.1148579120635986,2.92620587348938,-0.09447036683559418
-1.0966414213180542,2.9413845539093018,-0.09571631997823715
-1.0828624963760376,2.96724271774292,-0.09730018675327301
-1.0699658393859863,2.996771812438965,-0.09900156408548355
-1.0558542013168335,3.0265629291534424,-0.10068738460540771
-1.036698818206787,3.0413973331451416,-0.1018759235739708
-1.0239746570587158,3.074492931365967,-0.10367535054683685
-1.0025328397750854,3.0815200805664062,-0.10460181534290314
-0.9901511073112488,3.1182773113250732,-0.1064976379275322
-0.9674582481384277,3.125361919403076,-0.10737849026918411
-0.9586920142173767,3.177000045776367,-0.10979222506284714
-0.9398587346076965,3.194803476333618,-0.11103837192058563
-0.9240508675575256,3.2237560749053955,-0.11268412321805954
-0.9053055644035339,3.2452585697174072,-0.11398515850305557
-0.892423152923584,3.2892658710479736,-0.1160890981554985
-0.8707160353660583,3.3031256198883057,-0.11714937537908554
-0.8544885516166687,3.3355507850646973,-0.11886075139045715
-0.8405745625495911,3.3792998790740967,-0.12097644805908203
-0.822058916091919,3.4079267978668213,-0.12248659133911133
-0.8005432486534119,3.4250481128692627,-0.12359367311000824
-0.7777262926101685,3.4382810592651367,-0.12457428127527237
-0.7638255953788757,3.4893410205841064,-0.12692460417747498
-0.7499879598617554,3.544206142425537,-0.12940560281276703
-0.7296304702758789,3.5723400115966797,-0.13085180521011353
-0.710421085357666,3.6080219745635986,-0.13258731365203857
-0.6912145614624023,3.6474926471710205,-0.13448086380958557
-0.6686283946037292,3.667551040649414,-0.13566040992736816
-0.6524415612220764,3.725938558578491,-0.1382434070110321
-0.6307333707809448,3.7573659420013428,-0.13976074755191803
-0.6116768717765808,3.8079469203948975,-0.1420048028230667
-0.5874878764152527,3.8314812183380127,-0.14325781166553497
-0.5664360523223877,3.8740854263305664,-0.1452280730009079
-0.5447993874549866,3.91658353805542,-0.14718309044837952
-0.5198222398757935,3.9396491050720215,-0.14831724762916565
-0.2789384424686432,2.234990119934082,-0.08429693430662155
-0.26326945424079895,2.2368812561035156,-0.08452741801738739
-0.24830442667007446,2.2464377880096436,-0.08505374938249588
-0.231061652302742,2.232571601867676,-0.08468892425298691
-0.21541465818881989,2.2341294288635254,-0.08484455943107605
-0.19802014529705048,2.2161383628845215,-0.08426105976104736
-0.18186888098716736,2.2096831798553467,-0.08411893248558044
-0.1682920753955841,2.238154649734497,-0.08531264960765839
-0.15217798948287964,2.2314774990081787,-0.08516999334096909
-0.13659560680389404,2.2324814796447754,-0.08526645600795746
-0.27451783418655396,5.067000389099121,-0.19365310668945312
-0.2381998747587204,5.049291133880615,-0.1931113749742508
-0.20090286433696747,5.011839866638184,-0.19182434678077698
-0.16525350511074066,4.989700794219971,-0.19112847745418549
-0.1299755573272705,4.971218109130859,-0.19045785069465637
-0.09531558305025101,4.9720025062561035,-0.19047929346561432
-0.06046056002378464,4.956932544708252,-0.18990261852741241
-0.025324277579784393,4.941622257232666,-0.18932612240314484
0.008993799798190594,4.918257713317871,-0.18845000863075256
0.043121978640556335,4.910271644592285,-0.18810845911502838
0.07713855057954788,4.9020514488220215,-0.18769393861293793
0.11055567115545273,4.874085426330566,-0.18653322756290436
0.14397932589054108,4.8575968742370605,-0.18582141399383545
0.177753284573555,4.840858459472656,-0.18510834872722626
0.21031738817691803,4.816115856170654,-0.18406268954277039
0.24325768649578094,4.806758403778076,-0.18348944187164307
0.2741033732891083,4.7621002197265625,-0.1815793663263321
0.3066036105155945,4.75230598449707,-0.18100950121879578
0.3408302962779999,4.757811546325684,-0.18102703988552094
0.3720948398113251,4.7319865226745605,-0.17986460030078888
0.40484458208084106,4.729312896728516,-0.17944426834583282
0.43545860052108765,4.703087329864502,-0.1781400740146637
0.4656863212585449,4.676670551300049,-0.17684055864810944
0.4987279176712036,4.67327880859375,-0.17641566693782806
0.5298718214035034,4.658079624176025,-0.17555934190750122
0.5620183348655701,4.654331207275391,-0.17502059042453766
0.5901283621788025,4.619391441345215,-0.17328989505767822
0.620911717414856,4.607497692108154,-0.17243549227714539
0.6534814238548279,4.603013038635254,-0.17185689508914948
0.6820699572563171,4.5752058029174805,-0.1704242080450058
0.7112964391708374,4.554974555969238,-0.16920357942581177
0.7420413494110107,4.546136856079102,-0.16836944222450256
0.7720025777816772,4.5332512855529785,-0.16739524900913239
0.7993344664573669,4.504751682281494,-0.16585199534893036
0.8283229470252991,4.483658790588379,-0.1645844727754593
0.7209569811820984,3.757108688354492,-0.13746277987957
0.7482022643089294,3.759763717651367,-0.13706426322460175
0.9142667651176453,4.435130596160889,-0.1611057072877884
0.9424954056739807,4.417273044586182,-0.15988080203533173
0.9737778306007385,4.410512924194336,-0.15905308723449707
1.0068466663360596,4.415125846862793,-0.1585940569639206
1.035282015800476,4.400557994842529,-0.15738420188426971
1.064447283744812,4.389610767364502,-0.15631383657455444
1.0929045677185059,4.374598026275635,-0.1551002413034439
1.123827338218689,4.366790771484375,-0.15413567423820496
1.1498918533325195,4.343883037567139,-0.1526072472333908
1.1753495931625366,4.320919036865234,-0.15103206038475037
1.2068870067596436,4.3203606605529785,-0.1502474546432495
1.2281092405319214,4.281930446624756,-0.14814649522304535
1.2561924457550049,4.265674114227295,-0.14680805802345276
1.289959192276001,4.271938800811768,-0.1462012231349945
1.312050461769104,4.2407307624816895,-0.14427410066127777
1.3408879041671753,4.231740474700928,-0.14311300218105316
1.3701521158218384,4.222395896911621,-0.1419321894645691
1.3975497484207153,4.205219745635986,-0.1404770463705063
1.4261455535888672,4.195650100708008,-0.13922789692878723
1.453264832496643,4.1822428703308105,-0.13783729076385498
1.4816412925720215,4.172316074371338,-0.13656631112098694
1.5079892873764038,4.154601573944092,-0.13502514362335205
1.531374216079712,4.129428386688232,-0.13324648141860962
1.559723138809204,4.118849277496338,-0.1318589299917221
1.5931470394134521,4.122828006744385,-0.13095778226852417
1.6156560182571411,4.097319602966309,-0.12911063432693481
1.6441338062286377,4.086019515991211,-0.12770570814609528
1.663133144378662,4.053055763244629,-0.1255909502506256
1.6968551874160767,4.05603551864624,-0.12454044073820114
1.8067950010299683,4.238537311553955,-0.1289689540863037
2.018301248550415,4.644925594329834,-0.14000217616558075
2.05037522315979,4.630909442901611,-0.13824084401130676
2.0781033039093018,4.610022068023682,-0.1362084150314331
2.109468460083008,4.595808506011963,-0.13435553014278412
2.1377296447753906,4.574166774749756,-0.13228021562099457
2.1761913299560547,4.573352813720703,-0.13079601526260376
2.2085120677948,4.562227249145508,-0.1289595067501068
2.237159013748169,4.54395055770874,-0.1269182413816452
2.2616424560546875,4.514406204223633,-0.12451200187206268
2.301846742630005,4.516021251678467,-0.12296679615974426
2.332080125808716,4.5005388259887695,-0.12090819329023361
2.3764514923095703,4.512661933898926,-0.11957380175590515
1.7325161695480347,3.236341953277588,-0.0845295712351799
1.747471570968628,3.2105579376220703,-0.08261077851057053
1.7502355575561523,3.1645376682281494,-0.08013969659805298
1.757643222808838,3.1291511058807373,-0.07798437029123306
1.808087706565857,3.167947292327881,-0.07761762291193008
1.3871046304702759,2.39192533493042,-0.0575757771730423
0.952990710735321,1.6188371181488037,-0.038255587220191956
0.9578185677528381,1.602371096611023,-0.03714127466082573
0.9709811210632324,1.599021315574646,-0.036308061331510544
0.9796047210693359,1.5891872644424438,-0.03532184660434723
0.9920077323913574,1.5861032009124756,-0.03448382765054703
0.9923252463340759,1.5628414154052734,-0.033179957419633865
1.0221110582351685,1.5855345726013184,-0.03281575068831444
1.0237449407577515,1.56586754322052,-0.0315762422978878
1.0277405977249146,1.5492260456085205,-0.03037681058049202
1.0339324474334717,1.5357129573822021,-0.029214315116405487
1.0547415018081665,1.5452187061309814,-0.028479628264904022
2.550830125808716,3.682875156402588,-0.06553319096565247
2.5798838138580322,3.672179937362671,-0.0629446804523468
2.6120054721832275,3.668642997741699,-0.06047100946307182
2.64169979095459,3.657007932662964,-0.05763384699821472
2.690382480621338,3.6747753620147705,-0.0551987960934639
2.72355055809021,3.669781446456909,-0.05226707085967064
2.620962381362915,3.671868324279785,0.059553638100624084
2.5848467350006104,3.6782546043395996,0.06221858412027359
2.5521092414855957,3.691502571105957,0.06493911892175674
1.0532033443450928,1.5462737083435059,0.02814127691090107
1.0544489622116089,1.5736935138702393,0.029571477323770523
1.0234763622283936,1.5520530939102173,0.030040735378861427
1.022937297821045,1.575723648071289,0.031346842646598816
1.010952115058899,1.5834203958511353,0.032317351549863815
0.9931323528289795,1.5808179378509521,0.033043745905160904
0.9841088056564331,1.5910266637802124,0.0339994877576828
0.9761938452720642,1.6050255298614502,0.035027917474508286
0.9601256251335144,1.6055750846862793,0.03576362133026123
0.9845923185348511,1.6727807521820068,0.03795617073774338
1.3890403509140015,2.399885892868042,0.05541663616895676
1.8037316799163818,3.1705055236816406,0.07445922493934631
1.7660108804702759,3.1558804512023926,0.07529030740261078
1.758461594581604,3.195765256881714,0.0774199366569519
1.7570823431015015,3.2498645782470703,0.07985850423574448
1.7569209337234497,3.3075149059295654,0.0824141725897789
2.364764928817749,4.527751445770264,0.11429113894701004
2.339705467224121,4.558270454406738,0.11651577800512314
2.294978380203247,4.554681777954102,0.11785479635000229
2.2581567764282227,4.564289569854736,0.11949972808361053
2.2229461669921875,4.572812557220459,0.12105027586221695
2.1905875205993652,4.5883564949035645,0.12276351451873779
2.163625717163086,4.618342876434326,0.12480583786964417
2.1265928745269775,4.6268720626831055,0.12627558410167694
2.0937163829803467,4.6417975425720215,0.12788957357406616
2.0676701068878174,4.670502185821533,0.12986478209495544
2.0243639945983887,4.6638617515563965,0.1307823807001114
1.7443397045135498,4.099874019622803,0.11593509465456009
1.701674461364746,4.079676151275635,0.11630602180957794
1.677148461341858,4.102441310882568,0.11790161579847336
1.6507580280303955,4.121510028839111,0.1193300411105156
1.6237210035324097,4.140591621398926,0.12073032557964325
1.5909315347671509,4.144902229309082,0.12170524150133133
1.5647931098937988,4.163150787353516,0.12306343019008636
1.5352970361709595,4.174084186553955,0.12422657012939453
1.5026007890701294,4.177635192871094,0.1250740885734558
1.4776602983474731,4.203049659729004,0.12658007442951202
1.4425708055496216,4.198678493499756,0.12718844413757324
1.4257395267486572,4.245602130889893,0.1293429583311081
1.393076777458191,4.2481818199157715,0.13015586137771606
1.3673328161239624,4.272910118103027,0.13155624270439148
1.3389787673950195,4.290032386779785,0.132732555270195
1.3062437772750854,4.291921615600586,0.1334371268749237
1.278560996055603,4.3083672523498535,0.13458873331546783
1.2505857944488525,4.324671745300293,0.13572856783866882
1.2233874797821045,4.348643779754639,0.13704398274421692
1.1933298110961914,4.3610100746154785,0.13799402117729187
1.1613876819610596,4.365559101104736,0.13869938254356384
1.131949782371521,4.377291202545166,0.13962975144386292
1.1004674434661865,4.381260871887207,0.14031362533569336
1.0770390033721924,4.423230171203613,0.14212730526924133
1.043733835220337,4.423161506652832,0.14259251952171326
1.0175237655639648,4.453274250030518,0.1440383344888687
0.9831702709197998,4.444969177246094,0.14423945546150208
0.952207088470459,4.451682090759277,0.14493396878242493
0.9202287793159485,4.458382606506348,0.1455410122871399
0.7529491186141968,3.783188581466675,0.1238107681274414
0.7261484265327454,3.788407564163208,0.12429799139499664
0.8356372117996216,4.530544757843018,0.14902718365192413
0.8074211478233337,4.555466175079346,0.15023446083068848
0.774921715259552,4.561089992523193,0.1507648229598999
0.7451180219650269,4.581860542297363,0.15173983573913574
0.7163018584251404,4.610145568847656,0.15297338366508484
0.6839549541473389,4.615039825439453,0.15343740582466125
0.6540217399597168,4.635133266448975,0.15441277623176575
0.622252345085144,4.64736795425415,0.15513435006141663
0.5910155177116394,4.663238048553467,0.15586428344249725
0.5600950717926025,4.682769775390625,0.1567251831293106
0.5271382331848145,4.686582565307617,0.15706872940063477
0.49615615606307983,4.705655574798584,0.1579297035932541
0.4649340510368347,4.724523544311523,0.15879295766353607
0.4313577115535736,4.727697372436523,0.15908178687095642
0.40014827251434326,4.753941059112549,0.16010017693042755
0.3682916760444641,4.776085376739502,0.1609897017478943
0.33601146936416626,4.794111728668213,0.1617487221956253
0.30314648151397705,4.8041181564331055,0.16224513947963715
0.2699844241142273,4.821728229522705,0.1630101054906845
0.23704905807971954,4.839090824127197,0.16364383697509766
0.20420703291893005,4.864029407501221,0.1645382195711136
0.17048200964927673,4.873137474060059,0.16490547358989716
0.13706323504447937,4.893715858459473,0.16566909849643707
0.102542944252491,4.90236759185791,0.16603872179985046
0.06851910799741745,4.910768032073975,0.16635391116142273
0.03457818552851677,4.950166702270508,0.1676364541053772
9.118860907619819e-05,4.965904712677002,0.16812527179718018
