X,Y,Z
0.35024288296699524,4.325593948364258,0.9984426498413086
0.3156122863292694,4.270769119262695,0.9863190650939941
0.2862364649772644,4.280235290527344,0.9890830516815186
0.2507512867450714,4.1869072914123535,0.9681254625320435
0.22131489217281342,4.1921467781066895,0.9700044393539429
0.09162526577711105,1.999759316444397,0.46293383836746216
0.16029883921146393,4.129924297332764,0.9561288952827454
0.18454168736934662,5.8007097244262695,1.343104600906372
0.14416730403900146,5.809357643127441,1.3453409671783447
0.10394074022769928,5.863390922546387,1.358161211013794
0.06401117146015167,5.9437713623046875,1.377152919769287
0.022823195904493332,5.985819339752197,1.3873378038406372
-0.018816068768501282,5.985848903656006,1.387270450592041
-0.06099390983581543,6.038945198059082,1.3991913795471191
-0.10319306701421738,6.008023262023926,1.3917068243026733
-0.14590463042259216,6.045302867889404,1.4000940322875977
-0.18859504163265228,6.067065238952637,1.404953122138977
-0.23145003616809845,6.084722518920898,1.4089285135269165
-0.2743883728981018,6.098275661468506,1.4120208024978638
-0.18828564882278442,3.6259779930114746,0.8391067385673523
-0.2115340530872345,3.586758852005005,0.8295015096664429
-0.4098165035247803,6.217469215393066,1.437066674232483
-0.45390087366104126,6.229991436004639,1.4391942024230957
-0.501804769039154,6.28392219543457,1.4509434700012207
-0.5566651225090027,6.409556865692139,1.4793007373809814
-0.5153725147247314,5.484745502471924,1.2652852535247803
-0.5531222820281982,5.481538772583008,1.2632389068603516
-0.691784143447876,6.413161277770996,1.4764714241027832
-0.741142213344574,6.454195499420166,1.4845174551010132
-0.7811916470527649,6.4116644859313965,1.4734046459197998
-0.8202648758888245,6.357429504394531,1.4596614837646484
-0.8563331961631775,6.291722297668457,1.443398118019104
-0.8987801671028137,6.2787275314331055,1.4389492273330688
-0.9464120864868164,6.3033061027526855,1.442533016204834
-0.9979732632637024,6.35011625289917,1.4512460231781006
-1.049102783203125,6.385134696960449,1.4572715759277344
-1.1031243801116943,6.434814929962158,1.4666941165924072
-1.1533446311950684,6.457771301269531,1.4700649976730347
-1.2088122367858887,6.506580829620361,1.4793683290481567
-1.2592990398406982,6.529019832611084,1.4819653034210205
-1.3181381225585938,6.592312812805176,1.4935925006866455
-1.3717628717422485,6.621358871459961,1.4974377155303955
-1.4276535511016846,6.661288738250732,1.5038163661956787
-1.4649537801742554,6.611260890960693,1.489920973777771
-1.5025509595870972,6.56472635269165,1.4769117832183838
-1.540197730064392,6.52179479598999,1.4645839929580688
-0.6789282560348511,2.788832426071167,0.6248007416725159
-0.6932698488235474,2.7661564350128174,0.6183021664619446
-0.7140066623687744,2.769287347793579,0.6176065802574158
-0.7361627817153931,2.775869131088257,0.6176737546920776
-0.7575619220733643,2.7785634994506836,0.6168877482414246
-1.7350281476974487,6.1910576820373535,1.3714362382888794
-1.777184247970581,6.180448055267334,1.365295648574829
-1.808302879333496,6.13295841217041,1.3509725332260132
-1.8398979902267456,6.088987827301025,1.3375358581542969
-1.870622992515564,6.040984630584717,1.3232483863830566
-1.8998035192489624,5.985154151916504,1.3072410821914673
-1.933431625366211,5.947600841522217,1.2954018115997314
-1.964495301246643,5.90664529800415,1.282294750213623
-1.9909296035766602,5.854864597320557,1.2666566371917725
-2.0204591751098633,5.8138346672058105,1.2534607648849487
-2.0553641319274902,5.786857604980469,1.2433065176010132
-2.079773187637329,5.726762294769287,1.2259767055511475
-2.1147725582122803,5.699118137359619,1.2157728672027588
-2.1401541233062744,5.650303840637207,1.2005549669265747
-2.183891534805298,5.651631832122803,1.1958054304122925
-2.241739511489868,5.688307762145996,1.198540210723877
-2.3089804649353027,5.741672039031982,1.204529047012329
-2.3494226932525635,5.726981163024902,1.1962385177612305
-2.3690383434295654,5.662447929382324,1.1776413917541504
-2.4101290702819824,5.655261516571045,1.1702611446380615
-2.4664900302886963,5.68299674987793,1.170068383216858
-3.6897263526916504,8.347256660461426,1.7097841501235962
-2.542192220687866,5.644918918609619,1.1501230001449585
-2.5629172325134277,5.586775302886963,1.1322095394134521
-3.9395651817321777,8.436408996582031,1.7000261545181274
-2.620708703994751,5.517072677612305,1.1050019264221191
-2.648313283920288,5.480268955230713,1.0908331871032715
-2.699974536895752,5.491337299346924,1.0861105918884277
-2.7388808727264404,5.47409725189209,1.0756736993789673
-2.7334401607513428,5.371147632598877,1.0483598709106445
-2.7657549381256104,5.348014831542969,1.0362404584884644
-2.7530932426452637,5.239446640014648,1.007753610610962
-2.797283411026001,5.235613822937012,0.9991541504859924
-2.8879313468933105,5.315863609313965,1.0063965320587158
-2.867138385772705,5.1932244300842285,0.9750388264656067
-2.865895986557007,5.112288475036621,0.9513421654701233
-1.2057645320892334,2.1185386180877686,0.3907087445259094
-2.9325850009918213,5.0698957443237305,0.9259046912193298
-1.2203404903411865,2.0763401985168457,0.37548181414604187
-1.250162959098816,2.0955212116241455,0.3749794065952301
-2.9240310192108154,4.830498695373535,0.855063259601593
-2.9529035091400146,4.806086540222168,0.8411483764648438
-3.000044345855713,4.806529998779297,0.8309754133224487
-3.037075996398926,4.794703483581543,0.818562924861908
-3.043416976928711,4.737936019897461,0.7982681393623352
-3.056316375732422,4.690458297729492,0.7794334888458252
-3.0643911361694336,4.632044792175293,0.7582539916038513
-3.0685079097747803,4.571267127990723,0.7364309430122375
-3.076565742492676,4.521440505981445,0.7165462374687195
-3.1209990978240967,4.521617412567139,0.703957200050354
-2.911210060119629,4.155428886413574,0.6347540020942688
-2.924757480621338,4.119709014892578,0.6166892051696777
-2.8957631587982178,4.023564338684082,0.5894266963005066
-2.933913469314575,4.017477989196777,0.5746337175369263
-2.9257051944732666,3.953599691390991,0.5514199137687683
-2.4563241004943848,3.4411158561706543,-0.23478372395038605
-2.4341416358947754,3.4651904106140137,-0.2521187365055084
-2.8769218921661377,4.158047199249268,-0.3200611174106598
-2.8635778427124023,4.203550815582275,-0.3408490717411041
-2.8595170974731445,4.265865802764893,-0.3632640242576599
-2.8205080032348633,4.271566390991211,-0.3797644078731537
-2.7881686687469482,4.2911152839660645,-0.39775457978248596
-2.7641756534576416,4.323443412780762,-0.41662412881851196
-2.741579055786133,4.354580402374268,-0.43464741110801697
-1.2747375965118408,2.0574986934661865,-0.21242450177669525
-2.726942777633667,4.4745659828186035,-0.4772074818611145
-2.694413900375366,4.492441177368164,-0.49374982714653015
-1.217255711555481,2.062506914138794,-0.23322199285030365
-2.635890007019043,4.541348934173584,-0.527816891670227
-2.610612392425537,4.571966648101807,-0.5452923774719238
-2.589228391647339,4.608967304229736,-0.5634669065475464
-2.559915781021118,4.636640548706055,-0.5807859897613525
-2.5330934524536133,4.667042255401611,-0.5981821417808533
-2.510775566101074,4.703532695770264,-0.6160242557525635
-2.48748779296875,4.740181922912598,-0.6339651942253113
-2.4614477157592773,4.7735276222229,-0.6515344381332397
-2.4245517253875732,4.7859296798706055,-0.6663060784339905
-2.3920650482177734,4.804502964019775,-0.6815925240516663
-1.0720924139022827,2.1923768520355225,-0.31672579050064087
-1.0559908151626587,2.199207067489624,-0.3233959972858429
-1.0336424112319946,2.191730499267578,-0.32780081033706665
-1.0277684926986694,2.2191357612609863,-0.33742478489875793
-1.0017189979553223,2.204555034637451,-0.34066134691238403
-0.998254656791687,2.239051342010498,-0.35142338275909424
-0.9838078618049622,2.248663902282715,-0.35827019810676575
-0.9768526554107666,2.2759392261505127,-0.36797645688056946
-0.9633057117462158,2.289079189300537,-0.3753536641597748
-0.9493498206138611,2.302213430404663,-0.3828654885292053
-0.9329652786254883,2.3078794479370117,-0.38898006081581116
-0.9250341057777405,2.334956407546997,-0.39872366189956665
-0.9137770533561707,2.3549113273620605,-0.4071922302246094
-0.9009231328964233,2.371189594268799,-0.41509512066841125
-0.8837609887123108,2.376572608947754,-0.4211609959602356
-0.8602523803710938,2.363645076751709,-0.423831045627594
-1.1028149127960205,3.097858190536499,-0.5617404580116272
-1.085600733757019,3.118882179260254,-0.5718534588813782
-1.0473629236221313,3.0777859687805176,-0.5704571604728699
-1.0227078199386597,3.0765914916992188,-0.5764504671096802
-0.9817209839820862,3.0240113735198975,-0.572282612323761
-0.9693959355354309,3.0589637756347656,-0.5846545696258545
-0.9805876016616821,3.1708903312683105,-0.6119867563247681
-0.8050900101661682,2.6690518856048584,-0.5201288461685181
-0.7730821967124939,2.6294336318969727,-0.5170037150382996
-0.7645978927612305,2.6707534790039062,-0.529864490032196
-0.7436150908470154,2.667614698410034,-0.5338825583457947
-0.7187360525131226,2.649498701095581,-0.534868597984314
-0.711698055267334,2.697956085205078,-0.5490290522575378
-0.703022301197052,2.7427141666412354,-0.562515914440155
-0.6759281158447266,2.7168736457824707,-0.5616239309310913
-0.6433285474777222,2.6646790504455566,-0.5550885796546936
-0.6132222414016724,2.6197094917297363,-0.54964679479599
-0.5829216241836548,2.570786237716675,-0.5430730581283569
-0.5541585683822632,2.5253350734710693,-0.5371147990226746
-0.5265797972679138,2.4834210872650146,-0.5318575501441956
-0.5006822943687439,2.4450082778930664,-0.5270061492919922
-0.4716451168060303,2.387695550918579,-0.5176918506622314
-0.45345190167427063,2.3826606273651123,-0.5196487903594971
-0.42641064524650574,2.3286612033843994,-0.5108702778816223
-0.404491126537323,2.3008062839508057,-0.5077056288719177
-0.38138431310653687,2.2615296840667725,-0.5015179514884949
-0.3563978970050812,2.207000970840454,-0.4918675422668457
-0.3351192772388458,2.171110153198242,-0.486287921667099
-0.3165819048881531,2.1501383781433105,-0.4840063154697418
-0.29918336868286133,2.1366958618164062,-0.4829738140106201
-0.28274548053741455,2.126878499984741,-0.48270726203918457
-0.2650315761566162,2.105598211288452,-0.47983136773109436
-0.2458307296037674,2.069054126739502,-0.4734439253807068
-0.23225711286067963,2.077855348587036,-0.47706249356269836
-0.21697476506233215,2.071442127227783,-0.47709041833877563
-0.19822122156620026,2.030836582183838,-0.4692555069923401
-0.1820056140422821,2.0090243816375732,-0.4657129645347595
-0.17057041823863983,2.0402426719665527,-0.47421586513519287
-0.15579988062381744,2.033501386642456,-0.47369563579559326
-0.1406026929616928,2.0190646648406982,-0.47139376401901245
-0.12531918287277222,2.0045318603515625,-0.4690990746021271
-0.11261142045259476,2.0278918743133545,-0.4755091369152069
-0.0973663479089737,2.005660057067871,-0.4709073007106781
-0.08339895308017731,2.006115436553955,-0.47164738178253174
-0.06894776970148087,1.9912718534469604,-0.4688063859939575
-0.054461318999528885,1.9763458967208862,-0.4659053683280945
-0.040896449238061905,1.9842222929000854,-0.46793708205223083
-0.02713548205792904,1.984401822090149,-0.46817660331726074
-0.013330347836017609,1.9844857454299927,-0.4684169292449951
0.00046009558718651533,1.9844739437103271,-0.4686569273471832
0.01450968999415636,1.9844719171524048,-0.46844109892845154
0.028026331216096878,1.965376615524292,-0.4636983573436737
0.04137324169278145,1.9499897956848145,-0.45985665917396545
0.05513565242290497,1.957316517829895,-0.46139466762542725
0.06820794939994812,1.9418264627456665,-0.4572177231311798
0.08380356431007385,1.9908695220947266,-0.4680946469306946
0.0975077822804451,1.9828102588653564,-0.46554410457611084
0.11214964836835861,1.9974502325057983,-0.4683544635772705
0.12507694959640503,1.9816710948944092,-0.46380046010017395
0.1370009034872055,1.9544750452041626,-0.45636671781539917
0.13657598197460175,1.771659016609192,-0.4127292037010193
0.14529329538345337,1.7254027128219604,-0.4010314345359802
0.15731903910636902,1.724625587463379,-0.3998350203037262
0.16674891114234924,1.6973081827163696,-0.39222437143325806
0.17698852717876434,1.6812934875488281,-0.3872773349285126
0.187862828373909,1.6727814674377441,-0.3840940296649933
0.20064471662044525,1.6793133020401,-0.38432395458221436
0.21142223477363586,1.670728087425232,-0.3807709217071533
0.2220892310142517,1.6620688438415527,-0.3772338926792145
0.23475752770900726,1.668436884880066,-0.3771277666091919
0.24865268170833588,1.6822528839111328,-0.37870100140571594
0.25594326853752136,1.6507803201675415,-0.3697632849216461
0.2736015319824219,1.6870876550674438,-0.3760018050670624
0.28286105394363403,1.6705703735351562,-0.3704601228237152
0.2919021248817444,1.653995394706726,-0.36495718359947205
0.3062383830547333,1.6674572229385376,-0.36587053537368774
0.3122010827064514,1.6358051300048828,-0.3568010628223419
0.33129510283470154,1.6715627908706665,-0.362406849861145
0.3384059965610504,1.647281527519226,-0.3550298810005188
0.35155361890792847,1.6529111862182617,-0.35399505496025085
0.36890292167663574,1.6771507263183594,-0.3567398190498352
0.3823695182800293,1.6825870275497437,-0.35545364022254944
0.5789286494255066,2.466608762741089,-0.5174501538276672
0.6169775128364563,2.548967123031616,-0.5309521555900574
0.6441632509231567,2.582723379135132,-0.5338259339332581
0.6728047728538513,2.619952917098999,-0.5373186469078064
0.7029783129692078,2.6606333255767822,-0.5414091348648071
0.7451555132865906,2.741671085357666,-0.5534386038780212
0.7860692143440247,2.815077781677246,-0.5633440017700195
0.821702241897583,2.8659627437591553,-0.5685383677482605
0.8570667505264282,2.9128193855285645,-0.572759747505188
0.8920633792877197,2.955660820007324,-0.576036274433136
0.9268286228179932,2.9945104122161865,-0.5779719948768616
0.9896923899650574,3.1210641860961914,-0.5965597629547119
1.0366368293762207,3.1921064853668213,-0.6041573882102966
1.099234938621521,3.306469202041626,-0.6196017861366272
1.1510041952133179,3.383845090866089,-0.6274888515472412
1.206375002861023,3.468024253845215,-0.6361885666847229
1.3035072088241577,3.663954019546509,-0.6646820306777954
1.3715736865997314,3.7720394134521484,-0.6767181158065796
1.4652239084243774,3.944530487060547,-0.6995397210121155
1.5324783325195312,4.040421009063721,-0.7080437541007996
1.608250379562378,4.153559684753418,-0.7190821766853333
1.6608928442001343,4.201084136962891,-0.7181969285011292
1.6948179006576538,4.201838493347168,-0.7092023491859436
1.7197775840759277,4.181013584136963,-0.6963970065116882
1.7401853799819946,4.149272918701172,-0.6818321347236633
1.7635533809661865,4.12440824508667,-0.6684167385101318
1.4549216032028198,3.337531089782715,-0.5330955386161804
1.4876148700714111,3.3499484062194824,-0.5272393822669983
1.5142608880996704,3.347935199737549,-0.5190398693084717
1.5348408222198486,3.3314895629882812,-0.5085026621818542
1.5517253875732422,3.30800461769104,-0.4968996047973633
1.5717849731445312,3.2913899421691895,-0.4861544966697693
1.5982003211975098,3.288667678833008,-0.4775739014148712
1.6215680837631226,3.2786171436309814,-0.4678070545196533
1.6375423669815063,3.254709482192993,-0.456057071685791
1.6600441932678223,3.244656562805176,-0.44623318314552307
1.680984616279602,3.230844020843506,-0.43580928444862366
1.6934763193130493,3.1993720531463623,-0.42280635237693787
2.111063003540039,3.9236629009246826,-0.5078402161598206
2.1119747161865234,3.862924098968506,-0.48939841985702515
2.1392061710357666,3.849487781524658,-0.4768359065055847
2.130232572555542,3.771463394165039,-0.456377774477005
2.1525940895080566,3.751304864883423,-0.44290590286254883
2.190138816833496,3.7579944133758545,-0.4327044188976288
2.196979284286499,3.710357427597046,-0.415963739156723
2.2347283363342285,3.7164289951324463,-0.40527933835983276
2.259932518005371,3.7025504112243652,-0.3923417627811432
2.282175064086914,3.681147813796997,-0.37807753682136536
2.3082287311553955,3.66624116897583,-0.36451077461242676
2.3329381942749023,3.6518893241882324,-0.3510238230228424
2.345273494720459,3.6174604892730713,-0.33546850085258484
2.3666930198669434,3.5954508781433105,-0.32071954011917114
2.4216151237487793,3.625734806060791,-0.31030142307281494
2.4111294746398926,3.5588433742523193,-0.29166704416275024
2.4406821727752686,3.5493006706237793,-0.27730563282966614
2.5000240802764893,3.5852179527282715,-0.26629289984703064
2.5149717330932617,3.556764602661133,-0.25013062357902527
2.5132319927215576,3.50165057182312,-0.23123806715011597
2.5635745525360107,3.524044990539551,-0.21775522828102112
2.2538869380950928,3.0553667545318604,-0.17511729896068573
2.798107385635376,3.965984344482422,0.6308714151382446
2.7665083408355713,3.985433340072632,0.6474500894546509
2.7304084300994873,3.9982292652130127,0.6626088619232178
2.705118179321289,4.022198677062988,0.6787428259849548
2.6826162338256836,4.053310871124268,0.6956111788749695
2.6417229175567627,4.059126853942871,0.7079724669456482
2.607571840286255,4.0696210861206055,0.7202595472335815
2.598681926727295,4.118700981140137,0.7392402291297913
2.5738489627838135,4.150070667266846,0.7547919154167175
2.533240556716919,4.154553413391113,0.7653082013130188
2.507265090942383,4.177090167999268,0.7783881425857544
2.484748601913452,4.20623254776001,0.7927164435386658
2.4520528316497803,4.223191261291504,0.8042750358581543
2.424379587173462,4.250202178955078,0.8179638385772705
2.388049840927124,4.2554030418396,0.8267596960067749
2.357510805130005,4.27031946182251,0.8374242782592773
2.2645039558410645,4.174411296844482,0.8256657123565674
2.2144007682800293,4.155689716339111,0.8288698196411133
2.2079708576202393,4.218020915985107,0.8482096195220947
2.193676233291626,4.262540817260742,0.8637630343437195
2.159315586090088,4.269555568695068,0.8716391324996948
2.1337664127349854,4.297719955444336,0.8833843469619751
2.0894014835357666,4.287740230560303,0.8873249292373657
2.062685251235962,4.311629772186279,0.8981539011001587
2.035231351852417,4.33139181137085,0.9079832434654236
2.0166561603546143,4.372162342071533,0.9220983982086182
1.9932925701141357,4.4064555168151855,0.9344819784164429
2.022374153137207,4.559778690338135,0.9723500609397888
2.0152194499969482,4.632387161254883,0.9931202530860901
3.5108792781829834,8.229353904724121,1.7736433744430542
1.932361125946045,4.6185197830200195,1.000532865524292
1.9168528318405151,4.677249431610107,1.0178065299987793
1.8848891258239746,4.696878433227539,1.0266797542572021
1.8419163227081299,4.687647819519043,1.029236912727356
1.8013004064559937,4.681362628936768,1.0323572158813477
1.7911475896835327,4.75328254699707,1.0527349710464478
1.7381612062454224,4.7144317626953125,1.0481858253479004
1.3287672996520996,3.6863322257995605,0.8225550055503845
1.304144263267517,3.702125310897827,0.829074501991272
1.2671557664871216,3.6815452575683594,0.8274497985839844
1.620009183883667,4.815316200256348,1.0860793590545654
1.6087194681167603,4.894162178039551,1.1077709197998047
1.5708552598953247,4.897156238555908,1.111738681793213
1.551047682762146,4.958239555358887,1.1288431882858276
1.5264426469802856,5.008484363555908,1.143659234046936
1.4745051860809326,4.963101387023926,1.1365472078323364
1.4375050067901611,4.964782238006592,1.140189290046692
1.4305715560913086,5.0726318359375,1.1683306694030762
1.3758900165557861,5.015492916107178,1.1578730344772339
1.3140581846237183,4.928470611572266,1.1403440237045288
1.2787503004074097,4.940617561340332,1.1458176374435425
1.2473294734954834,4.963325500488281,1.1537206172943115
1.2125362157821655,4.970912933349609,1.1581368446350098
1.1899176836013794,5.030159950256348,1.1746783256530762
1.1583881378173828,5.056114196777344,1.18303382396698
1.120620846748352,5.059830188751221,1.1859610080718994
1.0882737636566162,5.085480213165283,1.1940617561340332
1.0488590002059937,5.077333450317383,1.1942797899246216
0.808040201663971,4.053503513336182,0.9551624059677124
0.7854328155517578,4.088264465332031,0.9651194214820862
0.759018063545227,4.108059883117676,0.9714885950088501
0.7257880568504333,4.090335845947266,0.9684730768203735
0.6991807818412781,4.109858512878418,0.9743256568908691
0.6711571216583252,4.121689319610596,0.9784087538719177
0.6434311270713806,4.133266925811768,0.9824662208557129
0.6190993785858154,4.171031475067139,0.9928284287452698
0.5878832340240479,4.15964412689209,0.9915211200714111
0.5656684041023254,4.2159857749938965,1.005954623222351
0.5339224934577942,4.204402446746826,1.004009485244751
0.5077947974205017,4.237868309020996,1.0128755569458008
0.4787672460079193,4.248498439788818,1.0163391828536987
0.45305415987968445,4.292953014373779,1.027961015701294
0.42314717173576355,4.295607566833496,1.0296170711517334
0.3859560787677765,4.218599319458008,1.0122090578079224
0.3563445508480072,4.220972061157227,1.0131735801696777
0.3278382122516632,4.238292694091797,1.0177724361419678
0.2970060706138611,4.232713222503662,1.0169317722320557
0.2654355466365814,4.204131603240967,1.0106005668640137
0.23383912444114685,4.163934230804443,1.0015127658843994
0.20220643281936646,4.112128257751465,0.9896687865257263
0.0839020311832428,1.9883240461349487,0.47877463698387146
0.14175967872142792,4.042200088500977,0.9733558893203735
0.11372954398393631,4.050620079040527,0.9754531979560852
0.08450011163949966,4.009485721588135,0.9656639695167542
0.08235625177621841,5.836398601531982,1.4059032201766968
0.042360980063676834,5.9164838790893555,1.4255032539367676
0.0005369855789467692,5.931729793548584,1.429561972618103
-0.040969666093587875,5.97336483001709,1.4396179914474487
-0.08257698267698288,5.980658531188965,1.4409157037734985
-0.12507577240467072,6.025630950927734,1.451357364654541
-0.16851906478405,6.081690788269043,1.4645335674285889
-0.21077381074428558,6.080502986907959,1.4639915227890015
-0.2537434995174408,6.078994274139404,1.4634404182434082
-0.17662684619426727,3.6266026496887207,0.8729907274246216
-0.20047715306282043,3.6026980876922607,0.8668525815010071
-0.223953515291214,3.5786914825439453,0.8605046272277832
-0.4346035122871399,6.252643585205078,1.5025365352630615
-0.4785611033439636,6.2498064041137695,1.5009841918945312
-0.5590750575065613,6.689639568328857,1.6057718992233276
-0.49663954973220825,5.482730865478516,1.315437912940979
-0.5333227515220642,5.464338302612305,1.3104606866836548
-0.583232045173645,5.578171730041504,1.3365156650543213
-0.7218191623687744,6.46580696105957,1.5475698709487915
-0.7627871036529541,6.431107521057129,1.5377510786056519
-0.8005437850952148,6.373508453369141,1.522546410560608
-0.8374118208885193,6.311873912811279,1.5064630508422852
-0.8781958818435669,6.283911228179932,1.4985061883926392
-0.9248557686805725,6.293219089508057,1.4994343519210815
-0.974947452545166,6.332663536071777,1.5066460371017456
-1.0262278318405151,6.3754801750183105,1.5146987438201904
-1.0775107145309448,6.414148330688477,1.5218065977096558
-1.1317129135131836,6.46360445022583,1.531496286392212
-1.1835404634475708,6.493864059448242,1.5366686582565308
-1.2402167320251465,6.542273044586182,1.5461475849151611
-1.2913734912872314,6.564372539520264,1.549072504043579
-1.3521350622177124,6.634838104248047,1.5627859830856323
-1.4077094793319702,6.674985408782959,1.5693713426589966
-1.4500325918197632,6.651467323303223,1.5610517263412476
-1.4829410314559937,6.57903528213501,1.5412559509277344
-1.5253796577453613,6.554826736450195,1.5329104661941528
-0.6704106330871582,2.7928953170776367,0.6520352959632874
-0.6913111209869385,2.7962100505828857,0.6513416171073914
-0.7056633830070496,2.773545742034912,0.644558846950531
-0.7210075259208679,2.7544238567352295,0.6386236548423767
-0.744914174079895,2.768375873565674,0.640394926071167
-0.7724031209945679,2.7930831909179688,0.6446365714073181
-1.7631021738052368,6.20741605758667,1.4294394254684448
-1.794252872467041,6.156197547912598,1.4140642881393433
-1.8236262798309326,6.101315498352051,1.397363543510437
-1.854964256286621,6.057435035705566,1.3833683729171753
-1.889408826828003,6.02426290512085,1.3718996047973633
-1.9199706315994263,5.976015567779541,1.356992244720459
-1.9487534761428833,5.923985481262207,1.3413424491882324
-1.9833015203475952,5.889888286590576,1.3295528888702393
-2.013206720352173,5.849068641662598,1.3157280683517456
-2.0388433933258057,5.797274589538574,1.2995489835739136
-2.0703299045562744,5.76336145401001,1.2874855995178223
-2.1016733646392822,5.725175857543945,1.2743895053863525
-2.128549337387085,5.676070690155029,1.2589741945266724
-2.1632399559020996,5.64827299118042,1.248068928718567
-2.2125144004821777,5.663833141326904,1.246198296546936
-2.2776176929473877,5.718128204345703,1.252825379371643
-2.3279900550842285,5.732706069946289,1.2506797313690186
-2.362616777420044,5.703842639923096,1.238893747329712
-2.39469838142395,5.667422294616699,1.2254637479782104
-2.4595203399658203,5.712540626525879,1.2293328046798706
-2.4980061054229736,5.697841167449951,1.2199134826660156
-3.6584784984588623,8.196918487548828,1.746001124382019
-2.5328173637390137,5.572957515716553,1.1808507442474365
-2.5713014602661133,5.553173542022705,1.170220136642456
-2.594177484512329,5.502174377441406,1.1531825065612793
-3.9523584842681885,8.24230670928955,1.7169095277786255
-2.657691240310669,5.450439453125,1.1283742189407349
-2.687824010848999,5.420634746551514,1.1151922941207886
-2.7374539375305176,5.423847675323486,1.1083742380142212
-2.75321626663208,5.361963748931885,1.0884722471237183
-2.7681002616882324,5.304573059082031,1.0689855813980103
-2.8108019828796387,5.301754474639893,1.0604612827301025
-2.8393399715423584,5.271322250366211,1.0463815927505493
-2.849109411239624,5.202676296234131,1.0244483947753906
-2.8793351650238037,5.170757293701172,1.0097452402114868
-1.2019206285476685,2.1258997917175293,0.41145917773246765
-1.208389401435852,2.1054532527923584,0.40382614731788635
-2.9095499515533447,4.992133617401123,0.9484907388687134
-1.233862042427063,2.083688974380493,0.39197811484336853
-2.9107236862182617,4.839450359344482,0.9008388519287109
-2.962810754776001,4.855412483215332,0.8939388990402222
-2.974618673324585,4.805238246917725,0.8748905062675476
-3.0050313472747803,4.779714107513428,0.8596077561378479
-3.043152093887329,4.767232894897461,0.846651554107666
-3.0225791931152344,4.668182849884033,0.8177878260612488
-3.0660183429718018,4.67001485824585,0.8069865107536316
-3.090928316116333,4.637646675109863,0.7892917990684509
-3.1061909198760986,4.592742443084717,0.7694494724273682
-3.0901875495910645,4.507901668548584,0.7427524924278259
-3.162912368774414,4.549731254577637,0.73639976978302
-2.8540244102478027,4.045248508453369,0.6422151923179626
-2.867542266845703,4.009571552276611,0.6237106323242188
-2.907050132751465,4.012184143066406,0.6110425591468811
-2.9542150497436523,4.018791198730469,0.5973705649375916
-2.9491543769836426,3.9575586318969727,0.5733171701431274
-2.452261209487915,3.462190628051758,-0.24929991364479065
-2.8824820518493652,4.135383605957031,-0.31668931245803833
-2.8876185417175293,4.2061448097229,-0.3400700092315674
-2.84716534614563,4.213221073150635,-0.3584926426410675
-2.842824935913086,4.275424480438232,-0.3814491629600525
-2.803802728652954,4.280874252319336,-0.39820754528045654
-2.765845775604248,4.289902687072754,-0.41525229811668396
-2.7562849521636963,4.345061302185059,-0.43689659237861633
-2.7451565265655518,4.396250247955322,-0.4578312635421753
-2.739291191101074,4.4575324058532715,-0.4798071086406708
-2.705658435821533,4.476111888885498,-0.49735406041145325
-1.2283152341842651,2.0647337436676025,-0.23624974489212036
-2.6525840759277344,4.53099250793457,-0.5331627130508423
-2.6297221183776855,4.569180965423584,-0.5526580214500427
-2.6000537872314453,4.593039512634277,-0.5699818134307861
-2.580408811569214,4.633213996887207,-0.5891078114509583
-2.561187505722046,4.67721700668335,-0.6088197231292725
-2.53381085395813,4.7075958251953125,-0.6269091367721558
-2.506687641143799,4.737495422363281,-0.6448141932487488
-2.477841854095459,4.763595104217529,-0.6620094180107117
-2.4497299194335938,4.793323040008545,-0.6796931028366089
-1.088249921798706,2.167271614074707,-0.31336739659309387
-1.0796282291412354,2.187864065170288,-0.32228314876556396
-1.0567262172698975,2.1807847023010254,-0.3272004723548889
-1.0307680368423462,2.1664633750915527,-0.33080485463142395
-1.0314875841140747,2.2078661918640137,-0.3428901135921478
-1.0189580917358398,2.2211451530456543,-0.3506629467010498
-0.9996898174285889,2.2203593254089355,-0.35614344477653503
-0.9897595643997192,2.2406485080718994,-0.36500927805900574
-0.9733585119247437,2.246734619140625,-0.3716432452201843
-0.9708845019340515,2.2845242023468018,-0.3834886848926544
-0.9572861790657043,2.297529935836792,-0.3911488354206085
-0.9405845403671265,2.3033149242401123,-0.39759206771850586
-0.9298052191734314,2.323204517364502,-0.4064486622810364
-0.9157680869102478,2.3359172344207764,-0.41418617963790894
-0.9196617007255554,2.395284414291382,-0.43007293343544006
-0.8874710202217102,2.361057758331299,-0.4291892647743225
-1.1842666864395142,3.2187676429748535,-0.592208981513977
-1.143101453781128,3.174882411956787,-0.5911156535148621
-1.1224638223648071,3.188880681991577,-0.6005677580833435
-1.1433429718017578,3.3225882053375244,-0.6326972842216492
-1.0976289510726929,3.2635176181793213,-0.6282224655151367
-1.0493272542953491,3.1930341720581055,-0.6212531924247742
-1.0113500356674194,3.15142560005188,-0.6193869113922119
-0.9690003395080566,3.094944477081299,-0.6144222021102905
-0.8607206344604492,2.8178114891052246,-0.5648868083953857
-0.7926037907600403,2.6608259677886963,-0.5385857820510864
-0.7673089504241943,2.6431052684783936,-0.5399110913276672
-0.7506108283996582,2.6547012329101562,-0.5470829010009766
-0.7297375202178955,2.651400566101074,-0.5512071847915649
-0.7047130465507507,2.6331958770751953,-0.5522769689559937
-0.665827751159668,2.5592079162597656,-0.5412110686302185
-0.6392571926116943,2.529416084289551,-0.5391042828559875
-0.6086028218269348,2.4808242321014404,-0.5328715443611145
-0.583974301815033,2.4542739391326904,-0.5312640070915222
-0.5534559488296509,2.4015328884124756,-0.5237978100776672
-0.5281582474708557,2.3671770095825195,-0.5198519229888916
-0.494529664516449,2.291551351547241,-0.5066912174224854
-0.4745258092880249,2.2753970623016357,-0.5065453052520752
-0.45102599263191223,2.2403924465179443,-0.5020812153816223
-0.4292137026786804,2.2128047943115234,-0.4988745152950287
-0.40460655093193054,2.1662585735321045,-0.49125826358795166
-0.3880511522293091,2.1607766151428223,-0.4929099678993225
-0.3728863596916199,2.1626791954040527,-0.4962603449821472
-0.34718140959739685,2.1006810665130615,-0.484443724155426
-0.3227035403251648,2.0422627925872803,-0.473353773355484
-0.30328336358070374,2.009962558746338,-0.4681923985481262
-0.2892051637172699,2.0114102363586426,-0.4708757996559143
-0.2751484513282776,2.0128352642059326,-0.47320476174354553
-0.2601153552532196,2.006638288497925,-0.473652184009552
-0.2433314174413681,1.9852344989776611,-0.47050437331199646
-0.22660039365291595,1.963724970817566,-0.46734681725502014
-0.21207261085510254,1.9572523832321167,-0.4674263298511505
-0.19997185468673706,1.973399043083191,-0.4727402329444885
-0.18301844596862793,1.9402943849563599,-0.4662643074989319
-0.16685207188129425,1.9108482599258423,-0.46064311265945435
-0.15028828382492065,1.8737727403640747,-0.4529612064361572
-0.13725587725639343,1.8744922876358032,-0.45411908626556396
-0.12346778810024261,1.8637561798095703,-0.4525175094604492
-0.10916174203157425,1.8415545225143433,-0.44813549518585205
-0.09555941820144653,1.8268622159957886,-0.4454498291015625
-0.08333051949739456,1.8424935340881348,-0.4498206079006195
-0.0699533075094223,1.8276983499526978,-0.4467751979827881
-0.05698360502719879,1.8203951120376587,-0.4455774426460266
-0.04393564537167549,1.8054288625717163,-0.4424609839916229
-0.03163471445441246,1.8208200931549072,-0.44636085629463196
-0.019129913300275803,1.8588898181915283,-0.455848753452301
-0.006056002341210842,1.8134074211120605,-0.4448658227920532
0.006618007551878691,1.8361233472824097,-0.4506327211856842
0.018969547003507614,1.798167109489441,-0.4410427212715149
0.031856175512075424,1.8208246231079102,-0.4463265538215637
0.04468759521842003,1.8282188177108765,-0.44788604974746704
0.05810166150331497,1.8431012630462646,-0.45129451155662537
0.0697457492351532,1.812487244606018,-0.44318681955337524
0.08236075192689896,1.8121452331542969,-0.442420095205307
0.09497436136007309,1.8117151260375977,-0.441653311252594
0.1098233014345169,1.849088430404663,-0.4501107931137085
0.12470027059316635,1.8750497102737427,-0.45543718338012695
0.1313735395669937,1.7873493432998657,-0.43305549025535583
0.13590306043624878,1.688266396522522,-0.40804898738861084
0.14567992091178894,1.6648540496826172,-0.40142306685447693
0.16407383978366852,1.7359793186187744,-0.4173632860183716
0.17257142066955566,1.6973592042922974,-0.40666672587394714
0.18153035640716553,1.6700421571731567,-0.3987784683704376
0.19404998421669006,1.67665696144104,-0.3990273177623749
0.20574161410331726,1.6756633520126343,-0.39734044671058655
0.21157220005989075,1.6293857097625732,-0.38470232486724854
0.22729404270648956,1.6584482192993164,-0.3898571729660034
0.24214401841163635,1.6798715591430664,-0.39321160316467285
0.2504776418209076,1.656026840209961,-0.38592439889907837
0.26208484172821045,1.654765248298645,-0.3836207985877991
0.27864983677864075,1.6834828853607178,-0.388251930475235
0.28656527400016785,1.6594992876052856,-0.3807365894317627
0.2997503876686096,1.6654534339904785,-0.3800937235355377
0.3114461898803711,1.6639140844345093,-0.3774227797985077
0.317312091588974,1.6323373317718506,-0.36799827218055725
0.33329373598098755,1.6530983448028564,-0.3704041540622711
0.341778427362442,1.636366367340088,-0.36441686749458313
0.35831427574157715,1.656923532485962,-0.36643141508102417
0.36829864978790283,1.647565245628357,-0.3618052899837494
0.38504359126091003,1.6679221391677856,-0.3636995553970337
0.5623971819877625,2.361159563064575,-0.5112335681915283
0.5881445407867432,2.3952529430389404,-0.5146713256835938
0.6174976825714111,2.440225124359131,-0.5200998783111572
0.6385480761528015,2.45165753364563,-0.5183668732643127
0.6697128415107727,2.499894142150879,-0.5243238806724548
0.7086688280105591,2.573737859725952,-0.5352745652198792
0.7403531074523926,2.6177594661712646,-0.5395994186401367
0.77623051404953,2.6724588871002197,-0.5458676815032959
0.8115299344062805,2.7232120037078857,-0.5512228608131409
0.85654616355896,2.803009510040283,-0.5621036291122437
0.9026458263397217,2.8824429512023926,-0.5723413228988647
0.9370224475860596,2.9212028980255127,-0.574272096157074
0.9856541752815247,2.9996602535247803,-0.5836479067802429
1.043626308441162,3.1032450199127197,-0.5976036190986633
1.101726770401001,3.2027065753936768,-0.6100378632545471
1.15616774559021,3.2870676517486572,-0.6192142963409424
1.2120167016983032,3.3708322048187256,-0.6278776526451111
1.291692852973938,3.515446901321411,-0.6473804116249084
1.3587863445281982,3.6195735931396484,-0.6584011912345886
1.4559212923049927,3.7986865043640137,-0.6825688481330872
1.5544586181640625,3.9730913639068604,-0.7050312161445618
1.6270276308059692,4.074784755706787,-0.7139406204223633
1.697800636291504,4.168788433074951,-0.7207318544387817
1.7304877042770386,4.165683746337891,-0.7103242874145508
1.760014533996582,4.155257701873779,-0.6987467408180237
1.7895573377609253,4.1445631980896,-0.6871296167373657
1.806118369102478,4.1055803298950195,-0.6706645488739014
1.495029091835022,3.336465358734131,-0.5368621945381165
1.5223032236099243,3.3341989517211914,-0.5280584692955017
1.5460448265075684,3.3248016834259033,-0.5182415843009949
1.5692424774169922,3.3154571056365967,-0.5082892775535583
1.588965654373169,3.2989742755889893,-0.49728482961654663
1.6055654287338257,3.2752013206481934,-0.48509305715560913
1.6257838010787964,3.258070468902588,-0.47378209233283997
1.6518914699554443,3.2550768852233887,-0.4645741283893585
1.6708900928497314,3.238089084625244,-0.4533995985984802
1.6939698457717896,3.227531671524048,-0.4429130554199219
1.7204347848892212,3.223728656768799,-0.4333333969116211
1.7426788806915283,3.213164806365967,-0.4227806627750397
2.1439974308013916,3.888793706893921,-0.5002842545509338
2.1051783561706543,3.756563901901245,-0.4721736013889313
2.1466853618621826,3.7703988552093506,-0.4626651108264923
2.164712905883789,3.7437024116516113,-0.44813472032546997
2.1831040382385254,3.716550588607788,-0.4333662688732147
2.2179174423217773,3.715569257736206,-0.42131125926971436
2.243157148361206,3.7018802165985107,-0.40797632932662964
2.2644340991973877,3.6812350749969482,-0.3938119113445282
2.3030285835266113,3.686251401901245,-0.3818803131580353
2.3076248168945312,3.638794422149658,-0.36457008123397827
2.3410816192626953,3.637289524078369,-0.3517164885997772
2.366694450378418,3.6220576763153076,-0.3371938169002533
2.3918161392211914,3.6068530082702637,-0.32259759306907654
2.4071617126464844,3.579137086868286,-0.3069491982460022
2.454007387161255,3.5957422256469727,-0.2944629490375519
2.4483449459075928,3.53466796875,-0.2751529812812805
2.4940545558929443,3.5514824390411377,-0.26225727796554565
2.52325439453125,3.5415472984313965,-0.24645686149597168
2.5292184352874756,3.4999749660491943,-0.2282504439353943
2.5704293251037598,3.509622573852539,-0.21342258155345917
2.180856704711914,2.93489408493042,-0.16433185338974
2.8095128536224365,3.95436954498291,0.6527125239372253
2.750373601913452,3.931664228439331,0.6628522872924805
2.7424395084381104,3.9860849380493164,0.6856936812400818
2.708282709121704,3.997342586517334,0.7001304030418396
2.6786508560180664,4.014601707458496,0.7152133584022522
2.663398265838623,4.059070110321045,0.734774112701416
2.6397705078125,4.090185642242432,0.7518742084503174
2.618431568145752,4.119673252105713,0.7678559422492981
2.5932180881500244,4.146729469299316,0.783135175704956
2.5423479080200195,4.134912490844727,0.7908111810684204
2.519188404083252,4.164661407470703,0.8059999346733093
2.498431921005249,4.197171211242676,0.8216069936752319
2.464681625366211,4.210265159606934,0.8329336643218994
2.437650442123413,4.236953258514404,0.8467506170272827
2.4018659591674805,4.2462029457092285,0.8568817377090454
2.371321201324463,4.261127471923828,0.8678006529808044
2.291485071182251,4.188775539398193,0.8607646822929382
2.2592947483062744,4.2041096687316895,0.8710370063781738
2.226956605911255,4.2191948890686035,0.8813167810440063
2.200058937072754,4.239918231964111,0.8923908472061157
2.1819469928741455,4.277431011199951,0.907036304473877
2.146101951599121,4.284933567047119,0.9150499701499939
2.1169111728668213,4.306024074554443,0.9256693720817566
2.084381580352783,4.319906234741211,0.9347647428512573
2.066715717315674,4.360479354858398,0.9493807554244995
2.0356357097625732,4.373192310333252,0.9580159187316895
1.9905333518981934,4.358428478240967,0.9601554274559021
1.9759984016418457,4.413619041442871,0.9776232838630676
2.0197455883026123,4.6017560958862305,1.0247658491134644
1.9838881492614746,4.607212066650391,1.0312061309814453
1.9645100831985474,4.651111125946045,1.0463169813156128
1.9117681980133057,4.6175312995910645,1.0437220335006714
1.8983397483825684,4.683300971984863,1.063267707824707
1.860634446144104,4.688496112823486,1.0690913200378418
1.826622486114502,4.700199604034424,1.076328992843628
1.815034031867981,4.768502712249756,1.0965349674224854
1.7626152038574219,4.729483127593994,1.0921167135238647
1.3418586254119873,3.6830320358276367,0.8535671234130859
1.314671516418457,3.691666603088379,0.8585589528083801
1.2874667644500732,3.700082778930664,0.8635421991348267
1.6566071510314941,4.870589256286621,1.1406023502349854
1.6150586605072021,4.858956813812256,1.1417628526687622
1.5742576122283936,4.850813865661621,1.1437982320785522
1.5514981746673584,4.90082311630249,1.158769130706787
1.539326548576355,4.987131595611572,1.1824604272842407
1.500744104385376,4.9895830154418945,1.1863772869110107
1.459062933921814,4.9768266677856445,1.1866145133972168
1.4240705966949463,4.985661029815674,1.1920286417007446
2.1122019290924072,7.597923755645752,1.8217989206314087
1.3453285694122314,4.977460861206055,1.196033000946045
1.2996306419372559,4.949149131774902,1.1918120384216309
1.267566442489624,4.97205114364624,1.1999751329421997
1.2304848432540894,4.972431659698486,1.202713966369629
1.200334906578064,5.002157688140869,1.212637186050415
0.9292470216751099,3.994903802871704,0.9706456661224365
0.8990925550460815,3.9932429790496826,0.9719850420951843
0.8744644522666931,4.017434597015381,0.9794719815254211
0.8432824015617371,4.011723518371582,0.9797220230102539
0.819450855255127,4.043061256408691,0.9890957474708557
0.792640745639801,4.055431365966797,0.993830144405365
0.7614824771881104,4.045228004455566,0.9930780529975891
0.7344250082969666,4.057271480560303,0.9976583123207092
0.7119665145874023,4.099248886108398,1.0091406106948853
0.6847270727157593,4.118704319000244,1.015165090560913
0.6541999578475952,4.115410804748535,1.0156148672103882
0.6339172124862671,4.175607681274414,1.0317777395248413
0.5987945795059204,4.138059139251709,1.0238382816314697
0.5746188163757324,4.175395488739014,1.034472107887268
0.547669529914856,4.201501846313477,1.0419509410858154
0.5188707113265991,4.212396144866943,1.0454425811767578
0.8645944595336914,7.451618194580078,1.850845217704773
0.47413042187690735,4.354211807250977,1.0824265480041504
0.43880394101142883,4.307957172393799,1.071877360343933
0.4080314338207245,4.302956581115723,1.0716338157653809
0.38252219557762146,4.361973285675049,1.0874145030975342
0.3512721061706543,4.356742858886719,1.0865403413772583
0.31286123394966125,4.2530131340026855,1.0610854625701904
0.28145936131477356,4.232181549072266,1.0563524961471558
0.2470412254333496,4.1543660163879395,1.0374354124069214
0.21730101108551025,4.1482086181640625,1.0364574193954468
0.18672990798950195,4.111536026000977,1.0278902053833008
0.15564854443073273,4.048153877258301,1.0126078128814697
0.1260015368461609,4.003632545471191,1.0014580488204956
0.09739904850721359,3.9778411388397217,0.995042085647583
0.06835952401161194,3.932910203933716,0.9838875532150269
0.020435256883502007,1.96282958984375,0.4911023676395416
0.007394666783511639,2.140998601913452,0.5357778072357178
-0.020867377519607544,5.956820011138916,1.491017460823059
-0.0623689629137516,5.956506252288818,1.4911130666732788
-0.10515063256025314,5.99017858505249,1.498993158340454
-0.14789685606956482,6.0349249839782715,1.5097211599349976
-0.19341522455215454,6.147546768188477,1.5374910831451416
-0.2364322990179062,6.1537933349609375,1.538723111152649
-0.16425660252571106,3.6193673610687256,0.9048528075218201
-0.1894117146730423,3.6182353496551514,0.9044629335403442
-0.21403691172599792,3.6018288135528564,0.9000656604766846
-0.49691805243492126,7.488446235656738,1.8699712753295898
-0.5481042265892029,7.477775573730469,1.8660703897476196
-0.5306384563446045,6.612762928009033,1.649191975593567
-0.5820900201797485,6.673573970794678,1.6634087562561035
-0.5192681550979614,5.503389358520508,1.3710047006607056
-0.5533551573753357,5.4585185050964355,1.3591785430908203
-0.6993069052696228,6.454066276550293,1.6058181524276733
-0.7441695332527161,6.453555107116699,1.6039797067642212
-0.7834582924842834,6.40756368637085,1.590925693511963
-0.8224883079528809,6.357471942901611,1.5769222974777222
-0.8600445985794067,6.303417682647705,1.5620453357696533
-0.9017393589019775,6.282937526702881,1.5555790662765503
-0.9533629417419434,6.329716205596924,1.5658326148986816
-1.0033975839614868,6.365099906921387,1.5725438594818115
-1.0551948547363281,6.403835296630859,1.5797746181488037
-1.1061153411865234,6.4385480880737305,1.5861005783081055
-1.1583789587020874,6.476585865020752,1.5932830572128296
-1.213905930519104,6.525317192077637,1.6031100749969482
-1.2673619985580444,6.558672904968262,1.6092021465301514
-1.3235703706741333,6.602786064147949,1.6179698705673218
-1.382569432258606,6.657909393310547,1.6283199787139893
-1.4327819347381592,6.671844005584717,1.6286895275115967
-1.4676841497421265,6.614901542663574,1.6118396520614624
-1.506565809249878,6.57620906829834,1.599518060684204
-0.661202073097229,2.7968952655792236,0.679069995880127
-0.684662401676178,2.807443618774414,0.6804220080375671
-0.693856418132782,2.7626523971557617,0.6682140827178955
-0.7145298719406128,2.7658605575561523,0.6674091219902039
-0.7382386922836304,2.779940128326416,0.669241189956665
-0.7651450037956238,2.804851531982422,0.6736879348754883
-1.7387585639953613,6.201026439666748,1.4858757257461548
-1.7789963483810425,6.179158687591553,1.47724187374115
-1.8114804029464722,6.131461143493652,1.4624909162521362
-1.839825987815857,6.076902866363525,1.4452589750289917
-1.8731545209884644,6.040408134460449,1.432437539100647
-1.903384804725647,5.992610454559326,1.4169672727584839
-1.9378842115402222,5.959121227264404,1.4049755334854126
-1.9713140726089478,5.921656608581543,1.3920971155166626
-2.000558376312256,5.873186111450195,1.3767478466033936
-2.0268099308013916,5.821525573730469,1.3599774837493896
-2.0559427738189697,5.7806878089904785,1.345678687095642
-2.08272123336792,5.732295513153076,1.3296504020690918
-2.1158037185668945,5.701597213745117,1.3178062438964844
-2.1424381732940674,5.6526265144348145,1.3017704486846924
-2.19335675239563,5.667634963989258,1.3005328178405762
-2.25016713142395,5.700682640075684,1.3026970624923706
-2.3136556148529053,5.747320175170898,1.3076448440551758
-2.34956431388855,5.72644567489624,1.2973471879959106
-2.3791613578796387,5.687233924865723,1.2828083038330078
-2.419389486312866,5.6722798347473145,1.2737486362457275
-2.473125696182251,5.688676834106445,1.271702527999878
-3.528714179992676,7.969923496246338,1.7723398208618164
-3.6154568195343018,8.022300720214844,1.7747803926467896
-2.5550923347473145,5.570545673370361,1.2259788513183594
-3.7589166164398193,8.047079086303711,1.761371374130249
-2.6257550716400146,5.520848751068115,1.2018241882324219
-2.644273281097412,5.463257789611816,1.1821430921554565
-3.9934589862823486,8.114730834960938,1.7449349164962769
-2.6986145973205566,5.39408540725708,1.152647614479065
-2.722588062286377,5.349969863891602,1.135694146156311
-2.760662794113159,5.332802772521973,1.124461054801941
-2.790590524673462,5.3022589683532715,1.1101518869400024
-2.8122148513793945,5.258485794067383,1.0925582647323608
-2.8400378227233887,5.228442192077637,1.0780885219573975
-2.9102134704589844,5.27143669128418,1.0782358646392822
-1.1671161651611328,2.0797417163848877,0.42189282178878784
-1.2100200653076172,2.122814655303955,0.4268885552883148
-4.91308069229126,8.48917007446289,1.6912513971328735
-1.2209726572036743,2.078571319580078,0.4102693498134613
-1.2694276571273804,2.127096652984619,0.41562455892562866
-2.9329984188079834,4.837883472442627,0.9356608390808105
-2.9529714584350586,4.801196575164795,0.9183008670806885
-2.9853265285491943,4.783772945404053,0.9045151472091675
-3.0394234657287598,4.798027038574219,0.8962926268577576
-3.052990436553955,4.746319770812988,0.8754999041557312
-3.070063352584839,4.705789089202881,0.8564449548721313
-3.0498270988464355,4.610849857330322,0.8276293873786926
-3.095510721206665,4.611105918884277,0.815134584903717
-3.1049234867095947,4.556246280670166,0.7927491664886475
