X,Y,Z
-1.1753469705581665,4.2258405685424805,0.8547255396842957
-1.1985703706741333,4.196136951446533,0.8465615510940552
-1.2256534099578857,4.181061267852783,0.8413735032081604
-1.251749873161316,4.1661529541015625,0.835718035697937
-1.2822574377059937,4.165732383728027,0.8330032825469971
-1.3109830617904663,4.157633304595947,0.8287433981895447
-1.3329668045043945,4.127303600311279,0.8200705647468567
-1.3618625402450562,4.118713855743408,0.8157678246498108
-1.388187050819397,4.10266637802124,0.810003399848938
-1.4133771657943726,4.086871147155762,0.8038046360015869
-1.4371354579925537,4.067293167114258,0.7969122529029846
-1.4547361135482788,4.0293169021606445,0.7864193320274353
-1.4856597185134888,4.027166843414307,0.7829204201698303
-1.51120126247406,4.010392189025879,0.7766168713569641
-1.5418131351470947,4.007932662963867,0.7729904055595398
-1.5659929513931274,3.9913151264190674,0.7662762999534607
-1.5905133485794067,3.9743640422821045,0.7594813108444214
-1.617702841758728,3.964406967163086,0.75407475233078
-1.6455508470535278,3.953984022140503,0.7485227584838867
-1.667315125465393,3.929187297821045,0.7402992248535156
-1.7062612771987915,3.9471030235290527,0.7397781610488892
-1.7207515239715576,3.908313512802124,0.7284190654754639
-1.7500795125961304,3.9048211574554443,0.7237657308578491
-1.7711588144302368,3.8795313835144043,0.7149118781089783
-1.7985697984695435,3.8680546283721924,0.7086378931999207
-1.818785548210144,3.842710494995117,0.6996963024139404
-1.851683259010315,3.8453140258789062,0.6954842209815979
-1.8808021545410156,3.8409414291381836,0.6901065707206726
-1.9006884098052979,3.815147638320923,0.6807307600975037
-1.920564889907837,3.789123773574829,0.6713345646858215
-1.9573535919189453,3.797567129135132,0.6679208874702454
-1.9718266725540161,3.7652242183685303,0.6570432186126709
-1.9936044216156006,3.746276378631592,0.648487389087677
-2.014411211013794,3.723283052444458,0.6390698552131653
-2.0370912551879883,3.703428268432617,0.6301970481872559
-1.7155157327651978,3.069988250732422,0.5176675319671631
-1.735855221748352,3.059649705886841,0.5110306739807129
-0.834032416343689,1.4473308324813843,0.2393312007188797
-0.8482488393783569,1.4485762119293213,0.23703448474407196
-0.8584864139556885,1.4430903196334839,0.23361435532569885
-0.8600137233734131,1.424690842628479,0.22799642384052277
-0.8815608620643616,1.439324975013733,0.22765982151031494
-0.8632782697677612,1.3875027894973755,0.21664035320281982
-0.8814001083374023,1.3949956893920898,0.21499991416931152
-0.9072213172912598,1.4158809185028076,0.2152092605829239
-0.8953390121459961,1.3780014514923096,0.20650504529476166
-0.8944748640060425,1.3560060262680054,0.20002712309360504
-0.906310498714447,1.353400468826294,0.19636358320713043
-0.9543015956878662,1.40585196018219,0.20048844814300537
-2.453366994857788,3.563992977142334,0.49905070662498474
-1.2205711603164673,1.7469216585159302,0.2397596389055252
-1.2972873449325562,1.8314446210861206,0.2461165338754654
-1.3959813117980957,2.2138237953186035,-0.20210233330726624
-1.3425146341323853,2.1638805866241455,-0.20421594381332397
-1.2546764612197876,2.088409423828125,-0.20948930084705353
-1.2314056158065796,2.083465337753296,-0.21492579579353333
-0.8190625309944153,1.4091424942016602,-0.14933976531028748
-0.8379846215248108,1.4651010036468506,-0.1592012345790863
-1.0752454996109009,1.9111111164093018,-0.21274618804454803
-1.0438786745071411,1.8878796100616455,-0.21521200239658356
-1.0005277395248413,1.8400958776474,-0.21445299685001373
-0.9636280536651611,1.8019847869873047,-0.21450422704219818
-0.9287445545196533,1.7671027183532715,-0.21469148993492126
-0.8925781846046448,1.728407382965088,-0.2142041027545929
-0.8625185489654541,1.6995813846588135,-0.21468420326709747
-0.8278558850288391,1.6599533557891846,-0.2135380059480667
-0.8122929334640503,1.6584066152572632,-0.21712349355220795
-0.7784112095832825,1.6182223558425903,-0.21550852060317993
-0.7437511682510376,1.5740450620651245,-0.2130810022354126
-0.7259361147880554,1.5647119283676147,-0.2152102291584015
-0.7143417596817017,1.5694767236709595,-0.21927207708358765
-0.6888554096221924,1.5421695709228516,-0.2186921089887619
-0.6717057228088379,1.5322750806808472,-0.22045578062534332
-0.6515315771102905,1.5151703357696533,-0.22106456756591797
-0.6345528960227966,1.5050402879714966,-0.22258126735687256
-0.6043986678123474,1.462583065032959,-0.21922238171100616
-0.5853219628334045,1.444798469543457,-0.21936409175395966
-0.5749878883361816,1.4484397172927856,-0.22265703976154327
-0.5491331815719604,1.412406325340271,-0.21974420547485352
-0.539061963558197,1.4157918691635132,-0.22287292778491974
-0.5207906365394592,1.397404670715332,-0.22256657481193542
0.5291374921798706,1.4272880554199219,-0.22710275650024414
0.5309871435165405,1.4023091793060303,-0.22068165242671967
0.5463504195213318,1.4134619235992432,-0.21989384293556213
0.5719555616378784,1.4496155977249146,-0.22281445562839508
0.5850003957748413,1.45323646068573,-0.22068321704864502
0.612903356552124,1.4925050735473633,-0.22386063635349274
0.63082355260849,1.5065325498580933,-0.22308720648288727
0.6473429799079895,1.5168763399124146,-0.22166982293128967
0.658145010471344,1.51274836063385,-0.2180395871400833
0.6876727342605591,1.5510650873184204,-0.22047759592533112
0.7160314321517944,1.5855978727340698,-0.22218330204486847
0.7334529757499695,1.595234751701355,-0.2202574908733368
0.7643206715583801,1.632741928100586,-0.2220342457294464
0.7910950183868408,1.659258484840393,-0.22206735610961914
0.8127960562705994,1.6752078533172607,-0.22060449421405792
0.8466389179229736,1.7153655290603638,-0.22216422855854034
0.8760553002357483,1.7446534633636475,-0.22208566963672638
0.9025166630744934,1.7666500806808472,-0.22090956568717957
0.9343978762626648,1.7988638877868652,-0.22082918882369995
0.9777586460113525,1.8512941598892212,-0.22292666137218475
1.0275394916534424,1.913434624671936,-0.225859597325325
1.0727194547653198,1.9647278785705566,-0.22719493508338928
1.0974080562591553,1.9783979654312134,-0.2239532321691513
1.1434104442596436,2.029038667678833,-0.22468416392803192
1.202439546585083,2.0990471839904785,-0.22698432207107544
1.2463340759277344,2.141746997833252,-0.22608543932437897
1.2845476865768433,2.174130916595459,-0.2238519787788391
1.309704065322876,2.1824800968170166,-0.21882405877113342
1.3292125463485718,2.1804587841033936,-0.21260230243206024
1.3441706895828247,2.1719422340393066,-0.20561768114566803
1.3548336029052734,2.1567630767822266,-0.19805602729320526
1.359603762626648,2.131342887878418,-0.18940110504627228
1.7339870929718018,2.6786887645721436,-0.230038121342659
1.835314393043518,2.794811248779297,-0.23156797885894775
1.896437406539917,2.8439877033233643,-0.22635354101657867
1.8479561805725098,2.7317590713500977,-0.20859195291996002
1.8329181671142578,2.671966075897217,-0.19528061151504517
1.869616985321045,2.6852612495422363,-0.18677349388599396
1.4196293354034424,2.0105957984924316,-0.1327105164527893
1.4468796253204346,2.0204567909240723,-0.1258460283279419
1.4519615173339844,1.9980573654174805,-0.1166350245475769
1.4578864574432373,1.9796887636184692,-0.10776419192552567
2.7493832111358643,3.889324426651001,0.4991683065891266
2.6222522258758545,3.7678818702697754,0.49525830149650574
2.6083054542541504,3.8040709495544434,0.5110663175582886
2.7055625915527344,4.013032913208008,0.5504993200302124
2.6622509956359863,4.01216983795166,0.5609672665596008
2.637667179107666,4.035896301269531,0.5743114948272705
2.606506109237671,4.054332256317139,0.5865930318832397
1.638472557067871,2.591785192489624,0.3810391426086426
1.5909379720687866,2.556490898132324,0.3813704550266266
2.565901517868042,4.189040660858154,0.6336662769317627
2.5254299640655518,4.1938066482543945,0.642725944519043
2.96321964263916,5.004013538360596,0.7765727043151855
2.9509291648864746,5.063220500946045,0.7949537038803101
2.926854372024536,5.106480121612549,0.8109795451164246
2.9028983116149902,5.153794288635254,0.827167272567749
2.87898850440979,5.200689792633057,0.8432921171188354
2.849351644515991,5.232791423797607,0.8566460013389587
2.846738815307617,5.315838813781738,0.8784777522087097
2.81650447845459,5.35629940032959,0.8929422497749329
2.788254737854004,5.399689197540283,0.9078848361968994
2.7668821811676025,5.452268123626709,0.9241027235984802
2.7539658546447754,5.521847724914551,0.9432790279388428
2.713636875152588,5.540040016174316,0.953436553478241
1.2068793773651123,2.511591672897339,0.4353286325931549
1.184813141822815,2.5127768516540527,0.43855056166648865
1.1735422611236572,2.5343422889709473,0.44519540667533875
1.1524235010147095,2.534803628921509,0.4481666684150696
1.144892692565918,2.5670785903930664,0.4565891623497009
2.560439109802246,5.856001377105713,1.0475019216537476
2.548250436782837,5.947820663452148,1.0700446367263794
2.5121986865997314,5.97829008102417,1.0813246965408325
2.4919259548187256,6.047725677490234,1.0997802019119263
2.4626271724700928,6.099725246429443,1.1147810220718384
2.43025541305542,6.1484694480896,1.1289141178131104
2.40073561668396,6.208069324493408,1.1452505588531494
2.3662595748901367,6.248636245727539,1.157893180847168
2.343609094619751,6.321393966674805,1.1765986680984497
2.315941095352173,6.383335590362549,1.1933162212371826
2.2794981002807617,6.427723407745361,1.206112265586853
2.2529382705688477,6.504894256591797,1.2252776622772217
2.2183210849761963,6.555999755859375,1.2395159006118774
2.187969923019409,6.617486953735352,1.2557146549224854
2.143869400024414,6.638607978820801,1.2643531560897827
2.08721661567688,6.623106002807617,1.2655996084213257
2.0213685035705566,6.58198356628418,1.2615704536437988
1.959262490272522,6.5474042892456055,1.2587379217147827
1.904091477394104,6.53046989440918,1.2592405080795288
1.8415451049804688,6.483359336853027,1.2538803815841675
1.7848001718521118,6.454232215881348,1.252008080482483
1.7286925315856934,6.428680419921875,1.2502593994140625
1.6689252853393555,6.39187479019165,1.2460870742797852
1.6134378910064697,6.3655242919921875,1.2439258098602295
0.8057413101196289,3.2754666805267334,0.6416099667549133
0.7917223572731018,3.3178458213806152,0.6514727473258972
1.4548858404159546,6.29051399230957,1.2381802797317505
1.4077105522155762,6.292507648468018,1.2411240339279175
1.3464175462722778,6.226654529571533,1.2303394079208374
1.3018147945404053,6.235344409942627,1.2343207597732544
1.25247323513031,6.217287540435791,1.2330282926559448
1.2031971216201782,6.195002555847168,1.2309118509292603
1.144391417503357,6.123476982116699,1.219071388244629
1.1026333570480347,6.138236045837402,1.2240240573883057
1.0505658388137817,6.096211910247803,1.217208981513977
1.002203106880188,6.072684288024902,1.2141305208206177
0.9568200707435608,6.063894748687744,1.2140398025512695
0.7598099708557129,5.046911716461182,1.0118688344955444
0.7284037470817566,5.078153610229492,1.0196027755737305
0.7048349380493164,5.169946670532227,1.0395127534866333
0.6692537665367126,5.182043552398682,1.0428037643432617
0.6344641447067261,5.201498508453369,1.0476313829421997
0.5968114733695984,5.1978864669799805,1.0478665828704834
0.5582448244094849,5.186403751373291,1.0465682744979858
0.5205758810043335,5.17457389831543,1.0452256202697754
0.38676443696022034,4.133028507232666,0.8357148170471191
0.35520854592323303,4.10490608215332,0.8305612206459045
0.32938194274902344,4.1453070640563965,0.8391014933586121
0.2986139953136444,4.132112503051758,0.836843729019165
0.2707058787345886,4.14921760559082,0.8407546281814575
0.24187296628952026,4.1508331298828125,0.8415663838386536
0.3970295190811157,7.7386298179626465,1.5699572563171387
0.34221795201301575,7.71796989440918,1.5667046308517456
0.2866610586643219,7.700982570648193,1.5632925033569336
0.23175601661205292,7.6644368171691895,1.555985450744629
0.1780870407819748,7.6581196784973145,1.5548903942108154
0.12363304197788239,7.586356163024902,1.5405789613723755
0.07079380750656128,7.579284191131592,1.5394766330718994
0.017014944925904274,7.533565998077393,1.5306040048599243
-0.035317312926054,7.522039413452148,1.528165340423584
-0.08734633773565292,7.498763561248779,1.5229181051254272
-0.13905341923236847,7.475128650665283,1.517674446105957
-0.19024045765399933,7.443481922149658,1.5108808279037476
-0.24111860990524292,7.415312767028809,1.5048683881759644
-0.29436612129211426,7.432665824890137,1.5081640481948853
-0.34675148129463196,7.4458537101745605,1.5106912851333618
-0.2871955931186676,5.367639064788818,1.088273048400879
-0.3257102072238922,5.388685703277588,1.0917775630950928
-0.3611830770969391,5.359793663024902,1.085216760635376
-0.3972877562046051,5.334436416625977,1.07941734790802
-0.43374982476234436,5.324141979217529,1.0767321586608887
-0.4588923454284668,5.18772554397583,1.0486079454421997
-0.4376582205295563,4.586173057556152,0.9263529777526855
-0.4676828384399414,4.568130970001221,0.9216843247413635
-0.5004956126213074,4.572684288024902,0.9216041564941406
-0.5280037522315979,4.535205841064453,0.9131183624267578
-0.5585598349571228,4.524145126342773,0.9099963903427124
-0.5924581289291382,4.539468765258789,0.9122231602668762
-0.6193367838859558,4.501397609710693,0.9037654399871826
-0.6507813930511475,4.497383117675781,0.9016532897949219
-0.6792713403701782,4.47810173034668,0.8964443206787109
-0.7075774073600769,4.45863151550293,0.8912461996078491
-0.7345929741859436,4.431387424468994,0.8845391273498535
-0.7641739249229431,4.419039249420166,0.8808445334434509
-0.7928895354270935,4.4027276039123535,0.8764097094535828
-0.8210705518722534,4.382443428039551,0.8709745407104492
-0.8451452851295471,4.347162246704102,0.8622724413871765
-0.7339529991149902,3.6426198482513428,0.7211383581161499
-0.7589532732963562,3.6379456520080566,0.7188524007797241
-0.9315410256385803,4.315401077270508,0.8511189222335815
-0.9637815356254578,4.316729545593262,0.8497902750968933
-0.9938062429428101,4.310464859008789,0.8470032811164856
-1.0213420391082764,4.296783447265625,0.8422431349754333
-1.0441734790802002,4.264284610748291,0.8338496088981628
-1.0750521421432495,4.265161037445068,0.8320298790931702
-1.1013474464416504,4.243249416351318,0.8257306218147278
-1.1329658031463623,4.2435173988342285,0.8238162994384766
-1.1626086235046387,4.236144542694092,0.8204555511474609
-1.181030511856079,4.191891670227051,0.8095325231552124
-1.2094866037368774,4.184509754180908,0.8056986927986145
-1.2405588626861572,4.184168815612793,0.8032136559486389
-1.2673871517181396,4.1688432693481445,0.797876238822937
-1.2919474840164185,4.145954132080078,0.7911283373832703
-1.3162487745285034,4.122917652130127,0.7844076156616211
-1.3466989994049072,4.121981143951416,0.7814801335334778
-1.3689390420913696,4.095231056213379,0.7735547423362732
-1.3978428840637207,4.090347766876221,0.7698559761047363
-1.4225304126739502,4.070457458496094,0.7632874250411987
-1.451053500175476,4.061227321624756,0.7587466835975647
-1.474195122718811,4.037349224090576,0.7515204548835754
-1.4906678199768066,3.9993748664855957,0.7412184476852417
-1.518081784248352,3.989978075027466,0.7362035512924194
-1.5450488328933716,3.980525255203247,0.7312584519386292
-1.5785908699035645,3.984856367111206,0.7287542819976807
-1.6093802452087402,3.981771230697632,0.7249118089675903
-1.6279877424240112,3.9501702785491943,0.7157547473907471
-1.657902717590332,3.947085380554199,0.7114185094833374
-1.6873729228973389,3.9439587593078613,0.7071603536605835
-1.7052799463272095,3.91204833984375,0.6976855993270874
-1.735923171043396,3.9080185890197754,0.6931499242782593
-1.7634103298187256,3.8967199325561523,0.6873523592948914
-1.7802653312683105,3.864680051803589,0.6774099469184875
-1.8093777894973755,3.8607337474823,0.6724951267242432
-1.8323442935943604,3.8424248695373535,0.6650314331054688
-1.8662006855010986,3.8443872928619385,0.6609452962875366
-1.8865225315093994,3.818352222442627,0.6520731449127197
-1.909165382385254,3.7996082305908203,0.644038200378418
-1.934519648551941,3.7879109382629395,0.637247622013092
-1.9674228429794312,3.7895138263702393,0.6326099634170532
-1.9833645820617676,3.756190538406372,0.6219960451126099
-2.008042335510254,3.7398552894592285,0.6142510175704956
-2.01800274848938,3.700510025024414,0.6023767590522766
-1.7018303871154785,3.0722227096557617,0.4955225884914398
-1.7269092798233032,3.0681166648864746,0.4901500642299652
-0.8339565992355347,1.4578813314437866,0.23061427474021912
-0.8478341102600098,1.459320068359375,0.22846706211566925
-0.8535128831863403,1.4475301504135132,0.22418087720870972
-0.8673931956291199,1.4488110542297363,0.22183442115783691
-0.8736339807510376,1.4365289211273193,0.21733041107654572
-0.8836361765861511,1.4309269189834595,0.21382132172584534
-0.897108256816864,1.432206392288208,0.21122582256793976
-0.8941397666931152,1.407106637954712,0.20473222434520721
-0.8917263150215149,1.3815861940383911,0.19800931215286255
-0.9012919664382935,1.375909447669983,0.19419115781784058
-0.8995106816291809,1.3543821573257446,0.18808874487876892
-0.9498904347419739,1.40995454788208,0.192466601729393
-2.3933119773864746,3.499673366546631,0.46893495321273804
-1.393936038017273,1.9832236766815186,0.2552888095378876
-1.410218596458435,2.255683183670044,-0.20306198298931122
-1.4064476490020752,2.2848496437072754,-0.212213933467865
-1.3090325593948364,2.161172866821289,-0.20683994889259338
-1.2610008716583252,2.116701126098633,-0.20852228999137878
-0.8241096138954163,1.428981900215149,-0.14838524162769318
-0.848017692565918,1.4955084323883057,-0.1591811329126358
-1.0948289632797241,1.9629896879196167,-0.2138657122850418
-1.062201976776123,1.9359915256500244,-0.2156742662191391
-1.0202982425689697,1.891798496246338,-0.21532495319843292
-0.9679588079452515,1.8266268968582153,-0.21235176920890808
-0.9334506988525391,1.7915174961090088,-0.21239469945430756
-0.890498161315918,1.7388153076171875,-0.21010902523994446
-0.8707623481750488,1.730851411819458,-0.21302568912506104
-0.8427830338478088,1.705203652381897,-0.21361705660820007
-0.8202992677688599,1.6897289752960205,-0.21537941694259644
-0.7947297692298889,1.6670384407043457,-0.2160150557756424
-0.75460284948349,1.6125229597091675,-0.21232305467128754
-0.7398526668548584,1.6102925539016724,-0.2153111845254898
-0.7220920920372009,1.600818157196045,-0.21726708114147186
-0.6964449286460876,1.5735570192337036,-0.2166551947593689
-0.672498881816864,1.5496883392333984,-0.21643872559070587
-0.6614754796028137,1.5539265871047974,-0.21999400854110718
-0.6415155529975891,1.5366218090057373,-0.2204580456018448
-0.6157888770103455,1.5048731565475464,-0.21865786612033844
-0.6006094813346863,1.4980109930038452,-0.22037899494171143
-0.586951494216919,1.494618535041809,-0.22259487211704254
-0.5652744174003601,1.4693641662597656,-0.22144228219985962
-0.534288763999939,1.4186307191848755,-0.21621495485305786
-0.5214185118675232,1.4147288799285889,-0.21800680458545685
-0.5166423320770264,1.4324835538864136,-0.22312486171722412
-0.4935186207294464,1.3992516994476318,-0.22030484676361084
0.4942925274372101,1.4072216749191284,-0.2211347073316574
0.5093065500259399,1.4187222719192505,-0.22067128121852875
0.527281641960144,1.4373068809509277,-0.22123557329177856
0.5470636487007141,1.459285020828247,-0.22220028936862946
0.5599430799484253,1.4631338119506836,-0.22028665244579315
0.5841608643531799,1.495705485343933,-0.22263407707214355
0.6004340648651123,1.506392478942871,-0.22160539031028748
0.6212596297264099,1.5276849269866943,-0.22207915782928467
0.6409143805503845,1.5452182292938232,-0.2217787653207779
0.6636532545089722,1.5697706937789917,-0.2224532663822174
0.6808522343635559,1.57977294921875,-0.22093962132930756
0.6966748833656311,1.5860594511032104,-0.21886809170246124
0.7203104496002197,1.6100025177001953,-0.2190789133310318
0.7476934790611267,1.6406923532485962,-0.22003306448459625
0.7772071957588196,1.6745933294296265,-0.2212732583284378
0.808912992477417,1.7116713523864746,-0.22277769446372986
0.835812509059906,1.7380707263946533,-0.22267857193946838
0.861386239528656,1.7607128620147705,-0.22198328375816345
0.8878849148750305,1.7828302383422852,-0.22094586491584778
0.9373045563697815,1.8498172760009766,-0.22532525658607483
0.9499584436416626,1.843920111656189,-0.2206188440322876
1.0040923357009888,1.9170585870742798,-0.22518737614154816
1.0340583324432373,1.9413747787475586,-0.22367766499519348
1.0661108493804932,1.968871831893921,-0.222376748919487
1.111586332321167,2.019949197769165,-0.2234242558479309
1.1616345643997192,2.077287435531616,-0.22487874329090118
1.210910439491272,2.130506992340088,-0.2254967838525772
1.2702486515045166,2.200270891189575,-0.22751224040985107
1.2870917320251465,2.1956095695495605,-0.22163255512714386
1.314753532409668,2.207047462463379,-0.2170097678899765
1.3341798782348633,2.2051031589508057,-0.21108493208885193
1.353049874305725,2.2033417224884033,-0.20513643324375153
1.347611427307129,2.1615262031555176,-0.19538725912570953
1.3441001176834106,2.122934103012085,-0.18596525490283966
1.7502901554107666,2.7240283489227295,-0.23082223534584045
1.8410921096801758,2.823821544647217,-0.23112568259239197
1.8653159141540527,2.8180012702941895,-0.22210267186164856
1.8146504163742065,2.702578544616699,-0.20475082099437714
1.8151923418045044,2.6652443408966064,-0.19359280169010162
1.8298654556274414,2.646414279937744,-0.18329446017742157
1.4174150228500366,2.0216829776763916,-0.13327281177043915
1.4355207681655884,2.018937349319458,-0.12608401477336884
1.4450222253799438,2.0030159950256348,-0.11775488406419754
1.446343183517456,1.9783903360366821,-0.1090213730931282
1.466943383216858,1.9782087802886963,-0.10110433399677277
2.808980941772461,3.941920757293701,0.4715825319290161
2.7279531955718994,3.8879687786102295,0.47715070843696594
2.606862783432007,3.7717432975769043,0.47387436032295227
2.664119243621826,3.919213056564331,0.503406822681427
2.6931726932525635,4.024449825286865,0.5274254083633423
2.6601016521453857,4.035461902618408,0.5388985872268677
2.636418342590332,4.067824363708496,0.5530194044113159
1.637434720993042,2.5681917667388916,0.355029433965683
1.6231729984283447,2.585423469543457,0.36292630434036255
1.591658353805542,2.576660394668579,0.36702921986579895
2.551616668701172,4.201706409454346,0.606928825378418
2.520167589187622,4.219103813171387,0.6175469756126404
2.9653308391571045,5.043778419494629,0.7474474310874939
2.927549123764038,5.064044952392578,0.7592576742172241
2.917386770248413,5.135056972503662,0.7786334753036499
2.902578592300415,5.195011615753174,0.7961007356643677
2.8650336265563965,5.214085578918457,0.8073312044143677
2.8467912673950195,5.270813465118408,0.8240184783935547
2.8212828636169434,5.317891597747803,0.8390451669692993
2.803373098373413,5.378087520599365,0.8560956120491028
2.7740604877471924,5.413382053375244,0.8689908981323242
2.7452125549316406,5.452393531799316,0.8826372027397156
2.743666887283325,5.550929069519043,0.9053711295127869
1.2227919101715088,2.520637273788452,0.4142082631587982
1.2113288640975952,2.5425891876220703,0.42079421877861023
1.1851223707199097,2.5329012870788574,0.42212164402008057
1.1636075973510742,2.5336716175079346,0.4250737130641937
1.155452847480774,2.566389560699463,0.4332661032676697
1.1394038200378418,2.5813188552856445,0.43846747279167175
2.5535237789154053,5.896227836608887,1.0073779821395874
2.5270159244537354,5.94810152053833,1.02211332321167
2.5007081031799316,6.003742694854736,1.0373579263687134
2.4643516540527344,6.0423264503479,1.0493346452713013
2.4426662921905518,6.11619234085083,1.0674701929092407
2.4144747257232666,6.171545505523682,1.0823414325714111
2.3874683380126953,6.23021125793457,1.0978615283966064
2.3610596656799316,6.29240608215332,1.1140803098678589
2.3246822357177734,6.337454319000244,1.1266934871673584
2.295022487640381,6.400167465209961,1.1424899101257324
2.2614474296569824,6.451626300811768,1.1563286781311035
2.2323460578918457,6.513411998748779,1.1720020771026611
2.2037088871002197,6.578729629516602,1.1884381771087646
2.1689581871032715,6.633573055267334,1.2027010917663574
2.1206424236297607,6.647986888885498,1.2092595100402832
2.0505802631378174,6.5922064781188965,1.203066110610962
1.994935154914856,6.57594633102417,1.2039865255355835
1.9346373081207275,6.54066276550293,1.2013980150222778
1.8781265020370483,6.515958309173584,1.200761318206787
1.8149317502975464,6.472911834716797,1.1961308717727661
1.7559672594070435,6.440351486206055,1.1932294368743896
1.7045284509658813,6.433289051055908,1.19507896900177
1.64594566822052,6.392012119293213,1.1905101537704468
1.5928899049758911,6.368841648101807,1.1893162727355957
0.7946332693099976,3.275420904159546,0.6133114099502563
1.4817492961883545,6.303083419799805,1.1826621294021606
1.4314961433410645,6.2902607917785645,1.1826201677322388
1.3640934228897095,6.198267936706543,1.167710304260254
1.3269883394241333,6.236981391906738,1.1774049997329712
1.2702504396438599,6.1852874755859375,1.1701127290725708
1.2240688800811768,6.1781792640686035,1.1712374687194824
1.1752259731292725,6.159651279449463,1.169607400894165
1.1243499517440796,6.129502773284912,1.1656125783920288
1.080689549446106,6.136749744415283,1.1687746047973633
1.0259190797805786,6.079363822937012,1.1596754789352417
0.9798259139060974,6.063048362731934,1.1583967208862305
0.925220787525177,5.989492416381836,1.1462061405181885
0.7371973395347595,5.004337787628174,0.9589334726333618
0.73050457239151,5.21429967880249,1.000170350074768
0.6878820657730103,5.181005954742432,0.9948479533195496
0.6513679027557373,5.1853532791137695,0.9967725276947021
0.6170992255210876,5.2046332359313965,1.0016053915023804
0.5850864052772522,5.2465667724609375,1.0108599662780762
0.5377206206321716,5.147146224975586,0.9928240776062012
0.5022229552268982,5.158205509185791,0.9955123066902161
0.37060391902923584,4.110803127288818,0.7938570380210876
0.34420397877693176,4.143703460693359,0.8007351756095886
0.3159449100494385,4.15346097946167,0.8031790256500244
0.2865094840526581,4.147719383239746,0.802664577960968
0.25812000036239624,4.157081127166748,0.8051120042800903
0.4243718087673187,7.720000267028809,1.4957045316696167
0.3707045912742615,7.73029088973999,1.497968077659607
0.3151884078979492,7.698058605194092,1.4920635223388672
0.26044633984565735,7.6692585945129395,1.4868924617767334
0.2069166749715805,7.66306734085083,1.4861735105514526
0.1516856551170349,7.614346981048584,1.477284550666809
0.09844004362821579,7.592094898223877,1.4734193086624146
0.04540709778666496,7.561964511871338,1.4672296047210693
-0.007208953145891428,7.539134502410889,1.4625295400619507
-0.059656769037246704,7.5351128578186035,1.4615497589111328
-0.11227593570947647,7.488536357879639,1.4523861408233643
-0.1634732186794281,7.449282169342041,1.4447166919708252
-0.21512733399868011,7.444177627563477,1.4437404870986938
-0.2668077051639557,7.44650411605835,1.4436500072479248
-0.3182254731655121,7.4408793449401855,1.4416980743408203
-0.26675891876220703,5.366457939147949,1.0391994714736938
-0.3056911826133728,5.383760452270508,1.0420169830322266
-0.3423754870891571,5.370192527770996,1.0389173030853271
-0.37915661931037903,5.360199928283691,1.0365612506866455
-0.41585299372673035,5.349963665008545,1.0341532230377197
-0.44949832558631897,5.309048652648926,1.0252106189727783
-0.4208236038684845,4.587899684906006,0.8850865364074707
-0.45325884222984314,4.592777729034424,0.885215163230896
-0.4827110767364502,4.566889762878418,0.8794549703598022
-0.5144557356834412,4.5636820793151855,0.8781075477600098
-0.5439488887786865,4.541199207305908,0.8730955719947815
-0.5758466124534607,4.537592887878418,0.8713861107826233
-0.6029744744300842,4.503464698791504,0.8636273145675659
-0.6317518353462219,4.484381198883057,0.8588086366653442
-0.6615679860115051,4.472685813903809,0.8554456830024719
-0.6914516687393188,4.4607625007629395,0.8520768880844116
-0.721796989440918,4.448547840118408,0.8486775159835815
-0.7526084184646606,4.443820953369141,0.8466765880584717
-0.7783253788948059,4.412569522857666,0.8391751646995544
-0.8070657253265381,4.40006160736084,0.8352917432785034
-0.8328450322151184,4.372265815734863,0.8285530209541321
-0.7187749743461609,3.635885000228882,0.6878002882003784
-0.7445196509361267,3.6310980319976807,0.685699462890625
-0.7682389616966248,3.6186904907226562,0.682214081287384
-0.9461334347724915,4.311800956726074,0.8110936284065247
-0.9772347807884216,4.313300132751465,0.8095148205757141
-1.0048556327819824,4.299616813659668,0.8051271438598633
-1.0323997735977173,4.281802654266357,0.7999529838562012
-1.0622947216033936,4.275054454803467,0.7969040274620056
-1.0920993089675903,4.2681050300598145,0.7938593626022339
-1.1174551248550415,4.24625825881958,0.7877492308616638
-1.140251636505127,4.2169508934021,0.7800986170768738
-1.169402837753296,4.209622383117676,0.7765214443206787
-1.1941547393798828,4.187326908111572,0.7702382206916809
-1.2255305051803589,4.1869306564331055,0.7679948210716248
-1.2547013759613037,4.17894172668457,0.7643953561782837
-1.2788166999816895,4.156230449676514,0.7578409910202026
-1.30736243724823,4.148093223571777,0.7537065148353577
-1.3306667804718018,4.12523889541626,0.7469848394393921
-1.3566334247589111,4.109410762786865,0.7415382266044617
-1.387830138206482,4.107865810394287,0.7386630177497864
-1.4139964580535889,4.091535568237305,0.7331691980361938
-1.438049554824829,4.07169246673584,0.7267445921897888
-1.4528913497924805,4.026318073272705,0.7156211137771606
-1.487985372543335,4.038939476013184,0.7149057388305664
-1.5160009860992432,4.029342174530029,0.7101854085922241
-1.5386590957641602,4.005068778991699,0.7028982639312744
-1.566624641418457,3.9950449466705322,0.698154628276825
-1.5852690935134888,3.9636857509613037,0.6891912221908569
-1.617674708366394,3.968126058578491,0.6865478754043579
-1.644547939300537,3.9579598903656006,0.681363046169281
-1.666332721710205,3.9330058097839355,0.6735501289367676
-1.6970267295837402,3.9291861057281494,0.6693964600563049
-1.7243783473968506,3.9182255268096924,0.6637178659439087
-1.750620722770691,3.907539129257202,0.6579976081848145
-1.7735896110534668,3.8896424770355225,0.6510998010635376
-1.7975695133209229,3.8711001873016357,0.6439633965492249
-1.81820809841156,3.8453571796417236,0.6356621384620667
-1.8518620729446411,3.8474509716033936,0.6317371726036072
-1.8741068840026855,3.8290956020355225,0.6242839694023132
-1.8875737190246582,3.79329776763916,0.6140509247779846
-1.9176321029663086,3.78792667388916,0.6085690259933472
-1.9461241960525513,3.778784990310669,0.6024654507637024
-1.9720486402511597,3.76640248298645,0.5956652760505676
-2.001126527786255,3.7609164714813232,0.5896763801574707
-2.009671449661255,3.717900276184082,0.577921986579895
-2.035909652709961,3.7047340869903564,0.5705899000167847
-1.7183793783187866,3.0761430263519287,0.46938008069992065
-1.738860845565796,3.0655677318573,0.46309834718704224
-0.8313658833503723,1.4434728622436523,0.215793639421463
-0.8491206765174866,1.4515511989593506,0.21465764939785004
-0.863355278968811,1.452632188796997,0.21239623427391052
-0.8572147488594055,1.420637607574463,0.20527368783950806
-0.8705762624740601,1.422060251235962,0.20295731723308563
-0.8721857666969299,1.4033273458480835,0.1976565271615982
-0.8779928684234619,1.3910261392593384,0.19323258101940155
-0.8874491453170776,1.3855000734329224,0.18970470130443573
-0.8880012035369873,1.367152214050293,0.1843884140253067
-0.9144467711448669,1.3874629735946655,0.18411760032176971
-0.9072410464286804,1.3554812669754028,0.17673362791538239
-0.9598289728164673,1.4142301082611084,0.18106065690517426
-2.387291669845581,3.469973087310791,0.4359564781188965
-1.2850805521011353,1.814751386642456,0.21835081279277802
-1.1851550340652466,1.684637427330017,-0.1063518226146698
-1.4028311967849731,2.2605676651000977,-0.19989192485809326
-1.4021003246307373,2.29695463180542,-0.20951241254806519
-1.3052489757537842,2.172877311706543,-0.20400667190551758
-1.2935631275177002,2.1882877349853516,-0.21113254129886627
-0.8383718132972717,1.4659698009490967,-0.14882755279541016
-1.1389607191085815,2.0240752696990967,-0.21037283539772034
-1.1049458980560303,1.997910976409912,-0.2124890238046646
-1.0587304830551147,1.9472720623016357,-0.2116657793521881
-1.0174357891082764,1.9027202129364014,-0.21111300587654114
-0.989272952079773,1.8818975687026978,-0.21299633383750916
-0.948696494102478,1.836754560470581,-0.2119227796792984
-0.9176807999610901,1.8084362745285034,-0.21259476244449615
-0.8892703652381897,1.7830636501312256,-0.21335861086845398
-0.8626505732536316,1.761038899421692,-0.2143566757440567
-0.8363052010536194,1.7387750148773193,-0.2152058333158493
-0.8024011254310608,1.6985270977020264,-0.21358995139598846
-0.7740629315376282,1.6684435606002808,-0.21308743953704834
-0.7520954012870789,1.6524195671081543,-0.21424983441829681
-0.7227067947387695,1.6183775663375854,-0.21291260421276093
-0.7019187808036804,1.6016572713851929,-0.2136746644973755
-0.6798484921455383,1.5811799764633179,-0.21385207772254944
-0.6623987555503845,1.5712970495224,-0.21530117094516754
-0.6419762372970581,1.5541566610336304,-0.21575021743774414
-0.6339326500892639,1.5653631687164307,-0.2200048714876175
-0.617159366607666,1.5549393892288208,-0.22121018171310425
-0.5947580337524414,1.5300158262252808,-0.22017830610275269
-0.5741325616836548,1.5084773302078247,-0.21955350041389465
-0.5524940490722656,1.4831061363220215,-0.2182931751012802
-0.531438946723938,1.4574538469314575,-0.21686361730098724
-0.5183995962142944,1.4535266160964966,-0.21848763525485992
-0.5054525136947632,1.4494842290878296,-0.22008079290390015
-0.48896387219429016,1.4343187808990479,-0.21993257105350494
-0.47134533524513245,1.4153759479522705,-0.2191869169473648
-0.46124815940856934,1.4183162450790405,-0.22164739668369293
0.48493492603302,1.4275791645050049,-0.21844275295734406
0.5024632811546326,1.446481704711914,-0.21918924152851105
0.5270110368728638,1.4833564758300781,-0.22252157330513
0.5400993227958679,1.4872833490371704,-0.22087623178958893
0.5423908233642578,1.4621241092681885,-0.21487128734588623
0.5717102289199829,1.5094157457351685,-0.21942515671253204
0.585033118724823,1.5130317211151123,-0.21753068268299103
0.6058197021484375,1.5344455242156982,-0.21808968484401703
0.6223256587982178,1.5449771881103516,-0.21703961491584778
0.6447616815567017,1.569752812385559,-0.21786555647850037
0.6751316785812378,1.6121443510055542,-0.22099974751472473
0.6895297765731812,1.6149331331253052,-0.21858727931976318
0.713391125202179,1.6388919353485107,-0.21890483796596527
0.7482524514198303,1.687585473060608,-0.2223714143037796
0.756758987903595,1.675761342048645,-0.2177695482969284
0.7944944500923157,1.7272675037384033,-0.2212708741426468
0.8147726655006409,1.7397409677505493,-0.21961648762226105
0.846945583820343,1.7765644788742065,-0.22081278264522552
0.8711072206497192,1.7956093549728394,-0.21970432996749878
0.8975359201431274,1.8177798986434937,-0.2188180685043335
0.9363443851470947,1.8640632629394531,-0.22065678238868713
0.9702918529510498,1.8996583223342896,-0.22101300954818726
1.001399040222168,1.9278868436813354,-0.22030344605445862
1.0424723625183105,1.9727469682693481,-0.22119015455245972
1.0873310565948486,2.0242903232574463,-0.22263169288635254
1.119703769683838,2.051542282104492,-0.22119592130184174
1.162347674369812,2.0952439308166504,-0.22122347354888916
1.2363331317901611,2.19262957572937,-0.22654378414154053
1.264930248260498,2.208313226699829,-0.2230057567358017
1.2877812385559082,2.213690996170044,-0.21839603781700134
1.311295747756958,2.2185568809509277,-0.21349795162677765
1.3305480480194092,2.2167444229125977,-0.2079082578420639
1.3454021215438843,2.208338975906372,-0.2016729861497879
1.3405617475509644,2.166196584701538,-0.19213344156742096
1.3598769903182983,2.1638994216918945,-0.18622834980487823
1.7576783895492554,2.7565722465515137,-0.2299063354730606
1.8210344314575195,2.8138468265533447,-0.22693680226802826
1.8558717966079712,2.824415922164917,-0.21972182393074036
1.7970212697982788,2.695756673812866,-0.20183001458644867
1.79783296585083,2.6582882404327393,-0.19110503792762756
1.838602066040039,2.678342342376709,-0.18420372903347015
1.4237964153289795,2.0457890033721924,-0.1342943161725998
1.417415738105774,2.0078518390655518,-0.12520655989646912
1.4314581155776978,1.9983243942260742,-0.11764778196811676
1.451144814491272,1.9989832639694214,-0.11078859120607376
1.4580918550491333,1.9798299074172974,-0.10224875807762146
2.7921674251556396,3.946695327758789,0.4505281150341034
2.6520469188690186,3.805938959121704,0.4455699026584625
2.601806163787842,3.796581745147705,0.4551891088485718
2.710294485092163,4.017411708831787,0.49219945073127747
2.676959991455078,4.028875827789307,0.5035368800163269
2.653831720352173,4.061206340789795,0.5172086954116821
2.623422861099243,4.079442501068115,0.5287033915519714
1.63054358959198,2.574711322784424,0.3391708433628082
1.6065372228622437,2.5797054767608643,0.3451855480670929
2.5610809326171875,4.1829447746276855,0.5681074857711792
2.547208547592163,4.226316928863525,0.5817656517028809
2.9681785106658936,5.003516674041748,0.6978638768196106
2.9453413486480713,5.051315784454346,0.7131879925727844
2.9311506748199463,5.11605978012085,0.7311605215072632
2.8948111534118652,5.135158538818359,0.7419713735580444
2.8846235275268555,5.2014360427856445,0.7597051858901978
2.8599259853363037,5.248828887939453,0.7742679119110107
2.8255271911621094,5.279038906097412,0.7863948345184326
2.815995931625366,5.352712154388428,0.804800271987915
2.7887003421783447,5.391635894775391,0.8179469704627991
2.7646751403808594,5.44160795211792,0.832466185092926
2.7530484199523926,5.519618511199951,0.85124671459198
2.732928991317749,5.579868316650391,0.8672888278961182
1.2139415740966797,2.5235743522644043,0.39523398876190186
1.196070671081543,2.5314395427703857,0.399399071931839
1.1771771907806396,2.5396556854248047,0.403353214263916
1.158247947692871,2.5477161407470703,0.4073018729686737
1.1414744853973389,2.558896541595459,0.4116850197315216
2.569133758544922,5.868801593780518,0.9500431418418884
2.546574592590332,5.931918621063232,0.9661869406700134
2.5177195072174072,5.984831809997559,0.9800861477851868
2.486690044403076,6.034066200256348,0.9935027956962585
2.4577624797821045,6.086256504058838,1.0073689222335815
2.430490493774414,6.141590595245361,1.0217677354812622
2.40040922164917,6.193485736846924,1.0358014106750488
2.37274432182312,6.256594181060791,1.050984263420105
2.3428711891174316,6.316012859344482,1.065643310546875
2.307546854019165,6.360610008239746,1.0778558254241943
2.282287359237671,6.429938793182373,1.094216227531433
2.252751350402832,6.49219274520874,1.1095916032791138
2.2162063121795654,6.5361714363098145,1.1214184761047363
2.1867880821228027,6.605888843536377,1.1374130249023438
2.1482434272766113,6.649801254272461,1.1490702629089355
2.086052894592285,6.615943908691406,1.1472339630126953
2.0297794342041016,6.600061893463135,1.1485544443130493
1.9668203592300415,6.557685852050781,1.1452057361602783
1.910861849784851,6.54113245010376,1.145624041557312
1.8487879037857056,6.5019402503967285,1.1420207023620605
1.7883391380310059,6.465935230255127,1.1389909982681274
1.7321157455444336,6.436445713043213,1.137007236480713
1.6785129308700562,6.417863368988037,1.1370289325714111
1.622122049331665,6.383784294128418,1.134214162826538
0.8079620599746704,3.2775862216949463,0.5836116075515747
0.7915639877319336,3.3128480911254883,0.5912112593650818
1.4645189046859741,6.328614711761475,1.1319711208343506
1.4085938930511475,6.28927755355835,1.1275150775909424
1.3524065017700195,6.241810321807861,1.1215710639953613
1.292964220046997,6.175067901611328,1.112125277519226
1.2519807815551758,6.198602199554443,1.1181917190551758
1.1996397972106934,6.1652421951293945,1.1140462160110474
1.1478099822998047,6.135366916656494,1.110595464706421
1.0988225936889648,6.108580112457275,1.1076631546020508
1.0509856939315796,6.085193634033203,1.1053779125213623
1.004784107208252,6.069029808044434,1.1044410467147827
0.8259865641593933,5.21735143661499,0.9506270289421082
0.7596222162246704,5.0327277183532715,0.9181051254272461
0.721764326095581,5.022392272949219,0.9173585176467896
0.7017008662223816,5.137392520904541,0.9395580887794495
0.6722819805145264,5.191337585449219,0.9506709575653076
0.6389333605766296,5.218402862548828,0.9569231271743774
0.6058022379875183,5.25299072265625,0.9642177820205688
0.5602878332138062,5.1843438148498535,0.9523332118988037
0.5221517086029053,5.172616958618164,0.9509289264678955
0.3831711709499359,4.081802845001221,0.751018762588501
0.35843467712402344,4.126272678375244,0.7598628997802734
0.3321805000305176,4.159100532531738,0.766611635684967
0.30158066749572754,4.145836353302002,0.7648019194602966
0.2735461890697479,4.163073539733887,0.7682098150253296
0.2477603256702423,4.222304344177246,0.7794091105461121
0.400216668844223,7.749442100524902,1.4310601949691772
0.34371793270111084,7.694277763366699,1.421498417854309
0.2890193462371826,7.688638687133789,1.4211615324020386
0.2343447059392929,7.6518731117248535,1.4151248931884766
0.18035337328910828,7.62637996673584,1.4104827642440796
0.12675580382347107,7.604391098022461,1.4063154458999634
0.07347383350133896,7.582026958465576,1.4021475315093994
0.019653934985399246,7.559293270111084,1.3979806900024414
-0.0326802134513855,7.524661064147949,1.3916800022125244
-0.08466256409883499,7.501191139221191,1.387509822845459
-0.13615386188030243,7.469728946685791,1.3816630840301514
-0.18751412630081177,7.4495649337768555,1.3772443532943726
-0.23913341760635376,7.448246479034424,1.3763788938522339
-0.29046666622161865,7.415829181671143,1.3698257207870483
-0.34343573451042175,7.444489479064941,1.3746294975280762
-0.2853907346725464,5.374411106109619,0.9920822381973267
-0.32321271300315857,5.380081653594971,0.9928705096244812
-0.36037224531173706,5.3779296875,0.9917349219322205
-0.3959181308746338,5.344852924346924,0.984775185585022
-0.4322218894958496,5.334566116333008,0.9820832014083862
-0.4621223509311676,5.251300811767578,0.9660128951072693
-0.43716487288475037,4.601736545562744,0.8459105491638184
-0.4675524830818176,4.583502292633057,0.8419904708862305
-0.49899619817733765,4.572695255279541,0.8392819762229919
-0.5295615792274475,4.561825275421143,0.8362103700637817
-0.5585423111915588,4.539312362670898,0.8310519456863403
-0.5877845287322998,4.520419597625732,0.8266016840934753
-0.6202259063720703,4.524147987365723,0.8263197541236877
-0.6456649899482727,4.474298000335693,0.8162822127342224
-0.6779450178146362,4.47760009765625,0.8160057663917542
-0.7050579786300659,4.450448513031006,0.8097073435783386
-0.7355504631996155,4.445910453796387,0.8075134754180908
-0.7626972198486328,4.422221660614014,0.8018872141838074
-0.7933385372161865,4.417228698730469,0.799677848815918
-0.8175574541091919,4.374098300933838,0.7905862927436829
-0.8450331091880798,4.3535990715026855,0.7856629490852356
-0.7323259115219116,3.639150619506836,0.6554761528968811
-0.7571218013763428,3.634479284286499,0.6532182097434998
-0.9269677996635437,4.302897930145264,0.7717037200927734
-0.9629313945770264,4.323086261749268,0.7736597061157227
-0.9913638234138489,4.309250354766846,0.7695624828338623
-1.0196036100387573,4.295236110687256,0.7654787302017212
-1.0483815670013428,4.2848615646362305,0.7618848085403442
-1.073730230331421,4.263275623321533,0.7560070157051086
-1.1032308340072632,4.256318092346191,0.7527285814285278
-1.1284078359603882,4.234347343444824,0.7468592524528503
-1.1518298387527466,4.204662799835205,0.7396463751792908
-1.1853262186050415,4.211926460266113,0.7389728426933289
-1.2123414278030396,4.196813583374023,0.7342462539672852
-1.2303093671798706,4.152078151702881,0.7239996790885925
-1.2651294469833374,4.166415214538574,0.7241390943527222
-1.2912960052490234,4.150961875915527,0.7191047668457031
-1.3202393054962158,4.142510414123535,0.7152732610702515
-1.3443422317504883,4.119194984436035,0.7089183926582336
-1.3719775676727295,4.10670804977417,0.704220175743103
-1.394659399986267,4.08349084854126,0.6974857449531555
-1.419630765914917,4.067429542541504,0.6920199990272522
-1.4449656009674072,4.05103874206543,0.6864888072013855
-1.4706166982650757,4.034324645996094,0.6808987259864807
-1.4934101104736328,4.01021146774292,0.6741079688072205
-1.5238897800445557,4.007776260375977,0.6706205606460571
-1.550783634185791,3.9982383251190186,0.6658869385719299
-1.5832959413528442,4.002874374389648,0.6635329723358154
-1.602586030960083,3.971036672592163,0.6550430059432983
-1.633379340171814,3.9676387310028076,0.651275098323822
-1.6584594249725342,3.949683427810669,0.6449868083000183
-1.675805926322937,3.9180190563201904,0.636224627494812
-1.6990073919296265,3.900441884994507,0.6297998428344727
-1.7289116382598877,3.896606206893921,0.625541627407074
-1.7626577615737915,3.899320363998413,0.6222589612007141
-1.7807731628417969,3.866452217102051,0.6132791042327881
-1.8098726272583008,3.8623855113983154,0.6085390448570251
-1.8322807550430298,3.8441579341888428,0.601593017578125
-1.8533596992492676,3.8220767974853516,0.5940062403678894
-1.8819164037704468,3.8133656978607178,0.5883979201316833
-1.903978943824768,3.7903733253479004,0.5805459022521973
-1.9291146993637085,3.7786223888397217,0.574134349822998
-1.9577269554138184,3.773576259613037,0.5687549114227295
-1.9727240800857544,3.740506172180176,0.5590431690216064
-2.0063819885253906,3.7411649227142334,0.5542737245559692
-2.028594970703125,3.721359968185425,0.5463979244232178
-1.7081915140151978,3.0849132537841797,0.4485459625720978
-1.7285337448120117,3.074409246444702,0.44269895553588867
-1.7309691905975342,3.029362916946411,0.4316512644290924
-0.8294531106948853,1.4284807443618774,0.20138143002986908
-0.846829891204834,1.4367085695266724,0.20024330914020538
-0.868382453918457,1.4514092206954956,0.199894979596138
-0.8623114228248596,1.4192688465118408,0.1930311918258667
-0.8805376887321472,1.426754117012024,0.19152657687664032
-0.8942158222198486,1.4278380870819092,0.18905316293239594
-0.899401068687439,1.4158306121826172,0.18481780588626862
-0.9009476900100708,1.396864891052246,0.17952142655849457
-0.898056149482727,1.3714064359664917,0.17345279455184937
-0.8962253332138062,1.349793553352356,0.16784878075122833
-0.9093177914619446,1.350831151008606,0.1650599092245102
-2.3949778079986572,3.504760980606079,0.41987019777297974
-1.4976130723953247,2.395211935043335,-0.2012844681739807
-1.4498149156570435,2.355489730834961,-0.2041103094816208
-1.347482681274414,2.261444330215454,-0.2075105607509613
-0.8207683563232422,1.4229484796524048,-0.137488454580307
-1.219222068786621,2.1496434211730957,-0.21273261308670044
-1.1636662483215332,2.086561441421509,-0.2112932652235031
-1.1376539468765259,2.0737218856811523,-0.2145840972661972
-1.0875798463821411,2.0162770748138428,-0.21304990351200104
-1.0487926006317139,1.9791319370269775,-0.21347308158874512
-1.0202553272247314,1.9584592580795288,-0.21533310413360596
-0.9621052145957947,1.8785948753356934,-0.21041245758533478
-0.9291871190071106,1.8468554019927979,-0.21057093143463135
-0.9087984561920166,1.8391482830047607,-0.2133660614490509
-0.8701441287994385,1.792697548866272,-0.21148310601711273
-0.8507185578346252,1.7843166589736938,-0.21390177309513092
-0.8311514854431152,1.7758991718292236,-0.2161993384361267
-0.7745760083198547,1.6861199140548706,-0.20837639272212982
