X,Y,Z
-1.4204925298690796,4.094888210296631,0.21985521912574768
-1.4384442567825317,4.055605411529541,0.21660920977592468
-1.4739028215408325,4.0678534507751465,0.2160421758890152
-1.493010401725769,4.03602409362793,0.21309463679790497
-1.5205795764923096,4.025814056396484,0.21127942204475403
-1.541507363319397,3.997041940689087,0.20848515629768372
-1.5707182884216309,3.989942789077759,0.20683452486991882
-1.596303939819336,3.975670337677002,0.20473527908325195
-1.6169309616088867,3.9505672454833984,0.2020396888256073
-1.6499314308166504,3.95391845703125,0.20077554881572723
-1.6652752161026,3.913681745529175,0.1972835510969162
-1.6707890033721924,3.851956605911255,0.19274888932704926
-1.7093470096588135,3.8692591190338135,0.19208543002605438
-1.7415728569030762,3.872088670730591,0.19066962599754333
-1.7715197801589966,3.867173433303833,0.18882104754447937
-1.7917654514312744,3.840724468231201,0.18592199683189392
-1.8148351907730103,3.821345567703247,0.18336573243141174
-1.8468573093414307,3.8234260082244873,0.18174919486045837
-1.8755728006362915,3.8182287216186523,0.1797831952571869
-1.8988981246948242,3.798072099685669,0.17701376974582672
-1.9023103713989258,3.739638090133667,0.17251147329807281
-1.9236754179000854,3.7200193405151367,0.1697503626346588
-1.9517720937728882,3.714287757873535,0.16760128736495972
-1.9788297414779663,3.7044837474823,0.16520924866199493
-2.0045599937438965,3.690739631652832,0.1626024842262268
-1.705371379852295,3.0892364978790283,0.13436177372932434
-1.7179375886917114,3.064474582672119,0.13155409693717957
-1.7308437824249268,3.0393447875976562,0.12870058417320251
-0.8368725180625916,1.4460868835449219,0.060359202325344086
-0.8425759673118591,1.4337692260742188,0.05895356833934784
-0.8480392098426819,1.4215075969696045,0.05752904340624809
-0.8657881021499634,1.4291051626205444,0.05687912181019783
-0.8839309811592102,1.4363726377487183,0.05617585405707359
-0.885050892829895,1.4173526763916016,0.05442658066749573
-0.8900710940361023,1.405017614364624,0.052943699061870575
-0.8640713691711426,1.342918872833252,0.04954807087779045
-2.384507417678833,3.4971818923950195,0.11736039072275162
-1.2568039894104004,1.8180123567581177,0.05932812765240669
-1.3584153652191162,1.942823052406311,-0.047243062406778336
-1.2023953199386597,1.803297758102417,-0.04950500279664993
-1.2037577629089355,1.8351141214370728,-0.052153151482343674
-1.3827604055404663,2.1749465465545654,-0.06564997881650925
-0.7849036455154419,1.2958612442016602,-0.042296718806028366
-0.8721272349357605,1.5387142896652222,-0.054711971431970596
-1.167088270187378,2.0939559936523438,-0.07586541771888733
-2.0346219539642334,3.71099853515625,-0.13686954975128174
-2.0336503982543945,3.773629665374756,-0.14156948029994965
-2.01450514793396,3.8058722019195557,-0.1452019065618515
-1.9499917030334473,3.747037172317505,-0.14517836272716522
-1.9451700448989868,3.802133321762085,-0.1495453417301178
-1.9208998680114746,3.823085308074951,-0.15252548456192017
-1.8896510601043701,3.8298146724700928,-0.1549360156059265
-1.8692865371704102,3.8570477962493896,-0.1581365168094635
-1.7734591960906982,3.7254223823547363,-0.15471142530441284
-1.700119137763977,3.6390697956085205,-0.15296201407909393
-1.6608147621154785,3.6227529048919678,-0.15408942103385925
-1.611482858657837,3.5807597637176514,-0.15403254330158234
-1.576952576637268,3.5704185962677,-0.15530291199684143
-1.5382534265518188,3.5531680583953857,-0.15619900822639465
-1.5384358167648315,3.625185966491699,-0.1610153615474701
-1.5626778602600098,3.7546133995056152,-0.16840608417987823
-1.6102592945098877,3.945970296859741,-0.17871348559856415
-1.584903597831726,3.9645330905914307,-0.18118000030517578
-1.395145058631897,3.5652496814727783,-0.1644037365913391
-1.3295711278915405,3.4691944122314453,-0.16134852170944214
-1.5151861906051636,4.037291049957275,-0.18935585021972656
-1.4328787326812744,3.9012484550476074,-0.1844443380832672
-1.382476568222046,3.8488869667053223,-0.18335238099098206
-1.3339184522628784,3.799785614013672,-0.1823953092098236
-1.317536473274231,3.8384313583374023,-0.18559807538986206
-1.2721344232559204,3.791943073272705,-0.1846841722726822
-1.207391619682312,3.6858906745910645,-0.18069146573543549
-1.1691288948059082,3.6571834087371826,-0.18044832348823547
-1.1406608819961548,3.6579108238220215,-0.1816512495279312
-1.1094942092895508,3.6470212936401367,-0.1822485774755478
-1.0628447532653809,3.5835559368133545,-0.18014942109584808
-1.0330264568328857,3.5759549140930176,-0.18074697256088257
-1.0097070932388306,3.5906474590301514,-0.18247844278812408
-0.9825935363769531,3.5900046825408936,-0.18342094123363495
-0.9470915198326111,3.559107780456543,-0.18283069133758545
-0.9200522303581238,3.5580711364746094,-0.1836671680212021
-0.878605306148529,3.5001301765441895,-0.18150131404399872
-0.8464537858963013,3.4758710861206055,-0.1810648888349533
-0.8186884522438049,3.4664251804351807,-0.1813843548297882
-0.7828540205955505,3.4226291179656982,-0.1799139380455017
-0.7620984315872192,3.443242073059082,-0.18170776963233948
-0.7328659296035767,3.4255993366241455,-0.1814548373222351
-0.7071665525436401,3.4229800701141357,-0.18199816346168518
-0.6779937148094177,3.4009883403778076,-0.18150591850280762
-0.6450446248054504,3.359687328338623,-0.17999008297920227
-0.624226987361908,3.3794426918029785,-0.1816152185201645
-0.5949332118034363,3.3529915809631348,-0.18073992431163788
-0.5674402713775635,3.3339736461639404,-0.18026338517665863
-0.5373091697692871,3.295454502105713,-0.17872564494609833
-0.5151762962341309,3.3068411350250244,-0.17990660667419434
-0.49422991275787354,3.325777292251587,-0.18136808276176453
-0.46538570523262024,3.2905144691467285,-0.17985376715660095
-0.44124341011047363,3.285935401916504,-0.18001915514469147
-0.4183765649795532,3.288893222808838,-0.18060153722763062
-0.391767680644989,3.260711431503296,-0.17947866022586823
-0.3680988848209381,3.259517192840576,-0.1797301471233368
-0.3436025083065033,3.246479034423828,-0.17929396033287048
-0.31936484575271606,3.233252763748169,-0.17885270714759827
-0.29615694284439087,3.227605104446411,-0.17883574962615967
-0.2724130153656006,3.2140157222747803,-0.17838487029075623
-0.24959208071231842,3.215851068496704,-0.17870181798934937
-0.22599247097969055,3.20194149017334,-0.17809821665287018
-0.20510250329971313,3.2267818450927734,-0.1796589195728302
-0.18049637973308563,3.1891732215881348,-0.17774921655654907
-0.15777583420276642,3.1786489486694336,-0.177354633808136
-0.13563157618045807,3.1874680519104004,-0.17796918749809265
-0.11232412606477737,3.1571478843688965,-0.17633111774921417
-0.09056082367897034,3.165644645690918,-0.1768692135810852
-0.06871327012777328,3.1739907264709473,-0.17740768194198608
-0.045923635363578796,3.127589702606201,-0.17489378154277802
-0.02377108857035637,3.127833843231201,-0.17494240403175354
-0.001981833716854453,3.143526792526245,-0.17576688528060913
0.011602898128330708,1.8330392837524414,-0.10246633738279343
0.023479776456952095,1.7666186094284058,-0.09873314201831818
0.035048820078372955,1.731319785118103,-0.09674514830112457
0.04688240960240364,1.7232389450073242,-0.09626790136098862
0.058521710336208344,1.7072793245315552,-0.09528432786464691
0.06779664009809494,1.6444882154464722,-0.09169729799032211
0.0814736932516098,1.6907316446304321,-0.09419531375169754
0.09323427826166153,1.6901299953460693,-0.0940856859087944
0.100877545773983,1.6232702732086182,-0.09029438346624374
0.11286526918411255,1.630310297012329,-0.09054390341043472
0.12445526570081711,1.6333881616592407,-0.09057930111885071
0.13707788288593292,1.648042917251587,-0.09125930070877075
0.14782293140888214,1.6392918825149536,-0.09064680337905884
0.15996214747428894,1.645999550819397,-0.09089349955320358
0.1723470687866211,1.6526062488555908,-0.09106633067131042
0.18547768890857697,1.6668975353240967,-0.09165602177381516
0.1970110386610031,1.6655884981155396,-0.09138994663953781
0.20857971906661987,1.664193868637085,-0.0911228284239769
0.22220128774642944,1.6781842708587646,-0.09170054644346237
0.23183129727840424,1.6611467599868774,-0.0905284658074379
0.24554097652435303,1.6749651432037354,-0.09102533757686615
0.2570974826812744,1.6732491254806519,-0.09067963063716888
0.2699689269065857,1.679141640663147,-0.09074753522872925
0.28294968605041504,1.6849331855773926,-0.09081178903579712
0.29459401965141296,1.682957649230957,-0.09041595458984375
0.30776551365852356,1.688552737236023,-0.09039870649576187
0.32083725929260254,1.6940815448760986,-0.09038455039262772
0.33261340856552124,1.6918317079544067,-0.0899551659822464
0.3443589210510254,1.6895029544830322,-0.08952631801366806
0.35599058866500854,1.6871154308319092,-0.089055635035038
0.3719028830528259,1.7036761045455933,-0.08954951167106628
0.3852960169315338,1.7087228298187256,-0.08944261819124222
0.39895299077033997,1.7136249542236328,-0.0893235057592392
0.41087478399276733,1.7108327150344849,-0.08880598098039627
0.42452552914619446,1.7155647277832031,-0.08863948285579681
0.43454858660697937,1.7050328254699707,-0.08765504509210587
0.44821664690971375,1.7095887660980225,-0.08745743334293365
0.46620458364486694,1.7290587425231934,-0.08801288902759552
0.4824012815952301,1.7408406734466553,-0.08817172795534134
0.4943498373031616,1.7375184297561646,-0.0875171571969986
0.5140544176101685,1.7602965831756592,-0.08814816921949387
0.5306070446968079,1.771710753440857,-0.08820784837007523
0.5452271103858948,1.7754662036895752,-0.08787651360034943
0.5622530579566956,1.7865523099899292,-0.08790639042854309
0.5767993927001953,1.7901474237442017,-0.08750747889280319
1.1710152626037598,3.55006742477417,-0.17236962914466858
1.2116636037826538,3.5900566577911377,-0.17313890159130096
1.2493617534637451,3.618496894836426,-0.17331920564174652
1.2860584259033203,3.6429617404937744,-0.17326779663562775
1.3133642673492432,3.6415863037109375,-0.17189349234104156
1.358244776725769,3.6876132488250732,-0.17274224758148193
1.3664084672927856,3.6305229663848877,-0.16870978474617004
1.444870114326477,3.7594265937805176,-0.17331530153751373
1.467692494392395,3.7422804832458496,-0.17107035219669342
1.5074392557144165,3.7686033248901367,-0.17076992988586426
1.5522921085357666,3.8052945137023926,-0.1708984673023224
1.5971862077713013,3.8375439643859863,-0.17074187099933624
1.6739740371704102,3.9450769424438477,-0.1738860160112381
1.1212432384490967,2.5938947200775146,-0.11320274323225021
1.1465140581130981,2.6042256355285645,-0.11252010613679886
1.1534223556518555,2.571321487426758,-0.10993816703557968
1.1683425903320312,2.556060314178467,-0.10811077058315277
1.182202696800232,2.5411360263824463,-0.10627872496843338
1.1958377361297607,2.526177406311035,-0.10445018112659454
1.1962698698043823,2.482776403427124,-0.10143525153398514
1.1980539560317993,2.442909002304077,-0.0985899567604065
1.2113113403320312,2.4277045726776123,-0.09670490026473999
1.2203978300094604,2.4057154655456543,-0.09457193315029144
1.226119875907898,2.3765406608581543,-0.09214326739311218
1.2426073551177979,2.3680245876312256,-0.09051337838172913
1.265836238861084,2.3734652996063232,-0.08937950432300568
1.2666404247283936,2.3376352787017822,-0.08669205754995346
1.2735439538955688,2.3116822242736816,-0.08432486653327942
1.2819799184799194,2.289194107055664,-0.08211339265108109
1.2893931865692139,2.267138719558716,-0.07990940660238266
1.2926068305969238,2.2383556365966797,-0.07748918235301971
1.3160709142684937,2.2428297996520996,-0.07614900916814804
1.3196539878845215,2.2135536670684814,-0.07363807410001755
1.338166356086731,2.2116036415100098,-0.07205972820520401
1.340804100036621,2.1826155185699463,-0.06956636905670166
1.3724205493927002,2.199842691421509,-0.06850425153970718
1.3742018938064575,2.1711103916168213,-0.0659903809428215
1.3844718933105469,2.15535831451416,-0.06383432447910309
1.3994579315185547,2.1457178592681885,-0.06179693713784218
1.4071247577667236,2.1267216205596924,-0.059497203677892685
1.4209195375442505,2.1175858974456787,-0.057462651282548904
1.4180514812469482,2.0818705558776855,-0.05460445582866669
1.427453875541687,2.066004753112793,-0.05225948244333267
1.418509602546692,2.024704694747925,-0.04929544776678085
1.4324746131896973,2.0149030685424805,-0.04701819270849228
1.4290810823440552,1.9837642908096313,-0.044265925884246826
1.46312415599823,2.0025458335876465,-0.04246554151177406
1.4809577465057373,1.9991754293441772,-0.0400737002491951
3.1892001628875732,4.460327625274658,0.11336013674736023
3.1641435623168945,4.497113227844238,0.11902304738759995
2.600959539413452,3.7518651485443115,0.1028788834810257
2.5875203609466553,3.7941675186157227,0.10757741332054138
3.123704195022583,4.652447700500488,0.13595961034297943
3.1208434104919434,4.719913959503174,0.14182820916175842
3.1246023178100586,4.806028842926025,0.14834535121917725
3.0985424518585205,4.841291904449463,0.1530613899230957
1.6258549690246582,2.580097198486328,0.08343476802110672
1.6104447841644287,2.598863363265991,0.08586341142654419
1.618005633354187,2.6537272930145264,0.08944912254810333
1.6614233255386353,2.7688536643981934,0.09513026475906372
1.632948398590088,2.767549991607666,0.09678838402032852
1.6083829402923584,2.7728004455566406,0.09864703565835953
1.5754634141921997,2.760140895843506,0.09975026547908783
1.569244384765625,2.7949962615966797,0.10256045311689377
1.5480622053146362,2.806711196899414,0.1045207530260086
1.5388309955596924,2.8383870124816895,0.10717819631099701
1.541032314300537,2.8903238773345947,0.11058138310909271
1.4985864162445068,2.85970139503479,0.11079596728086472
2.4474756717681885,4.755450248718262,0.1864713579416275
2.3826522827148438,4.713901042938232,0.18702323734760284
2.3254504203796387,4.681326866149902,0.18778552114963531
1.2410932779312134,2.5435123443603516,0.10311825573444366
1.2139815092086792,2.5348823070526123,0.10381301492452621
1.192297339439392,2.536472797393799,0.10490751266479492
1.1680641174316406,2.5304813385009766,0.10564708709716797
1.1677446365356445,2.577784299850464,0.10863711684942245
1.158429741859436,2.607577323913574,0.1108304113149643
1.12847900390625,2.590848207473755,0.11105091869831085
1.8479337692260742,4.325084686279297,0.1868801712989807
1.9445035457611084,4.640136241912842,0.20208626985549927
1.987837791442871,4.841792106628418,0.21246019005775452
1.7764822244644165,4.417825698852539,0.19521838426589966
1.7504165172576904,4.444916248321533,0.19777561724185944
1.6899086236953735,4.380453109741211,0.19620946049690247
1.9849207401275635,5.253633975982666,0.23688390851020813
1.9666869640350342,5.322845458984375,0.24146680533885956
1.9388396739959717,5.3661675453186035,0.24486207962036133
1.9006327390670776,5.379725456237793,0.2468988597393036
1.86822509765625,5.407491683959961,0.2495742291212082
1.866690993309021,5.527514457702637,0.25655320286750793
1.856718897819519,5.633599758148193,0.2627835273742676
0.5711260437965393,1.7757465839385986,0.08323775231838226
0.5562041401863098,1.772270917892456,0.08347652852535248
0.5484216809272766,1.7909982204437256,0.08476024121046066
0.5381721258163452,1.8022234439849854,0.08569806069135666
0.4980185329914093,1.7123308181762695,0.08175428211688995
0.497213751077652,1.757191777229309,0.08424028754234314
0.47957396507263184,1.7418354749679565,0.08383864164352417
0.46946707367897034,1.7526434659957886,0.08469217270612717
0.4533165991306305,1.7407426834106445,0.08445142954587936
0.43716201186180115,1.728753685951233,0.08415938913822174
0.42461317777633667,1.731857419013977,0.08459246158599854
0.40687498450279236,1.7120356559753418,0.08390086889266968
0.39493417739868164,1.7148092985153198,0.08431155234575272
0.3846891224384308,1.725112795829773,0.08509737998247147
0.3569395840167999,1.6552858352661133,0.0818975567817688
0.3465493619441986,1.6654469966888428,0.08261062204837799
0.33165034651756287,1.652546763420105,0.08217909932136536
0.3259845972061157,1.6854597330093384,0.08402929455041885
0.31140202283859253,1.6723268032073975,0.08358807861804962
0.2983769476413727,1.6667571067810059,0.08352629095315933
0.27848052978515625,1.6226999759674072,0.08148329704999924
0.2720750570297241,1.655411720275879,0.08329065144062042
0.26160427927970886,1.6649845838546753,0.08394154906272888
0.25233322381973267,1.6821835041046143,0.0849810466170311
0.2384202927350998,1.66843581199646,0.08446124196052551
0.2275928258895874,1.6778095960617065,0.08509203791618347
0.21378540992736816,1.6638827323913574,0.08449845761060715
0.20112530887126923,1.6575913429260254,0.08429523557424545
0.18776054680347443,1.64344322681427,0.08369412273168564
0.1754998117685318,1.6369413137435913,0.08348410576581955
0.16489417850971222,1.6458758115768433,0.08406539261341095
0.15245935320854187,1.6392310857772827,0.08380921930074692
0.14230014383792877,1.655800700187683,0.0847248062491417
0.12884823977947235,1.633417010307312,0.08365098387002945
0.11662062257528305,1.6225959062576294,0.08317141979932785
0.10810229927301407,1.666184902191162,0.0854862853884697
0.09495069831609726,1.6435346603393555,0.08440686017274857
0.0834675207734108,1.6441551446914673,0.08446008712053299
0.07196380943059921,1.6446959972381592,0.08451340347528458
0.0619061253964901,1.6841404438018799,0.08657058328390121
0.05065561830997467,1.7001252174377441,0.08742692321538925
0.0396166667342186,1.743338704109192,0.08968968689441681
0.027072371914982796,1.7162656784057617,0.08832074701786041
0.01584026962518692,1.7983330488204956,0.09252355992794037
0.014063808135688305,7.587610721588135,0.39031243324279785
-0.038605108857154846,7.56802225112915,0.3892565071582794
-0.09176870435476303,7.536356449127197,0.38759809732437134
-0.1440289169549942,7.527738094329834,0.3871445655822754
-0.19529838860034943,7.4875688552856445,0.3849290609359741
-0.24634923040866852,7.45875883102417,0.383177787065506
-0.29716548323631287,7.433499336242676,0.38162916898727417
-0.349106103181839,7.439069747924805,0.38168227672576904
-0.29142892360687256,5.395212650299072,0.27665799856185913
-0.33033913373947144,5.416433811187744,0.2776031792163849
-0.3672308325767517,5.406259059906006,0.2767823040485382
-0.40225711464881897,5.372493743896484,0.2747180163860321
-0.43842509388923645,5.357944011688232,0.2736521363258362
-0.47417372465133667,5.331424236297607,0.27198341488838196
-0.4418717920780182,4.605715274810791,0.23470549285411835
-0.4738693833351135,4.6025543212890625,0.23429454863071442
-0.5038106441497803,4.583703517913818,0.2329319417476654
-0.534466028213501,4.572403907775879,0.2319655418395996
-0.5655305981636047,4.560832500457764,0.23099125921726227
-0.5952204465866089,4.541344165802002,0.22963184118270874
-0.6257343888282776,4.529392242431641,0.2286665290594101
-0.6531747579574585,4.49795389175415,0.22667540609836578
-0.6840560436248779,4.493398189544678,0.22594021260738373
-0.7117465138435364,4.46543025970459,0.22403265535831451
-0.7425775527954102,4.460443496704102,0.22329705953598022
-0.7722127437591553,4.447526454925537,0.22217325866222382
-0.8017044067382812,4.434412479400635,0.22105199098587036
-0.8242496848106384,4.386659145355225,0.21809375286102295
-0.8527033925056458,4.3733110427856445,0.21681006252765656
-0.7377241253852844,3.6483564376831055,0.18035045266151428
-0.7661788463592529,3.6584718227386475,0.1803390085697174
-0.7866165637969971,3.6302194595336914,0.17844459414482117
-0.9652228355407715,4.3100690841674805,0.21125371754169464
-0.9927899837493896,4.2958455085754395,0.2098306268453598
-1.0243513584136963,4.296504020690918,0.2091314196586609
-1.0519224405288696,4.281853199005127,0.2077048271894455
-1.0777475833892822,4.259379863739014,0.20590466260910034
-1.100361704826355,4.225426197052002,0.2035662829875946
-1.1382695436477661,4.251793384552002,0.204047292470932
-1.1623510122299194,4.225099563598633,0.20193268358707428
-1.1909198760986328,4.217192649841309,0.20074351131916046
-1.2158617973327637,4.193878173828125,0.1988113522529602
-1.2427623271942139,4.177901744842529,0.19724105298519135
-1.2669754028320312,4.1543660163879395,0.19527357816696167
-1.3001561164855957,4.1605224609375,0.19459784030914307
-1.3235211372375488,4.136826038360596,0.19254973530769348
-1.3495689630508423,4.120253562927246,0.19083000719547272
-1.3757073879241943,4.103433132171631,0.18910275399684906
-1.4065991640090942,4.101263523101807,0.18803998827934265
-1.4316158294677734,4.084396839141846,0.18620839715003967
-1.4595938920974731,4.074551582336426,0.18468844890594482
-1.4874688386917114,4.0645270347595215,0.1831703931093216
-1.5074602365493774,4.032234191894531,0.1806485652923584
-1.535273790359497,4.02179479598999,0.17910617589950562
-1.5621556043624878,4.011503219604492,0.1774604469537735
-1.5821970701217651,3.9827237129211426,0.17499114573001862
-1.6095120906829834,3.971837282180786,0.17330998182296753
-1.6311842203140259,3.946171760559082,0.17097915709018707
-1.6523042917251587,3.9205124378204346,0.16864269971847534
-1.678496241569519,3.9094462394714355,0.1668773889541626
-1.692536473274231,3.8694052696228027,0.16387085616588593
-1.7287530899047852,3.879092216491699,0.1629604995250702
-1.752399206161499,3.8599720001220703,0.16083678603172302
-1.7883087396621704,3.869361639022827,0.159842848777771
-1.7972906827926636,3.8221840858459473,0.15648117661476135
-1.8233860731124878,3.8098840713500977,0.15452192723751068
-1.849919080734253,3.797152280807495,0.1525232493877411
-1.8831803798675537,3.7982842922210693,0.1510745882987976
-1.897749662399292,3.7648959159851074,0.14817306399345398
-1.9155197143554688,3.738429546356201,0.145565003156662
-1.94131600856781,3.72518253326416,0.14341549575328827
-1.687830924987793,3.183701992034912,0.12113629281520844
-1.990342140197754,3.6949543952941895,0.13888199627399445
-2.042652130126953,3.73327374458313,0.13857953250408173
-1.7114394903182983,3.07780385017395,0.11274441331624985
-1.7327724695205688,3.065915584564209,0.11078202724456787
-0.8241967558860779,1.4357054233551025,0.05112401768565178
-0.7883145213127136,1.3527512550354004,0.047463830560445786
-0.7876558303833008,1.3305296897888184,0.04594685882329941
-0.8311104774475098,1.3819290399551392,0.04694273695349693
-0.8705900311470032,1.4265239238739014,0.04762672632932663
-0.8759597539901733,1.414089560508728,0.046360548585653305
-0.8857882618904114,1.4079893827438354,0.045269135385751724
-0.8910436630249023,1.3954468965530396,0.04396919906139374
-2.3896095752716064,3.5320050716400146,0.10132039338350296
-1.191123127937317,1.7354766130447388,0.048431724309921265
-1.3670432567596436,1.9366705417633057,0.05085567757487297
-1.306181788444519,1.8841403722763062,-0.04012417793273926
-0.8789317011833191,1.4399884939193726,-0.03960220888257027
-0.8263764977455139,1.3759111166000366,-0.038734450936317444
-0.7828521728515625,1.3245388269424438,-0.038116537034511566
-0.8216012120246887,1.437455654144287,-0.04309186339378357
-0.9704478979110718,1.7256040573120117,-0.0527111254632473
-1.6319646835327148,2.9527745246887207,-0.09186166524887085
-1.6232802867889404,2.9886374473571777,-0.09461527317762375
-2.0163393020629883,3.7747483253479004,-0.12145715951919556
-1.9897528886795044,3.788752555847168,-0.12384620308876038
-1.618248462677002,3.1369035243988037,-0.1040884256362915
-1.5951627492904663,3.1486408710479736,-0.10603175312280655
-1.5766401290893555,3.1666197776794434,-0.10811590403318405
-1.845766544342041,3.77390456199646,-0.13057821989059448
-1.8317354917526245,3.8153371810913086,-0.13370449841022491
-1.7910609245300293,3.8000242710113525,-0.13481944799423218
-1.7186585664749146,3.71311616897583,-0.13330085575580597
-1.7226488590240479,3.792818307876587,-0.137748122215271
-1.6951526403427124,3.8051159381866455,-0.13969595730304718
-1.6882015466690063,3.863583564758301,-0.14334718883037567
-1.6905454397201538,3.9433226585388184,-0.14779479801654816
-1.675047755241394,3.983760118484497,-0.15079662203788757
-1.6369322538375854,3.9741804599761963,-0.15185967087745667
-1.6141430139541626,4.000263214111328,-0.15426678955554962
-1.577637791633606,3.9895548820495605,-0.15521517395973206
-1.5582826137542725,4.022213459014893,-0.15785834193229675
-1.5198098421096802,4.00762939453125,-0.15856018662452698
-1.5135518312454224,4.08078145980835,-0.1627570539712906
-1.479461669921875,4.0765910148620605,-0.16384467482566833
-1.4432170391082764,4.0646514892578125,-0.16460351645946503
-1.41717529296875,4.082004070281982,-0.16650725901126862
-1.3779528141021729,4.062387943267822,-0.16682352125644684
-1.358219027519226,4.101871490478516,-0.16959470510482788
-1.3224189281463623,4.088884353637695,-0.1701595038175583
-1.3080533742904663,4.142584323883057,-0.1735125035047531
-1.2740639448165894,4.1367716789245605,-0.17429350316524506
-1.235558032989502,4.115786552429199,-0.17440009117126465
-1.1922112703323364,4.075655937194824,-0.173675999045372
-1.1590832471847534,4.068912982940674,-0.17436926066875458
-1.1192749738693237,4.035451889038086,-0.17389442026615143
-1.080465316772461,4.005555629730225,-0.17343001067638397
-1.042102575302124,3.97532320022583,-0.17294521629810333
-1.0132287740707397,3.9787042140960693,-0.17391280829906464
-0.9859938025474548,3.989511013031006,-0.17522069811820984
-0.9554101228713989,3.9848580360412598,-0.17581725120544434
-0.881268322467804,3.7938034534454346,-0.16804133355617523
-0.8792257308959961,3.9103214740753174,-0.17388254404067993
-0.8452022671699524,3.8858299255371094,-0.17346833646297455
-0.8128679394721985,3.8687565326690674,-0.17339210212230682
-0.7772770524024963,3.8322324752807617,-0.17239776253700256
-0.741222083568573,3.7916290760040283,-0.17111243307590485
-0.7064679861068726,3.754551410675049,-0.16998280584812164
-0.6851100325584412,3.78623628616333,-0.1719656139612198
-0.6483185887336731,3.7332770824432373,-0.17011481523513794
-0.6274020075798035,3.768467426300049,-0.1722422093153
-0.6027136445045471,3.7843217849731445,-0.17338518798351288
-0.5661004185676575,3.7228565216064453,-0.17098812758922577
-0.5367348194122314,3.703519344329834,-0.17052116990089417
-0.5147581696510315,3.7381248474121094,-0.17255327105522156
-0.4856449365615845,3.71838116645813,-0.17205707728862762
-0.45427438616752625,3.679077625274658,-0.17053340375423431
-0.4284074902534485,3.6821584701538086,-0.17097975313663483
-0.39675119519233704,3.6307334899902344,-0.16889698803424835
-0.3711231052875519,3.629500150680542,-0.16915075480937958
-0.3447023332118988,3.6242446899414062,-0.16922810673713684
-0.3186306357383728,3.6187820434570312,-0.1691579520702362
-0.29139232635498047,3.5975751876831055,-0.16835851967334747
-0.2645638883113861,3.5761585235595703,-0.16755418479442596
-0.24075350165367126,3.5934700965881348,-0.168571338057518
-0.21349015831947327,3.5639078617095947,-0.16740044951438904
-0.18946075439453125,3.580888271331787,-0.16829678416252136
-0.16336557269096375,3.558730363845825,-0.1673377901315689
-0.13856424391269684,3.5597758293151855,-0.16747722029685974
-0.1137886717915535,3.560647487640381,-0.16761647164821625
-0.08878058195114136,3.5691583156585693,-0.16812555491924286
-0.06345991045236588,3.5423784255981445,-0.16688819229602814
-0.0387689583003521,3.5427348613739014,-0.1668846756219864
-0.014107130467891693,3.550723075866699,-0.16724874079227448
0.005404260940849781,1.8143867254257202,-0.08546048402786255
0.017855830490589142,1.7752857208251953,-0.0836208388209343
0.029330063611268997,1.724402666091919,-0.08120206743478775
0.04132379963994026,1.724160075187683,-0.0811326801776886
0.052094005048274994,1.6848337650299072,-0.07922938466072083
0.06322115659713745,1.668837308883667,-0.07842859625816345
0.07481244206428528,1.6683610677719116,-0.07836150377988815
0.08498605340719223,1.6366205215454102,-0.07681751251220703
0.09609793871641159,1.6321030855178833,-0.07650496065616608
0.10586956888437271,1.608042597770691,-0.07528162002563477
0.11872703582048416,1.6306253671646118,-0.07624547183513641
0.1303808093070984,1.6336554288864136,-0.07629696279764175
0.14262834191322327,1.6404715776443481,-0.07652678340673447
0.15470562875270844,1.6472244262695312,-0.0766933485865593
0.16688203811645508,1.6538885831832886,-0.07685694098472595
0.17749850451946259,1.6449427604675293,-0.07629862427711487
0.1898108720779419,1.651432752609253,-0.07645957916975021
0.20243124663829803,1.65780508518219,-0.07661502808332443
0.215861514210701,1.671860933303833,-0.07707961648702621
0.22633181512355804,1.6626118421554565,-0.07645948231220245
0.23889683187007904,1.668749451637268,-0.07655059546232224
0.25283685326576233,1.6824923753738403,-0.07698965817689896
0.26231929659843445,1.6652528047561646,-0.07601160556077957
0.27508533000946045,1.6711158752441406,-0.07605559378862381
0.28791460394859314,1.6768877506256104,-0.07607459276914597
0.29944783449172974,1.6748816967010498,-0.07574352622032166
0.31393951177597046,1.68812096118927,-0.07610088586807251
0.3308500349521637,1.7127338647842407,-0.07696866989135742
0.33903607726097107,1.6912531852722168,-0.07573017477989197
0.3530038893222809,1.700369954109192,-0.07584353536367416
0.360556960105896,1.678849458694458,-0.07459521293640137
0.3781570494174957,1.7029855251312256,-0.07537335157394409
0.3917478621006012,1.7079375982284546,-0.07530016452074051
0.4037330150604248,1.7051639556884766,-0.07485397905111313
0.41539448499679565,1.7023810148239136,-0.07438837736845016
0.43274328112602234,1.7222288846969604,-0.07491061091423035
0.4407886266708374,1.7040878534317017,-0.07377734035253525
0.4566463828086853,1.7160874605178833,-0.07395216822624207
0.47482895851135254,1.7354580163955688,-0.07440406829118729
0.4887676537036896,1.739716649055481,-0.07418688386678696
0.5049636363983154,1.7513617277145386,-0.07428248226642609
0.5204562544822693,1.7590583562850952,-0.07420068979263306
0.5372135639190674,1.7703585624694824,-0.07426846027374268
0.5541814565658569,1.7815035581588745,-0.07428084313869476
0.5686332583427429,1.7851636409759521,-0.07397008687257767
0.5929438471794128,1.818363904953003,-0.0748712420463562
1.3285883665084839,3.980172872543335,-0.1628309041261673
1.370177984237671,4.011506080627441,-0.16305330395698547
1.4000074863433838,4.009525775909424,-0.16181503236293793
1.452599048614502,4.069673538208008,-0.16303886473178864
1.4832507371902466,4.066977024078369,-0.16173410415649414
1.5455741882324219,4.148075103759766,-0.1637275516986847
1.56585693359375,4.115476608276367,-0.1611894965171814
1.6077224016189575,4.141274452209473,-0.16086407005786896
1.6965320110321045,4.282629013061523,-0.16494834423065186
1.7408535480499268,4.30701208114624,-0.16445878148078918
1.7900925874710083,4.341799259185791,-0.1643451750278473
1.8315964937210083,4.358425617218018,-0.16344915330410004
1.1171138286590576,2.6090948581695557,-0.09691839665174484
1.1383824348449707,2.6084532737731934,-0.09593205899000168
1.1390526294708252,2.5612759590148926,-0.09325176477432251
1.1630486249923706,2.5676684379577637,-0.09251716732978821
1.1736860275268555,2.545682668685913,-0.09073634445667267
1.1842083930969238,2.5236098766326904,-0.08896011859178543
1.1851979494094849,2.4799880981445312,-0.08640093356370926
1.1937670707702637,2.4542288780212402,-0.0844990462064743
1.2031726837158203,2.432264804840088,-0.08270705491304398
1.2194066047668457,2.424211025238037,-0.08139452338218689
1.225548505783081,2.3948702812194824,-0.07933948189020157
1.234851360321045,2.372537851333618,-0.07753394544124603
1.2343692779541016,2.3331494331359863,-0.07514738291501999
1.2535544633865356,2.3318111896514893,-0.07401521503925323
1.2660058736801147,2.316223382949829,-0.07238351553678513
1.2705022096633911,2.287038803100586,-0.0703374594449997
1.2893869876861572,2.2854602336883545,-0.06912492960691452
1.2971811294555664,2.2631032466888428,-0.06724993139505386
1.3050097227096558,2.240583896636963,-0.06536584347486496
1.3200289011001587,2.2318115234375,-0.0638764426112175
1.3265506029129028,2.2097842693328857,-0.06200503930449486
1.3335343599319458,2.1873459815979004,-0.060079995542764664
1.3530075550079346,2.1845908164978027,-0.058657605201005936
1.371340274810791,2.182401657104492,-0.05725511536002159
1.3669967651367188,2.143594980239868,-0.05487176030874252
1.3925021886825562,2.1504578590393066,-0.05361075699329376
1.4022188186645508,2.1348369121551514,-0.05177772790193558
1.4164695739746094,2.1254498958587646,-0.050045304000377655
1.3983675241470337,2.067082643508911,-0.04714064672589302
1.4249650239944458,2.077357292175293,-0.045814722776412964
1.4207292795181274,2.0423479080200195,-0.04344606772065163
1.4258233308792114,2.019740581512451,-0.04128335043787956
1.4386842250823975,2.0106382369995117,-0.03938446566462517
1.4453341960906982,1.991441249847412,-0.037199728190898895
1.4584399461746216,1.981900691986084,-0.03514520451426506
3.172426462173462,4.472708225250244,0.09464919567108154
3.1165270805358887,4.459433078765869,0.09805596619844437
2.606436014175415,3.791226387023926,0.08642921596765518
3.1453754901885986,4.6479620933532715,0.10949970781803131
3.1295082569122314,4.696160793304443,0.11397009342908859
3.138564348220825,4.788386344909668,0.11952286213636398
3.117222785949707,4.830127239227295,0.12365151196718216
1.618847370147705,2.5480265617370605,0.06681106984615326
1.628166913986206,2.6067216396331787,0.06996559351682663
1.5890835523605347,2.5849502086639404,0.07085679471492767
1.6498321294784546,2.7262425422668457,0.07623826712369919
1.6433279514312744,2.7619738578796387,0.07869929075241089
1.623088002204895,2.7738656997680664,0.0804620310664177
1.6073107719421387,2.7920029163360596,0.08236795663833618
1.5698344707489014,2.772880792617798,0.0831165462732315
1.5530251264572144,2.7912213802337646,0.08495966345071793
1.5500226020812988,2.832967758178711,0.08748240023851395
1.5302002429962158,2.843674898147583,0.08904318511486053
1.5199564695358276,2.875640869140625,0.09125285595655441
2.4683315753936768,4.754670143127441,0.1528184413909912
2.427816152572632,4.757879734039307,0.1547539383172989
2.3578920364379883,4.701286792755127,0.15470364689826965
2.306464910507202,4.683170318603516,0.15580295026302338
1.2317224740982056,2.548707962036133,0.08571992069482803
1.1953214406967163,2.5184824466705322,0.08556739240884781
1.1843576431274414,2.5408596992492676,0.08718764036893845
1.172614574432373,2.563445806503296,0.08878801763057709
1.1506820917129517,2.5647716522216797,0.08963295072317123
1.1464569568634033,2.6050620079040527,0.09183633327484131
1.1202187538146973,2.595165967941284,0.09227246046066284
2.0410780906677246,4.821174144744873,0.17282834649085999
2.0209832191467285,4.871860027313232,0.17597231268882751
1.9943803548812866,4.908036231994629,0.1786172091960907
1.9700654745101929,4.947208881378174,0.18134565651416779
2.0356345176696777,5.219227313995361,0.19271092116832733
1.9984073638916016,5.233527183532715,0.19453321397304535
1.9823575019836426,5.306291580200195,0.19849322736263275
1.953574776649475,5.345992565155029,0.20123769342899323
1.9295097589492798,5.396136283874512,0.20435921847820282
1.8783762454986572,5.372743606567383,0.20472843945026398
1.8740534782409668,5.485692024230957,0.21017035841941833
1.8469196557998657,5.535991668701172,0.21321415901184082
0.5682326555252075,1.7444818019866943,0.06753747910261154
0.5631765723228455,1.7706948518753052,0.06890160590410233
0.5436792969703674,1.7522505521774292,0.06853751093149185
0.537957489490509,1.778480887413025,0.06987554579973221
0.5230053067207336,1.7747801542282104,0.0700325071811676
0.5082141757011414,1.770933985710144,0.07018282264471054
0.48222067952156067,1.7255388498306274,0.06867393106222153
0.4702015519142151,1.7288358211517334,0.06909804046154022
0.4597509503364563,1.7397042512893677,0.06979861855506897
0.44345253705978394,1.7278002500534058,0.06956517696380615
0.42357394099235535,1.7006031274795532,0.06871307641267776
0.41907423734664917,1.7338447570800781,0.07030032575130463
0.40522629022598267,1.7291016578674316,0.07035402208566666
0.3876871168613434,1.7090985774993896,0.06976895779371262
0.3772197365760803,1.7194195985794067,0.07038604468107224
0.3544854521751404,1.6724035739898682,0.06865465641021729
0.33807048201560974,1.6518899202346802,0.06800366193056107
0.3280697464942932,1.6618506908416748,0.06860772520303726
0.3235679864883423,1.702466368675232,0.07048911601305008
0.31151992082595825,1.7047020196914673,0.07073216140270233
0.28864938020706177,1.6453468799591064,0.06841786205768585
0.27833274006843567,1.6550300121307373,0.06897230446338654
0.2705366015434265,1.6800360679626465,0.07016946375370026
0.2610052824020386,1.6973298788070679,0.07105439156293869
0.24458223581314087,1.6682146787643433,0.06996713578701019
0.23389795422554016,1.6776202917099,0.07047093659639359
0.21898353099822998,1.6560065746307373,0.06967433542013168
0.2074216902256012,1.6574870347976685,0.06985000520944595
0.19498316943645477,1.6511292457580566,0.06969772279262543
0.1858595311641693,1.6757360696792603,0.07085943222045898
0.17087839543819427,1.6459376811981201,0.06966792047023773
0.15930882096290588,1.6470928192138672,0.0697859674692154
0.1491415798664093,1.663713812828064,0.07056332379579544
0.13565067946910858,1.641367793083191,0.0696902871131897
0.12315129488706589,1.6306065320968628,0.06931233406066895
0.11204994469881058,1.6353148221969604,0.06957606226205826
0.10301550477743149,1.6750088930130005,0.07129326462745667
0.0891684889793396,1.6367168426513672,0.06969459354877472
0.07811561226844788,1.645093321800232,0.07008589804172516
0.06710085272789001,1.6612005233764648,0.07081105560064316
0.05606203153729439,1.6772269010543823,0.07153632491827011
0.04499033838510513,1.7009837627410889,0.07256172597408295
0.03342645242810249,1.7168636322021484,0.07323450595140457
0.021643180400133133,1.7326643466949463,0.07390741258859634
0.009931698441505432,1.834242582321167,0.07824298739433289
-0.011610753834247589,7.579034805297852,0.32332444190979004
-0.06405932456254959,7.555354595184326,0.3223564922809601
-0.11589082330465317,7.515714645385742,0.3204944133758545
-0.16769446432590485,7.499131679534912,0.31961193680763245
-0.21938787400722504,7.486093521118164,0.3188965320587158
-0.27088233828544617,7.445363521575928,0.31701532006263733
-0.3226914703845978,7.443307399749756,0.3167992830276489
-0.5485055446624756,10.902143478393555,0.4637758731842041
-0.31034013628959656,5.419832706451416,0.23031120002269745
-0.3468296527862549,5.40199089050293,0.22931718826293945
-0.3830017149448395,5.372172832489014,0.2278231829404831
-0.42026659846305847,5.369400978088379,0.22749218344688416
-0.45623838901519775,5.3508100509643555,0.22650225460529327
-0.4835832715034485,5.242612361907959,0.22164423763751984
-0.4576902687549591,4.613891124725342,0.19474910199642181
-0.488384485244751,4.595063209533691,0.19364489614963531
-0.5184321999549866,4.576077938079834,0.19254936277866364
-0.5492626428604126,4.564636707305908,0.1917811781167984
-0.5789729356765747,4.545245170593262,0.19068963825702667
-0.6091859340667725,4.533441543579102,0.18981008231639862
-0.6381362676620483,4.5097737312316895,0.18841440975666046
-0.6679382920265198,4.497588634490967,0.1875171810388565
-0.6991961598396301,4.492859363555908,0.18693552911281586
-0.7278690934181213,4.4725117683410645,0.18571482598781586
-0.7575443983078003,4.459688663482666,0.1847863644361496
-0.7826441526412964,4.423676013946533,0.18280112743377686
-0.8134446740150452,4.418146133422852,0.18207944929599762
-0.8372693061828613,4.377963066101074,0.17994756996631622
-0.8615882992744446,4.341442108154297,0.17797791957855225
-0.7517944574356079,3.6548638343811035,0.14944276213645935
-0.7752211093902588,3.6420130729675293,0.14846010506153107
-0.9431211948394775,4.28460168838501,0.17407049238681793
-0.9809615612030029,4.31616735458374,0.1747818887233734
-1.0108928680419922,4.30928897857666,0.1739295870065689
-1.0371450185775757,4.2870192527771,0.17246562242507935
-1.0630238056182861,4.264621734619141,0.17098012566566467
-1.083763837814331,4.223178863525391,0.16864489018917084
-1.1144368648529053,4.223300933837891,0.16799329221248627
-1.1526250839233398,4.24948787689209,0.1683727651834488
-1.1768296957015991,4.222629547119141,0.16664999723434448
-1.1996431350708008,4.191887855529785,0.1647883802652359
-1.2307029962539673,4.191054821014404,0.16399303078651428
-1.2567402124404907,4.175210475921631,0.16261836886405945
-1.2828056812286377,4.159149169921875,0.16124041378498077
-1.3093048334121704,4.1427388191223145,0.15984348952770233
-1.33327054977417,4.1187214851379395,0.1581638604402542
-1.3617700338363647,4.109432697296143,0.1569714993238449
-1.3944828510284424,4.114984035491943,0.1563294380903244
-1.4146252870559692,4.08336877822876,0.154281884431839
-1.4311981201171875,4.040381908416748,0.15180179476737976
-1.4685415029525757,4.056079864501953,0.15153443813323975
-1.487982153892517,4.024072647094727,0.1494264006614685
-1.5209165811538696,4.028486728668213,0.14862282574176788
-1.5508344173431396,4.025481700897217,0.1475590318441391
-1.5730863809585571,4.000113010406494,0.14565333724021912
-1.6037846803665161,3.996368408203125,0.1445438712835312
-1.6145354509353638,3.9457266330718994,0.141686350107193
-1.6443562507629395,3.941906690597534,0.14048005640506744
-1.664875864982605,3.916372060775757,0.1385146677494049
-1.6920263767242432,3.904771089553833,0.13702471554279327
-1.715973138809204,3.885824680328369,0.13528434932231903
-1.7417885065078735,3.874375820159912,0.13373318314552307
-1.7614572048187256,3.848358631134033,0.13166801631450653
-1.7877761125564575,3.836257219314575,0.13007467985153198
-1.8110781908035278,3.8167243003845215,0.1282190978527069
-1.8370020389556885,3.8043699264526367,0.1265801340341568
-1.8621774911880493,3.792166233062744,0.12490814179182053
-1.8809882402420044,3.7654764652252197,0.1227342039346695
-1.9071776866912842,3.7523367404937744,0.12098310142755508
-1.9295214414596558,3.732163667678833,0.1190057173371315
-1.954074501991272,3.719423532485962,0.11721786111593246
-1.9785692691802979,3.706507682800293,0.11542807519435883
-2.0154693126678467,3.713310956954956,0.11417482793331146
-1.7096006870269775,3.097320795059204,0.09398375451564789
-1.7222092151641846,3.0724830627441406,0.09194914251565933
-1.7422921657562256,3.061187982559204,0.09032946079969406
-0.7761843800544739,1.3419908285140991,0.03900047391653061
-0.779477059841156,1.3265324831008911,0.037955038249492645
-0.7922349572181702,1.3280773162841797,0.03737393021583557
-0.8697481155395508,1.436422348022461,0.03974492475390434
-0.8919788599014282,1.4503294229507446,0.03940483555197716
-0.8892843127250671,1.4244581460952759,0.037978075444698334
-0.8984390497207642,1.4187252521514893,0.037092871963977814
-0.842777669429779,1.310654640197754,0.033534154295921326
-1.447928786277771,2.071159601211548,-0.03558146581053734
-1.2109445333480835,1.7885115146636963,-0.03338657692074776
-1.27191162109375,1.9075075387954712,-0.03689753636717796
-0.8924390077590942,1.4502191543579102,-0.03243283927440643
-0.8396838903427124,1.3863146305084229,-0.031742848455905914
-0.8133678436279297,1.365654706954956,-0.03198303282260895
-0.7838295102119446,1.3377256393432617,-0.03199739754199982
-0.7646041512489319,1.326295256614685,-0.0323745422065258
-0.8473144173622131,1.4949169158935547,-0.03718980774283409
-1.1670937538146973,2.0946545600891113,-0.05307415500283241
-1.6385976076126099,2.9896862506866455,-0.0770573541522026
-1.6136716604232788,2.994302988052368,-0.07846420258283615
-1.5948872566223145,3.0131478309631348,-0.08024539053440094
-1.6327364444732666,3.1387789249420166,-0.08486995100975037
-1.5966265201568604,3.1222102642059326,-0.08565323799848557
-1.581274151802063,3.1474623680114746,-0.0875481441617012
-1.5548139810562134,3.151869297027588,-0.08884401619434357
-1.5320454835891724,3.1629574298858643,-0.09031670540571213
-1.5133143663406372,3.180572032928467,-0.09194426238536835
-1.490531086921692,3.191272020339966,-0.09334259480237961
-1.47054123878479,3.2090842723846436,-0.0949360728263855
-1.4413553476333618,3.2051403522491455,-0.09586142003536224
-1.4347730875015259,3.2507805824279785,-0.09826289862394333
-1.4050910472869873,3.2466676235198975,-0.09915473312139511
-1.6499931812286377,3.889340400695801,-0.11993604153394699
-1.6372361183166504,3.9370031356811523,-0.1225569099187851
-1.600935459136963,3.9265692234039307,-0.1233537495136261
-1.5820941925048828,3.9593920707702637,-0.1254976987838745
-1.550224781036377,3.9635486602783203,-0.12669318914413452
-1.5328091382980347,4.00373649597168,-0.1290355771780014
-1.517318844795227,4.047138214111328,-0.13146580755710602
-1.489192008972168,4.057527542114258,-0.13283836841583252
-1.4682923555374146,4.089993000030518,-0.13487060368061066
-1.4437028169631958,4.115248203277588,-0.1366707980632782
-1.4196648597717285,4.140072822570801,-0.1384434998035431
-1.3883434534072876,4.142404556274414,-0.1394583135843277
-1.3617671728134155,4.1593918800354,-0.1409597545862198
-1.3153457641601562,4.116919994354248,-0.140361487865448
-1.2946367263793945,4.156163692474365,-0.14256687462329865
-1.2746860980987549,4.194940567016602,-0.14473982155323029
-1.2532538175582886,4.229864597320557,-0.14679507911205292
-1.205162525177002,4.174742698669434,-0.14567263424396515
-1.167052149772644,4.153088092803955,-0.14564047753810883
-1.1519584655761719,4.213952541351318,-0.14851343631744385
-1.139066457748413,4.286127090454102,-0.15181304514408112
-1.1091300249099731,4.2939348220825195,-0.1528388261795044
-1.0673904418945312,4.2561845779418945,-0.15217284858226776
-1.0370807647705078,4.263638973236084,-0.1530771106481552
-1.0247454643249512,4.3468451499938965,-0.15671786665916443
-0.9940193891525269,4.353941440582275,-0.15763147175312042
-0.9604430794715881,4.345447540283203,-0.15797390043735504
-0.9185100793838501,4.2986040115356445,-0.1568334400653839
-0.8928964734077454,4.327888011932373,-0.15843047201633453
-0.8685158491134644,4.3646650314331055,-0.1603148877620697
-0.8375505208969116,4.3706841468811035,-0.16108541190624237
-0.8085398077964783,4.3840556144714355,-0.16212546825408936
-0.7722769379615784,4.358851909637451,-0.16165709495544434
-0.7343409061431885,4.321830749511719,-0.160700723528862
-0.7013527750968933,4.311465263366699,-0.16073787212371826
-0.66843181848526,4.300867557525635,-0.16077296435832977
-0.6350502967834473,4.282224655151367,-0.16050423681735992
-0.5996442437171936,4.247886657714844,-0.15957903861999512
-0.5661599636077881,4.224894046783447,-0.15902359783649445
-0.5344641804695129,4.213263988494873,-0.15890100598335266
-0.5130527019500732,4.282750129699707,-0.16184554994106293
-0.4810137152671814,4.2707366943359375,-0.16172747313976288
-0.45044341683387756,4.2662034034729,-0.16183847188949585
-0.4163331687450409,4.226511001586914,-0.16053105890750885
-0.37924718856811523,4.147680282592773,-0.15773902833461761
-0.3496733605861664,4.14243221282959,-0.15774764120578766
-0.3215429484844208,4.160358905792236,-0.15865035355091095
-0.2914572060108185,4.146912574768066,-0.15833927690982819
-0.2624356746673584,4.148843288421631,-0.1585150510072708
-0.23340141773223877,4.150571346282959,-0.15869084000587463
-0.2052379846572876,4.167685031890869,-0.15946263074874878
-0.167509987950325,3.9740302562713623,-0.15217430889606476
-0.13247066736221313,3.764439344406128,-0.14426834881305695
-0.1077832281589508,3.819894790649414,-0.14640215039253235
-0.0813295990228653,3.828356981277466,-0.146732360124588
-0.05574621260166168,3.9029860496520996,-0.14960595965385437
-0.02994620054960251,4.1569952964782715,-0.15936465561389923
-0.00099027284886688,4.04390287399292,-0.15505796670913696
