X,Y,Z
-1.3049756288528442,2.232167959213257,-0.2495647817850113
-1.2868167161941528,2.237337112426758,-0.2568359673023224
-1.27986478805542,2.262796640396118,-0.2663405239582062
-1.2592543363571167,2.2645456790924072,-0.2730906903743744
-1.2579255104064941,2.2998719215393066,-0.28372326493263245
-1.2486225366592407,2.3216702938079834,-0.29277247190475464
-1.238370418548584,2.343773603439331,-0.3020285964012146
-1.2212790250778198,2.351778745651245,-0.30931010842323303
-1.2239573001861572,2.3974459171295166,-0.3215028643608093
-1.2064834833145142,2.405317544937134,-0.32867440581321716
-1.1991448402404785,2.4339516162872314,-0.3387296795845032
-1.2100062370300293,2.5009403228759766,-0.35434240102767944
-1.195416808128357,2.515500068664551,-0.3625422716140747
-1.1966215372085571,2.5652551651000977,-0.37585148215293884
-1.1745959520339966,2.565833568572998,-0.3820593059062958
-1.1468380689620972,2.551877021789551,-0.38587313890457153
-1.15511953830719,2.61911940574646,-0.40202590823173523
-1.2600817680358887,2.913965940475464,-0.45392337441444397
-1.320491075515747,3.1139585971832275,-0.4920114576816559
-1.2642287015914917,3.0399045944213867,-0.4869513213634491
-1.2278934717178345,3.011836290359497,-0.4889301359653473
-1.1617075204849243,2.9082226753234863,-0.47822847962379456
-1.1052542924880981,2.825547695159912,-0.47064918279647827
-1.0589382648468018,2.7636971473693848,-0.46605461835861206
-0.9999064207077026,2.6653149127960205,-0.45485353469848633
-0.96077561378479,2.6170623302459717,-0.45178231596946716
-0.9094133973121643,2.5321249961853027,-0.44210073351860046
-0.874565601348877,2.4902987480163574,-0.43971773982048035
-0.8393452167510986,2.4444448947906494,-0.436259001493454
-0.8034960627555847,2.3946566581726074,-0.4317639172077179
-0.7684150338172913,2.3445122241973877,-0.4270213842391968
-0.7424143552780151,2.3196465969085693,-0.42671990394592285
-0.7061572074890137,2.261603832244873,-0.4201532304286957
-0.6765642762184143,2.2215824127197266,-0.4165123701095581
-0.6541393399238586,2.2033891677856445,-0.4168719947338104
-0.6247390508651733,2.159114360809326,-0.4121485650539398
-0.6032559275627136,2.140460968017578,-0.412166029214859
-0.57286137342453,2.088359832763672,-0.4053925573825836
-0.5499006509780884,2.0619871616363525,-0.4035581946372986
-0.529558539390564,2.0427780151367188,-0.40300020575523376
-0.5048144459724426,2.004802942276001,-0.3986554443836212
-0.4523750841617584,1.8512067794799805,-0.37074023485183716
-0.44102445244789124,1.8611907958984375,-0.3753926455974579
-0.4225314259529114,1.8412482738494873,-0.37403953075408936
-0.40460148453712463,1.8211034536361694,-0.37254729866981506
-0.3933947682380676,1.8308180570602417,-0.37688547372817993
-0.37739884853363037,1.8179751634597778,-0.3765430450439453
-0.3646228015422821,1.8200125694274902,-0.379279762506485
-0.3472971022129059,1.7994439601898193,-0.37732958793640137
-0.33607733249664307,1.8088335990905762,-0.3813943862915039
-0.31868863105773926,1.7842915058135986,-0.3781866729259491
-0.3049027621746063,1.7784452438354492,-0.3789207339286804
-0.28873538970947266,1.757409930229187,-0.37640345096588135
-0.2726728916168213,1.7363038063049316,-0.373709112405777
-0.26053959131240845,1.73775053024292,-0.3756348192691803
-0.2483862191438675,1.7391120195388794,-0.37756210565567017
-0.23519916832447052,1.7328195571899414,-0.37783896923065186
-0.22211381793022156,1.726447582244873,-0.3780154287815094
-0.2077525556087494,1.7086732387542725,-0.3754030466079712
-0.19560691714286804,1.7097630500793457,-0.3769627511501312
-0.18448494374752045,1.7183349132537842,-0.38017308712005615
-0.17250406742095947,1.719240427017212,-0.3817008435726166
-0.15768170356750488,1.689764142036438,-0.3761058747768402
-0.14721304178237915,1.7057626247406006,-0.3806426227092743
-0.13330446183681488,1.68369722366333,-0.3767169415950775
-0.12376605719327927,1.7147464752197266,-0.38468077778816223
-0.10933741927146912,1.6773433685302734,-0.37697315216064453
-0.09633617103099823,1.6550660133361816,-0.37258538603782654
-0.08443019539117813,1.647917628288269,-0.37161001563072205
-0.07376772910356522,1.671144962310791,-0.37752053141593933
-0.06101231276988983,1.6410424709320068,-0.37114018201828003
-0.05004901438951492,1.6565806865692139,-0.37493962049484253
-0.03808744624257088,1.637764573097229,-0.370980441570282
-0.02658819779753685,1.6302921772003174,-0.3696034252643585
-0.015074671246111393,1.630393624305725,-0.36980509757995605
-0.003735004924237728,1.6228461265563965,-0.3680494427680969
0.007605229504406452,1.6380771398544312,-0.3714774549007416
0.01949046365916729,1.6798930168151855,-0.38095176219940186
0.030909838154911995,1.664503574371338,-0.37739667296409607
0.04307720065116882,1.687194585800171,-0.38215330243110657
0.05479386821389198,1.6793285608291626,-0.3799968361854553
0.06859225779771805,1.7323039770126343,-0.3916236162185669
0.08029470592737198,1.7242704629898071,-0.3894674777984619
0.09269842505455017,1.7314672470092773,-0.3903577923774719
0.10498885065317154,1.7347723245620728,-0.3903765082359314
0.11779134720563889,1.7417829036712646,-0.391231507062912
0.13160152733325958,1.7639198303222656,-0.39550450444221497
0.14512771368026733,1.7784215211868286,-0.3977382779121399
0.16087129712104797,1.815634846687317,-0.40494441986083984
0.172797292470932,1.8071644306182861,-0.40196144580841064
0.18560464680194855,1.8061851263046265,-0.4006507694721222
0.19736725091934204,1.7975965738296509,-0.3974623382091522
0.21389490365982056,1.8306562900543213,-0.40330368280410767
0.23042407631874084,1.8597960472106934,-0.4082496166229248
0.24637873470783234,1.8812329769134521,-0.41148287057876587
0.26079556345939636,1.8874191045761108,-0.41120368242263794
0.27782756090164185,1.9124747514724731,-0.41479068994522095
0.29579758644104004,1.941170573234558,-0.4191322326660156
0.3153711259365082,1.977267861366272,-0.42502886056900024
0.3298242390155792,1.9792799949645996,-0.4235216975212097
0.3403828740119934,1.958658218383789,-0.41686198115348816
0.3556819260120392,1.9642791748046875,-0.4157809317111969
0.37721383571624756,2.0036492347717285,-0.421846479177475
0.4015309810638428,2.0540947914123535,-0.4301562011241913
0.4166826009750366,2.055633306503296,-0.4278128147125244
0.4421005845069885,2.1057727336883545,-0.4355045557022095
0.46932533383369446,2.159379243850708,-0.44374340772628784
0.4912131428718567,2.1866118907928467,-0.44651636481285095
0.5151995420455933,2.2211837768554688,-0.4504487216472626
0.5405943989753723,2.259291410446167,-0.4549027979373932
0.5674659013748169,2.3008949756622314,-0.4599592089653015
0.592440664768219,2.331033945083618,-0.4625670313835144
0.6233742833137512,2.3833305835723877,-0.4693223237991333
0.6630207300186157,2.465031623840332,-0.4814980924129486
0.69874507188797,2.527834177017212,-0.48976096510887146
0.7322729229927063,2.5791995525360107,-0.49563029408454895
0.7711520791053772,2.6449570655822754,-0.5038866996765137
0.8073177337646484,2.699422836303711,-0.5096409916877747
0.8498974442481995,2.771929979324341,-0.5185983777046204
0.893675684928894,2.8439791202545166,-0.5271969437599182
0.9408381581306458,2.9229393005371094,-0.5367564558982849
0.9942169785499573,3.0160415172576904,-0.5482158064842224
1.0411970615386963,3.0868074893951416,-0.555415153503418
1.1082218885421753,3.2116804122924805,-0.571953296661377
1.1681138277053833,3.31040096282959,-0.5833907723426819
1.2187328338623047,3.3796329498291016,-0.5889999866485596
1.2343798875808716,3.3506627082824707,-0.5774170756340027
1.4310206174850464,3.801576614379883,-0.64751797914505
1.5050275325775146,3.9153175354003906,-0.6591600179672241
1.5817070007324219,4.032079219818115,-0.6705092191696167
1.6270731687545776,4.065581798553467,-0.6676896810531616
1.6557462215423584,4.055638790130615,-0.6575936675071716
1.6864417791366577,4.048821449279785,-0.647850751876831
1.7131835222244263,4.035037994384766,-0.6368699669837952
1.9700795412063599,4.5534348487854,-0.7087634205818176
1.4606435298919678,3.3130409717559814,-0.5083742737770081
1.4809402227401733,3.296870470046997,-0.4985547363758087
1.5009905099868774,3.2806363105773926,-0.4884723424911499
1.5237425565719604,3.271444082260132,-0.4795965254306793
1.5501741170883179,3.2688968181610107,-0.47156083583831787
1.5699963569641113,3.252127170562744,-0.46144360303878784
1.5959361791610718,3.2494137287139893,-0.45320379734039307
1.618827223777771,3.2393715381622314,-0.4438105523586273
1.6487834453582764,3.2429263591766357,-0.43623003363609314
1.646666407585144,3.1842422485351562,-0.4203322231769562
1.6306419372558594,3.1019201278686523,-0.4015621542930603
1.701466679573059,3.184195041656494,-0.4040288031101227
1.7240546941757202,3.1732547283172607,-0.3942263722419739
1.7352174520492554,3.1417930126190186,-0.3817632794380188
1.7472076416015625,3.11405873298645,-0.36997416615486145
1.8093169927597046,3.173861026763916,-0.36829856038093567
1.368040919303894,2.361480236053467,-0.26733213663101196
1.3269444704055786,2.255751132965088,-0.2489037960767746
0.9535508155822754,1.596163034439087,-0.1714460402727127
0.8901883959770203,1.4668548107147217,-0.153120756149292
0.9166673421859741,1.4876762628555298,-0.15075691044330597
0.9783094525337219,1.5644677877426147,-0.15373563766479492
0.9933860301971436,1.564713478088379,-0.14876610040664673
1.0002977848052979,1.551587462425232,-0.14235331118106842
1.010693907737732,1.5453473329544067,-0.13668665289878845
1.029924750328064,1.5518460273742676,-0.1319779008626938
1.0277440547943115,1.52567720413208,-0.12436071038246155
1.0378475189208984,1.5192959308624268,-0.11843274533748627
2.5254197120666504,3.6435232162475586,-0.2703392505645752
2.564225912094116,3.6460676193237305,-0.2564481496810913
2.6016643047332764,3.6492764949798584,-0.24246978759765625
2.6266751289367676,3.6323535442352295,-0.22639335691928864
2.665147542953491,3.634293556213379,-0.21096883714199066
2.688577175140381,3.6179215908050537,-0.19442786276340485
2.647972345352173,3.731170415878296,0.5594176650047302
2.6119399070739746,3.7353312969207764,0.5723710060119629
2.578561782836914,3.7467777729034424,0.5860883593559265
1.0375961065292358,1.532958745956421,0.24458372592926025
1.0499787330627441,1.5750648975372314,0.2557579278945923
1.0296306610107422,1.5690743923187256,0.2590651214122772
1.0085633993148804,1.563417911529541,0.2623225450515747
1.0091384649276733,1.5897367000579834,0.2707187235355377
1.0017728805541992,1.6026771068572998,0.2767200767993927
0.9893654584884644,1.609533429145813,0.28152257204055786
0.9687763452529907,1.603149175643921,0.2839607894420624
0.9725545644760132,1.636084794998169,0.29325324296951294
0.945209801197052,1.615571141242981,0.29284361004829407
1.369354248046875,2.3811819553375244,0.4361109733581543
1.8271929025650024,3.2332653999328613,0.5982374548912048
1.7996379137039185,3.238384246826172,0.6049646139144897
1.7797472476959229,3.256667137145996,0.6141210198402405
1.7626018524169922,3.2820534706115723,0.6242495775222778
2.3987553119659424,4.5475172996521,0.8721550703048706
2.375145196914673,4.5839643478393555,0.8863101601600647
2.3389346599578857,4.592030048370361,0.8946765065193176
2.315629243850708,4.627744674682617,0.9085013270378113
2.2738380432128906,4.629465103149414,0.9150424003601074
2.2471706867218018,4.661988735198975,0.927728533744812
2.2129645347595215,4.676529407501221,0.9367251396179199
2.1829473972320557,4.697342395782471,0.9468487501144409
2.148993730545044,4.711239814758301,0.9554342031478882
2.109950542449951,4.718750953674316,0.9623374938964844
2.0777008533477783,4.7397541999816895,0.9719536900520325
2.0385236740112305,4.7425665855407715,0.9777604937553406
1.7410683631896973,4.129490375518799,0.8558022379875183
1.726271629333496,4.175854682922363,0.8698294758796692
1.6947598457336426,4.187412738800049,0.8762080073356628
1.6679435968399048,4.209227085113525,0.8847236633300781
1.6355578899383545,4.216493129730225,0.890209972858429
1.607122778892517,4.230247974395752,0.8969525694847107
1.579865574836731,4.247405529022217,0.9044765830039978
1.548418402671814,4.257750988006592,0.9102000594139099
1.5247750282287598,4.289490222930908,0.9203287959098816
1.4906991720199585,4.292165279388428,0.924282431602478
1.4648356437683105,4.316072940826416,0.932777464389801
1.434419870376587,4.325133800506592,0.9380641579627991
1.4057445526123047,4.341422080993652,0.9449806213378906
1.371778130531311,4.343227863311768,0.9481025338172913
1.3446096181869507,4.366693019866943,0.9560078382492065
1.3149733543395996,4.382657527923584,0.9623357653617859
1.288251519203186,4.405507564544678,0.9701562523841858
1.2605055570602417,4.424441337585449,0.9771532416343689
1.2308200597763062,4.439713001251221,0.983341634273529
1.2007149457931519,4.454980373382568,0.9889578819274902
1.1685662269592285,4.462637424468994,0.9929366111755371
1.140082597732544,4.484871864318848,1.0002217292785645
1.1084166765213013,4.491931438446045,1.0041277408599854
1.0799161195755005,4.5136847496032715,1.0114021301269531
1.0499873161315918,4.527711391448975,1.016924500465393
1.0191768407821655,4.541835784912109,1.0218563079833984
0.988166332244873,4.555755615234375,1.0268033742904663
0.9508035182952881,4.539584159851074,1.0250121355056763
0.7746910452842712,3.835319757461548,0.8676044940948486
0.7507542371749878,3.855010986328125,0.8736749291419983
0.7224060893058777,3.852057695388794,0.8746565580368042
0.8350440859794617,4.633139610290527,1.0534710884094238
0.8033397793769836,4.645901203155518,1.057720422744751
0.7721575498580933,4.666049003601074,1.0637367963790894
0.7414177656173706,4.685884475708008,1.0697163343429565
0.7110235095024109,4.705434322357178,1.075666904449463
0.6782204508781433,4.7096991539001465,1.0781804323196411
0.6467786431312561,4.725134372711182,1.0830485820770264
0.6147282123565674,4.744349479675293,1.0883674621582031
0.5839090943336487,4.770844459533691,1.095404028892517
0.551056981086731,4.781996726989746,1.0989770889282227
0.5167698264122009,4.777745246887207,1.099054217338562
0.4842665493488312,4.788387298583984,1.102605938911438
0.4544384181499481,4.829134941101074,1.1131560802459717
0.4216470420360565,4.850926399230957,1.118786334991455
0.3881032466888428,4.861110210418701,1.121633768081665
0.35449355840682983,4.871057033538818,1.1244827508926392
0.32176169753074646,4.895963668823242,1.1308443546295166
0.289040744304657,4.920629024505615,1.1372051239013672
0.25339674949645996,4.907090663909912,1.1348062753677368
0.22076267004013062,4.942732334136963,1.1436851024627686
0.18621936440467834,4.944067001342773,1.1440612077713013
0.15260152518749237,4.975592613220215,1.1514798402786255
0.11819181591272354,4.991667747497559,1.1553807258605957
0.08291211724281311,4.99990177154541,1.1575278043746948
0.04849459230899811,5.0421295166015625,1.1675997972488403
0.013440776616334915,5.0422563552856445,1.1679811477661133
-0.021742915734648705,5.072671890258789,1.1750342845916748
-0.0570928156375885,5.080097198486328,1.1764140129089355
-0.0934797078371048,5.102485656738281,1.1813092231750488
-0.12933549284934998,5.1170196533203125,1.1844466924667358
-0.16527529060840607,5.127497673034668,1.1867016553878784
-0.2015760987997055,5.141523361206055,1.1898343563079834
-0.2383711040019989,5.162898540496826,1.194724678993225
-0.27532774209976196,5.18416166305542,1.198990821838379
-0.2613205909729004,4.342703342437744,1.003726601600647
-0.291358083486557,4.3410186767578125,1.0027451515197754
-0.3203103244304657,4.323936939239502,0.9982563853263855
-0.3540617525577545,4.36736536026001,1.0077801942825317
-0.37874671816825867,4.300556182861328,0.9919167757034302
-0.40482914447784424,4.252536296844482,0.980353593826294
-0.4283057153224945,4.193197727203369,0.9656671285629272
-0.45805343985557556,4.198078632354736,0.9658260345458984
-0.47335001826286316,4.0779194831848145,0.937289297580719
-0.4987354576587677,4.052224159240723,0.9305368661880493
-0.5209939479827881,3.999854326248169,0.9176998138427734
-0.5436365008354187,3.9587438106536865,0.90752112865448
-0.5660411715507507,3.921372652053833,0.8979633450508118
-0.5872296690940857,3.8801984786987305,0.8872820734977722
-0.6078363060951233,3.8389158248901367,0.8766436576843262
-0.6302891969680786,3.808727264404297,0.8685770630836487
-0.6463436484336853,3.7446300983428955,0.8528530597686768
-0.667692244052887,3.7142326831817627,0.8448672890663147
-0.6893491148948669,3.6874608993530273,0.8377609252929688
-0.713121235370636,3.675729990005493,0.8335974812507629
-0.7224422693252563,3.5928258895874023,0.8133220076560974
-0.7357606291770935,3.5322670936584473,0.7981725931167603
-0.7552310824394226,3.5052943229675293,0.790698230266571
-0.7680784463882446,3.4483518600463867,0.7765108942985535
-0.7938545942306519,3.4508838653564453,0.7757713794708252
-0.8132566213607788,3.4273488521575928,0.768958568572998
-0.8297523260116577,3.3926234245300293,0.759379506111145
-0.8547238707542419,3.3949337005615234,0.7581686973571777
-0.8625331521034241,3.3305249214172363,0.7421190142631531
-0.8847476243972778,3.321382999420166,0.7384138703346252
-0.8958866000175476,3.2715375423431396,0.7257114052772522
-0.9148774743080139,3.251066207885742,0.7194730043411255
-0.9274380207061768,3.21244740486145,0.708907425403595
-0.9383963346481323,3.1701362133026123,0.6976063847541809
-0.9577332139015198,3.157064199447632,0.6927958726882935
-0.9750639796257019,3.13645601272583,0.6863420009613037
-0.9927477240562439,3.1155803203582764,0.679828941822052
-1.0109331607818604,3.0983736515045166,0.6741735935211182
-1.0197833776474,3.0559558868408203,0.6626524329185486
-1.0379587411880493,3.042525053024292,0.6574832797050476
-1.0421364307403564,2.9892210960388184,0.6437675952911377
-1.0628578662872314,2.9826982021331787,0.6401354670524597
-1.073689341545105,2.9470319747924805,0.6302337050437927
-1.0996670722961426,2.954583168029785,0.6295966506004333
-1.0964826345443726,2.88704776763916,0.6126509308815002
-1.1367409229278564,2.934011220932007,0.6200376152992249
-1.1297852993011475,2.8593666553497314,0.6017652750015259
-1.144424557685852,2.8378777503967285,0.5946433544158936
-1.1468899250030518,2.788027286529541,0.5816921591758728
-1.1246272325515747,2.681818962097168,0.5569674968719482
-1.121562123298645,2.625640630722046,0.542585015296936
-1.1331015825271606,2.604790449142456,0.5355932712554932
-1.144992470741272,2.5836591720581055,0.5285086035728455
-1.1695504188537598,2.59037184715271,0.5271047949790955
-1.2007026672363281,2.6108202934265137,0.5284739136695862
-1.2345085144042969,2.638428211212158,0.5308817625045776
-1.2489111423492432,2.624067544937134,0.5248212814331055
-1.2601017951965332,2.602578639984131,0.5173340439796448
-1.2683686017990112,2.5738277435302734,0.508342444896698
-1.2797362804412842,2.551947593688965,0.500777542591095
-1.2935317754745483,2.5373311042785645,0.49440798163414
-1.3016834259033203,2.5124847888946533,0.48602479696273804
-1.3149161338806152,2.4978556632995605,0.4796782433986664
-1.3183739185333252,2.462162494659424,0.46909084916114807
-1.332169532775879,2.446955919265747,0.4625387191772461
-1.3410941362380981,2.42549991607666,0.4545499086380005
-1.349666953086853,2.404083013534546,0.44660693407058716
-1.3602014780044556,2.385847568511963,0.4392438530921936
-1.3659003973007202,2.356947422027588,0.4297042191028595
-1.3823164701461792,2.3484103679656982,0.4239095151424408
-1.3978687524795532,2.3402504920959473,0.4179951548576355
-1.4013550281524658,2.3121581077575684,0.4085767865180969
-1.4095458984375,2.2901432514190674,0.40003326535224915
-1.454813838005066,2.326853036880493,0.401531457901001
-1.4286991357803345,2.253042459487915,0.3838343024253845
-1.4330484867095947,2.228400707244873,0.3747106194496155
-1.4359943866729736,2.1999619007110596,0.36471378803253174
-1.4922444820404053,2.252117872238159,0.36785104870796204
-1.4618890285491943,2.17580509185791,0.34971171617507935
-1.4717538356781006,2.1608874797821045,0.34174856543540955
-1.4828879833221436,2.1450445652008057,0.3331288695335388
-1.4886263608932495,2.1233341693878174,0.3235468566417694
-1.4911422729492188,2.0989813804626465,0.3135453462600708
-1.5014127492904663,2.083314895629883,0.30435290932655334
-1.5160483121871948,2.0739190578460693,0.29585495591163635
-1.5293824672698975,2.0653114318847656,0.28731638193130493
-1.4895356893539429,2.0897865295410156,-0.14346712827682495
-1.4876245260238647,2.1190907955169678,-0.1548125147819519
-1.471972107887268,2.1292622089385986,-0.164557084441185
-1.4578403234481812,2.1429033279418945,-0.1745997667312622
-1.4468625783920288,2.1589577198028564,-0.18427546322345734
-1.4349353313446045,2.175441265106201,-0.19405199587345123
-1.4266988039016724,2.1985971927642822,-0.20457035303115845
-1.419378399848938,2.221010208129883,-0.21453183889389038
-1.4296534061431885,2.2735414505004883,-0.22761937975883484
-1.3900567293167114,2.2468855381011963,-0.23275510966777802
-1.3700056076049805,2.2491912841796875,-0.24035046994686127
-1.3451088666915894,2.2451393604278564,-0.24734385311603546
-1.2987053394317627,2.203953266143799,-0.24992217123508453
-1.2945619821548462,2.2324936389923096,-0.2600404918193817
-1.2801951169967651,2.2443158626556396,-0.2682611346244812
-1.2672396898269653,2.259619951248169,-0.2769262492656708
-1.2617287635803223,2.2883734703063965,-0.2872903048992157
-1.2490788698196411,2.3031771183013916,-0.2957425117492676
-1.2502840757369995,2.345600128173828,-0.30782437324523926
-1.2257362604141235,2.3400022983551025,-0.3136730492115021
-1.219675898551941,2.368367910385132,-0.32388219237327576
-1.210990309715271,2.393519163131714,-0.3338461220264435
-1.2606478929519653,2.5366289615631104,-0.36052972078323364
-1.3033747673034668,2.6699156761169434,-0.386447548866272
-1.2273834943771362,2.559257984161377,-0.3769708275794983
-1.2021644115447998,2.5529727935791016,-0.38246211409568787
-1.1802449226379395,2.5535242557525635,-0.38890784978866577
-1.1615508794784546,2.560931921005249,-0.3964071273803711
-1.1527512073516846,2.5891833305358887,-0.40703096985816956
-1.1153994798660278,2.553819417953491,-0.4074740707874298
-1.2870155572891235,3.0046498775482178,-0.48644691705703735
-1.2281173467636108,2.923413038253784,-0.48003455996513367
-1.170156478881836,2.841655969619751,-0.47321945428848267
-1.125043511390686,2.7879416942596436,-0.47044432163238525
-1.06374192237854,2.6907126903533936,-0.4599866271018982
-1.0097472667694092,2.6071202754974365,-0.4513707458972931
-0.9652087688446045,2.544591188430786,-0.4460466206073761
-0.9251260757446289,2.4926488399505615,-0.44221261143684387
-0.8822225332260132,2.4293408393859863,-0.4360269010066986
-0.8430033326148987,2.372807502746582,-0.43076446652412415
-0.8134756684303284,2.341336965560913,-0.4298464059829712
-0.7781237363815308,2.291456937789917,-0.4251492917537689
-0.7432315945625305,2.2413086891174316,-0.4202914834022522
-0.7107240557670593,2.1943576335906982,-0.415727823972702
-0.6824226379394531,2.1580803394317627,-0.41301679611206055
-0.6557226777076721,2.1252834796905518,-0.41057196259498596
-0.6306125521659851,2.0959200859069824,-0.4086892306804657
-0.6027714014053345,2.0552637577056885,-0.4044699966907501
-0.5816524624824524,2.0365312099456787,-0.40451934933662415
-0.5620569586753845,2.0213184356689453,-0.4048837721347809
-0.5396811962127686,1.9948445558547974,-0.4029116630554199
-0.5236307978630066,1.9903970956802368,-0.4053296446800232
-0.4877690076828003,1.9078679084777832,-0.39170539379119873
-0.4565292000770569,1.839962124824524,-0.38066425919532776
-0.4417482912540436,1.8350054025650024,-0.38242262601852417
-0.4287981688976288,1.8373860120773315,-0.38571783900260925
-0.4141885042190552,1.8321995735168457,-0.38742348551750183
-0.39148128032684326,1.7895830869674683,-0.38095515966415405
-0.37786850333213806,1.7879738807678223,-0.38308465480804443
-0.36375662684440613,1.7824805974960327,-0.38434267044067383
-0.3512154817581177,1.7843759059906006,-0.38720253109931946
-0.33723315596580505,1.7787086963653564,-0.38826867938041687
-0.3247354030609131,1.7804847955703735,-0.3907741606235504
-0.30674073100090027,1.7521194219589233,-0.38668492436408997
-0.2944753170013428,1.753679871559143,-0.3891389071941376
-0.2719106674194336,1.6911438703536987,-0.3772054612636566
-0.25661346316337585,1.6699326038360596,-0.37416109442710876
-0.2416256219148636,1.6486010551452637,-0.37106209993362427
-0.23095446825027466,1.6573758125305176,-0.37477266788482666
-0.2223907709121704,1.6811763048171997,-0.38185086846351624
-0.21778126060962677,1.739018440246582,-0.3964165449142456
-0.19537445902824402,1.6531014442443848,-0.37820661067962646
-0.18551066517829895,1.6691954135894775,-0.3832972049713135
-0.17779681086540222,1.707945466041565,-0.3936540484428406
-0.15905289351940155,1.6406570672988892,-0.3792113959789276
-0.15101414918899536,1.679352045059204,-0.38922175765037537
-0.13679516315460205,1.6497331857681274,-0.383421391248703
-0.12528854608535767,1.6503607034683228,-0.38465097546577454
-0.11379420757293701,1.6509780883789062,-0.3855728507041931
-0.10538313537836075,1.7046968936920166,-0.3988603353500366
-0.08539493381977081,1.557075023651123,-0.3650033175945282
-0.07945659756660461,1.660010576248169,-0.3898806869983673
-0.06884515285491943,1.6831820011138916,-0.39582979679107666
-0.05365104600787163,1.5809086561203003,-0.37212133407592773
-0.04348904639482498,1.619157314300537,-0.3815002739429474
-0.0330686941742897,1.6611334085464478,-0.3917883336544037
-0.02079884521663189,1.6042416095733643,-0.37857943773269653
-0.009847673587501049,1.634753942489624,-0.3857887089252472
0.0014819183852523565,1.6043606996536255,-0.37864312529563904
0.01316023524850607,1.6461207866668701,-0.38854625821113586
0.024211641401052475,1.6194018125534058,-0.38217198848724365
0.03579955920577049,1.6344865560531616,-0.38538557291030884
0.047500599175691605,1.645688533782959,-0.38769638538360596
0.059495389461517334,1.6606072187423706,-0.3908964693546295
0.07138809561729431,1.667853832244873,-0.3922455906867981
0.08170311897993088,1.637107014656067,-0.38430845737457275
0.09612782299518585,1.6898435354232788,-0.3959919810295105
0.10789654403924942,1.6893203258514404,-0.39519205689430237
0.11858697980642319,1.6735352277755737,-0.39084693789482117
0.12966758012771606,1.6653575897216797,-0.38789141178131104
0.14341109991073608,1.6874288320541382,-0.3919679820537567
0.1551704704761505,1.6866674423217773,-0.3907642066478729
0.16616366803646088,1.6782474517822266,-0.38781067728996277
0.18268534541130066,1.7228349447250366,-0.39675822854042053
0.19470570981502533,1.7218916416168213,-0.3951326012611389
0.21010586619377136,1.7473196983337402,-0.3995330333709717
0.2222886085510254,1.7461882829666138,-0.39788344502449036
0.2365225851535797,1.760133981704712,-0.3994034230709076
0.2520243227481842,1.7815495729446411,-0.4024655818939209
0.26672908663749695,1.795298457145691,-0.40377554297447205
0.28479915857315063,1.827749490737915,-0.4092308580875397
0.2951444685459137,1.8111680746078491,-0.4035446345806122
0.3180788457393646,1.86980402469635,-0.41438722610473633
0.33585190773010254,1.8944090604782104,-0.4176056683063507
0.34912192821502686,1.8925840854644775,-0.4149895906448364
0.36383676528930664,1.8981884717941284,-0.41388723254203796
0.3863343894481659,1.941174864768982,-0.4205777049064636
0.4053550064563751,1.9652830362319946,-0.4231482148170471
0.4271416664123535,2.000446319580078,-0.4280315339565277
0.44117891788482666,1.99808669090271,-0.42480313777923584
0.46200457215309143,2.0255284309387207,-0.4275803565979004
0.4966541528701782,2.1086268424987793,-0.441897451877594
0.5214272141456604,2.1467854976654053,-0.4466760754585266
0.5439706444740295,2.173574924468994,-0.44900548458099365
0.5697547793388367,2.211376667022705,-0.4531649351119995
0.6009881496429443,2.267474889755249,-0.46093276143074036
0.6303504705429077,2.3121068477630615,-0.46613720059394836
0.6642427444458008,2.3712990283966064,-0.4741802215576172
0.6978850364685059,2.4265496730804443,-0.4809562861919403
0.7333924770355225,2.485180616378784,-0.48815789818763733
0.7720539569854736,2.5508036613464355,-0.49650290608406067
0.8086025714874268,2.604954481124878,-0.5023242831230164
0.8537278771400452,2.6845340728759766,-0.5126454830169678
0.89283287525177,2.7417585849761963,-0.5183416604995728
0.9449829459190369,2.8350794315338135,-0.5305699706077576
0.9960888028144836,2.9205596446990967,-0.540972113609314
1.0521657466888428,3.016484498977661,-0.5527656078338623
1.111210823059082,3.115405797958374,-0.5644725561141968
1.1687524318695068,3.206568479537964,-0.5744774341583252
1.219724178314209,3.275418996810913,-0.580112874507904
1.2510064840316772,3.2897887229919434,-0.5757836103439331
1.346617579460144,3.4693291187286377,-0.5997845530509949
1.5376675128936768,3.8807947635650635,-0.662450909614563
1.61148202419281,3.9859704971313477,-0.6717602610588074
1.6689969301223755,4.047635555267334,-0.6732197403907776
1.698779582977295,4.041196823120117,-0.6630463600158691
1.7742782831192017,4.141030788421631,-0.6700572967529297
2.000654935836792,4.579774379730225,-0.7303693890571594
2.0438592433929443,4.592297077178955,-0.7216672897338867
1.4977680444717407,3.3046069145202637,-0.5114871859550476
1.5176666975021362,3.2884228229522705,-0.5011255145072937
1.5410561561584473,3.2789535522460938,-0.4917048513889313
1.5544639825820923,3.2483184337615967,-0.47895315289497375
1.5838245153427124,3.252737045288086,-0.47148433327674866
1.6031867265701294,3.2359747886657715,-0.4608801007270813
1.6331963539123535,3.23968505859375,-0.4530709385871887
1.6486855745315552,3.2157745361328125,-0.44134047627449036
1.6028035879135132,3.07490873336792,-0.41391974687576294
1.6320436000823975,3.078369140625,-0.40598657727241516
1.716488003730774,3.184128522872925,-0.411273330450058
1.723404884338379,3.1463143825531006,-0.3977067470550537
1.7355157136917114,3.1187005043029785,-0.38557878136634827
1.793979525566101,3.1717982292175293,-0.38299837708473206
1.3556647300720215,2.3583502769470215,-0.2777847647666931
1.3600168228149414,2.3297932147979736,-0.26758015155792236
0.9538078904151917,1.6087757349014282,-0.17994463443756104
0.8930038213729858,1.4826210737228394,-0.16124767065048218
0.886890709400177,1.450483798980713,-0.15322263538837433
0.9564212560653687,1.5407413244247437,-0.15783612430095673
0.9839495420455933,1.5608278512954712,-0.15473777055740356
0.9946693778038025,1.5545835494995117,-0.14895203709602356
0.996616005897522,1.5353399515151978,-0.14196640253067017
1.0202127695083618,1.5483776330947876,-0.13772442936897278
1.0311323404312134,1.5416724681854248,-0.13148173689842224
1.0326558351516724,1.5223603248596191,-0.12431838363409042
1.0586856603622437,1.5381271839141846,-0.1197565421462059
2.5470080375671387,3.6476175785064697,-0.2697469890117645
2.575453996658325,3.6382648944854736,-0.25474369525909424
2.6148760318756104,3.640033006668091,-0.23926784098148346
2.639345407485962,3.623396873474121,-0.22253449261188507
2.6676998138427734,3.6132776737213135,-0.20605669915676117
2.6358139514923096,3.739069938659668,0.5951512455940247
2.589970111846924,3.735522747039795,0.6072452664375305
2.5517380237579346,3.740544557571411,0.6202566623687744
1.059261441230774,1.5766106843948364,0.26621055603027344
1.0383310317993164,1.5709940195083618,0.2697373926639557
1.0342130661010742,1.591194987297058,0.27767977118492126
1.0184458494186401,1.5912507772445679,0.2817555069923401
1.0189528465270996,1.617461919784546,0.2904078960418701
1.001922369003296,1.6180541515350342,0.2944241166114807
0.9934521913528442,1.6313974857330322,0.30063217878341675
0.9777357578277588,1.6310129165649414,0.30407771468162537
0.961634635925293,1.630752444267273,0.3074244260787964
1.3818988800048828,2.38425874710083,0.4542466998100281
1.3595308065414429,2.3869636058807373,0.4595400393009186
1.816839575767517,3.242123603820801,0.6301547884941101
1.7894052267074585,3.2469804286956787,0.6369262933731079
1.7809534072875977,3.289515256881714,0.6508099436759949
1.7593293190002441,3.308276653289795,0.6600847840309143
2.39573335647583,4.584081172943115,0.9220585227012634
2.3646953105926514,4.602431774139404,0.9329681992530823
2.3284738063812256,4.614556789398193,0.9421279430389404
2.298549175262451,4.640406608581543,0.9539939165115356
2.26021146774292,4.6486663818359375,0.9622563123703003
2.2330844402313232,4.676847457885742,0.9744623303413391
2.1964707374572754,4.683762073516846,0.9821873307228088
2.161372661590576,4.698243618011475,0.9908466339111328
2.1323392391204834,4.726502418518066,1.0024515390396118
2.100118398666382,4.747464656829834,1.0125548839569092
2.0664381980895996,4.760473728179932,1.020737886428833
1.982563853263855,4.657110691070557,1.003978967666626
1.741755485534668,4.1750311851501465,0.9043039679527283
1.7107234001159668,4.186404228210449,0.9109393954277039
1.679655909538269,4.1975226402282715,0.9175640940666199
1.6482363939285278,4.2044525146484375,0.9231666922569275
1.6248195171356201,4.232642650604248,0.933527410030365
1.5970208644866943,4.2500319480896,0.9412281513214111
1.5656607151031494,4.26039981842041,0.9470269680023193
1.5290613174438477,4.256138324737549,0.9496133923530579
1.5005542039871216,4.273099422454834,0.9569402933120728
1.482285499572754,4.318624019622803,0.9706946015357971
1.4493963718414307,4.320460796356201,0.9746406674385071
1.4205241203308105,4.336921691894531,0.9814057350158691
1.3888356685638428,4.346043586730957,0.9863947629928589
1.3639017343521118,4.376794338226318,0.9963603615760803
1.3319367170333862,4.385486602783203,1.00137197971344
1.3043320178985596,4.404611110687256,1.008713722229004
1.2733500003814697,4.4125590324401855,1.0135529041290283
1.2415037155151367,4.420636177062988,1.0178543329238892
1.2094571590423584,4.428543567657471,1.022057294845581
1.1793156862258911,4.443583965301514,1.0279641151428223
1.1527255773544312,4.4731974601745605,1.0373202562332153
1.1232469081878662,4.4875993728637695,1.0431264638900757
1.093572735786438,4.501810550689697,1.0489518642425537
1.0667014122009277,4.530889987945557,1.0577746629714966
1.037559151649475,4.552466869354248,1.0647224187850952
1.0026313066482544,4.551658630371094,1.0665298700332642
0.9701201915740967,4.557887554168701,1.0699920654296875
0.9367021918296814,4.556303977966309,1.071629285812378
0.7685906887054443,3.8750386238098145,0.9131461977958679
0.7312548160552979,3.8274152278900146,0.9034153819084167
0.8484159708023071,4.6216959953308105,1.0923373699188232
0.8180326819419861,4.6419782638549805,1.0986090898513794
0.7887229919433594,4.66955041885376,1.1066715717315674
0.758436918258667,4.689337730407715,1.112929344177246
0.7269113659858704,4.701385498046875,1.1174044609069824
0.694054126739502,4.70953893661499,1.1210453510284424
0.6617805361747742,4.721385955810547,1.124833583831787
0.629318118095398,4.733016014099121,1.1286301612854004
0.5986214280128479,4.7595062255859375,1.136033535003662
0.5651158690452576,4.763123512268066,1.138032078742981
0.5343939065933228,4.7891387939453125,1.145434021949768
0.5012551546096802,4.7998785972595215,1.1492646932601929
0.4691406488418579,4.817992687225342,1.154567837715149
0.4369370639324188,4.8397955894470215,1.160353183746338
0.40407794713974,4.857598304748535,1.1652421951293945
0.3698933720588684,4.860018730163574,1.1664999723434448
0.33692148327827454,4.884957313537598,1.1732314825057983
0.30430346727371216,4.909632682800293,1.179949402809143
0.2707322835922241,4.922708034515381,1.183942437171936
0.23630504310131073,4.924316883087158,1.184622883796692
0.20337644219398499,4.963681221008301,1.1942436695098877
0.1688055843114853,4.987657070159912,1.2002266645431519
0.13367821276187897,4.981004238128662,1.1988954544067383
0.09977572411298752,5.015867233276367,1.207614541053772
0.06489408016204834,5.01632022857666,1.2081102132797241
0.030146779492497444,5.039321422576904,1.2140756845474243
-0.005533226300030947,5.062262535095215,1.2192785739898682
-0.040694691240787506,5.062169551849365,1.2189973592758179
-0.07637032866477966,5.09221076965332,1.2260297536849976
-0.11207235604524612,5.106812477111816,1.2294028997421265
-0.14815092086791992,5.1249589920043945,1.2336879968643188
-0.1842907816171646,5.139057159423828,1.2370576858520508
-0.2219110131263733,5.1681060791015625,1.2438480854034424
-0.2573428750038147,5.159116744995117,1.2409456968307495
-0.2426127791404724,4.270082950592041,1.0265406370162964
-0.27413609623908997,4.298839569091797,1.032936692237854
-0.30526554584503174,4.315998077392578,1.0365898609161377
-0.33317872881889343,4.2798614501953125,1.0274851322174072
-0.36706313490867615,4.326871871948242,1.0383998155593872
-0.3917904794216156,4.267780780792236,1.0235177278518677
-0.415967732667923,4.212413787841797,1.0092748403549194
-0.44139784574508667,4.175804615020752,0.9995934963226318
-0.4689539074897766,4.15787410736084,0.9944274425506592
-0.49016132950782776,4.09072732925415,0.9775616526603699
-0.5109831690788269,4.027242660522461,0.9616411924362183
-0.5334682464599609,3.982497215270996,0.95026034116745
-0.5555684566497803,3.9415547847747803,0.9393135905265808
-0.5831334590911865,3.9380686283111572,0.9372271299362183
-0.5979416370391846,3.855541467666626,0.9164209365844727
-0.6195991635322571,3.8217785358428955,0.9072794318199158
-0.6379072070121765,3.769101858139038,0.893703043460846
-0.6562163233757019,3.720083713531494,0.8810619115829468
-0.6744546294212341,3.674773693084717,0.8692329525947571
-0.6957411766052246,3.648163318634033,0.8613976240158081
-0.7206712961196899,3.6439056396484375,0.8589178323745728
-0.7280055284500122,3.5537099838256836,0.8362552523612976
-0.7470086216926575,3.5231025218963623,0.8276847004890442
-0.7650831341743469,3.488619804382324,0.8182498812675476
-0.7848247289657593,3.461387872695923,0.810552716255188
-0.8016384840011597,3.4268972873687744,0.8008354902267456
-0.8223612904548645,3.4109063148498535,0.7953439950942993
-0.8346017599105835,3.36151123046875,0.7821314334869385
-0.8594503402709961,3.3637757301330566,0.7809911370277405
-0.8727256059646606,3.3177101612091064,0.7686154842376709
-0.8899328708648682,3.290113925933838,0.7606192827224731
-0.9065593481063843,3.26253342628479,0.7524973154067993
-0.9203728437423706,3.2277097702026367,0.7424344420433044
-0.9380025267601013,3.207489013671875,0.7357955574989319
-0.9525201916694641,3.1760947704315186,0.7266159057617188
-0.9701128005981445,3.1555557250976562,0.7199705243110657
-0.9853048920631409,3.127596378326416,0.7116777300834656
-1.0024117231369019,3.1068780422210693,0.7050082683563232
-1.0150429010391235,3.0754711627960205,0.6955724358558655
-1.0288622379302979,3.0475358963012695,0.6869508624076843
-1.0419996976852417,3.0196456909179688,0.6784418821334839
-1.0540918111801147,2.987924098968506,0.6690781116485596
-1.0763806104660034,2.9848647117614746,0.6661583781242371
-1.0853261947631836,2.9458181858062744,0.6551879644393921
-1.1052254438400269,2.939312696456909,0.6511279344558716
-1.108985185623169,2.889685869216919,0.6375382542610168
-1.1187477111816406,2.858052968978882,0.628053605556488
-1.130255103111267,2.8297066688537598,0.6192702651023865
-1.147337794303894,2.815455436706543,0.6136098504066467
-1.1301218271255493,2.719919204711914,0.5901837348937988
-1.1203936338424683,2.646009683609009,0.5713315606117249
-1.1230666637420654,2.604095935821533,0.5595694184303284
-1.153167724609375,2.6253397464752197,0.5613810420036316
-1.168623924255371,2.6110353469848633,0.555493175983429
-1.1934804916381836,2.6175734996795654,0.5540599226951599
-1.224422812461853,2.638129472732544,0.555168628692627
-1.2421694993972778,2.630819082260132,0.550415575504303
-1.2598459720611572,2.623392105102539,0.5456674098968506
-1.2648365497589111,2.5878665447235107,0.5349810719490051
-1.2729222774505615,2.559201717376709,0.5257804989814758
-1.2837523221969604,2.537630796432495,0.5178064107894897
-1.297215461730957,2.523181915283203,0.5112660527229309
-1.3087574243545532,2.505244493484497,0.5040661692619324
-1.3191375732421875,2.4834628105163574,0.49597403407096863
-1.3258448839187622,2.454756498336792,0.48652541637420654
-1.338856816291809,2.4399983882904053,0.47966864705085754
-1.3441619873046875,2.4117729663848877,0.47005850076675415
-1.3507698774337769,2.3870468139648438,0.4612806737422943
-1.3639816045761108,2.371770143508911,0.4541105329990387
-1.3769582509994507,2.3564562797546387,0.4469683766365051
-1.38473641872406,2.335120439529419,0.43842625617980957
-1.3965215682983398,2.320235252380371,0.4310780167579651
-1.4045490026474,2.298471450805664,0.4223911166191101
-1.4088385105133057,2.269806385040283,0.4123555123806
-1.420092225074768,2.254838466644287,0.4046601355075836
-1.4329262971878052,2.2432897090911865,0.397544801235199
-1.44016432762146,2.2214605808258057,0.38838720321655273
-1.483746886253357,2.2542519569396973,0.3885701298713684
-1.4988576173782349,2.2454841136932373,0.3812750577926636
-1.4680219888687134,2.169541120529175,0.36269527673721313
-1.4743365049362183,2.147752046585083,0.35304519534111023
-1.4810489416122437,2.1255691051483154,0.34305673837661743
-1.4948530197143555,2.1171388626098633,0.3352264165878296
-1.5043336153030396,2.102140426635742,0.32627251744270325
-1.5080981254577637,2.076862335205078,0.3152075409889221
-1.5171226263046265,2.061955451965332,0.30562594532966614
-1.5257822275161743,2.0471599102020264,0.2960253655910492
-1.4862051010131836,2.101140260696411,-0.15209661424160004
-1.4821557998657227,2.1270503997802734,-0.16336749494075775
-1.4635487794876099,2.1343698501586914,-0.17328840494155884
-1.4585095643997192,2.160543441772461,-0.18450212478637695
-1.4685094356536865,2.209278106689453,-0.19748997688293457
-1.4644404649734497,2.239060640335083,-0.2090398371219635
-1.444031834602356,2.2421388626098633,-0.2176930010318756
-1.4067703485488892,2.2188541889190674,-0.22353753447532654
-1.3979727029800415,2.2418251037597656,-0.23413509130477905
-1.3613513708114624,2.217811346054077,-0.23931947350502014
-1.3411318063735962,2.2200818061828613,-0.2471214383840561
-1.3105303049087524,2.2057294845581055,-0.2529735565185547
-1.2943851947784424,2.214289426803589,-0.26118534803390503
-1.2859543561935425,2.2361643314361572,-0.27098098397254944
-1.275051236152649,2.2548024654388428,-0.28031858801841736
-1.265916347503662,2.2767133712768555,-0.29011043906211853
-1.2607606649398804,2.3051350116729736,-0.3006337881088257
-1.251192331314087,2.326931953430176,-0.3103800415992737
-1.237239122390747,2.3420662879943848,-0.3194097578525543
-1.2274435758590698,2.363631010055542,-0.3290971517562866
-1.2369351387023926,2.423041582107544,-0.34417033195495605
-1.401464581489563,2.7945332527160645,-0.4046631455421448
-1.4185596704483032,2.8798558712005615,-0.424951434135437
-1.2509570121765137,2.585552930831909,-0.388538122177124
-1.2007546424865723,2.5268750190734863,-0.38639551401138306
-1.188809871673584,2.5484046936035156,-0.3963303565979004
-1.1670703887939453,2.5487194061279297,-0.40296149253845215
-1.1425087451934814,2.5416760444641113,-0.40829038619995117
-1.1506354808807373,2.6087424755096436,-0.42556798458099365
-1.2201831340789795,2.821514844894409,-0.4673541486263275
-1.1907767057418823,2.8075597286224365,-0.47187864780426025
-1.1337041854858398,2.7255542278289795,-0.46464428305625916
-1.0776686668395996,2.6430487632751465,-0.45676714181900024
-1.0313581228256226,2.581480026245117,-0.4521125853061676
-0.9830178618431091,2.5123064517974854,-0.44586941599845886
-0.9334126710891724,2.4352946281433105,-0.437750905752182
-0.8928963541984558,2.3794941902160645,-0.43298107385635376
-0.8478882908821106,2.308851480484009,-0.425176203250885
-0.8183630704879761,2.277543783187866,-0.42435717582702637
-0.782755970954895,2.22786808013916,-0.419999361038208
-0.7468284964561462,2.1741957664489746,-0.41439610719680786
-0.7202511429786682,2.1456856727600098,-0.41335925459861755
-0.6881781816482544,2.098666191101074,-0.4085928797721863
-0.6650798916816711,2.0769150257110596,-0.4085884094238281
-0.6362689137458801,2.036760091781616,-0.40473613142967224
-0.6071898937225342,1.9926191568374634,-0.3997843861579895
-0.5908260941505432,1.9886280298233032,-0.40279120206832886
-0.5639724731445312,1.9476652145385742,-0.39820802211761475
-0.5366582870483398,1.9028098583221436,-0.3925006687641144
-0.5170720219612122,1.8835835456848145,-0.39186763763427734
-0.49756571650505066,1.8642327785491943,-0.3912045359611511
-0.4776442050933838,1.840959906578064,-0.3895908296108246
-0.4645974934101105,1.843516230583191,-0.3932623565196991
-0.4479081928730011,1.8311470746994019,-0.39358851313591003
-0.4261222779750824,1.7963261604309082,-0.38902413845062256
-0.4072496294975281,1.7725149393081665,-0.38679957389831543
-0.38812780380249023,1.744805097579956,-0.3834748864173889
-0.36940479278564453,1.7169764041900635,-0.3798579275608063
-0.353434681892395,1.7001979351043701,-0.37863123416900635
-0.3422333002090454,1.7057322263717651,-0.3823678493499756
-0.323525071144104,1.6737886667251587,-0.3776324689388275
-0.31038644909858704,1.6679497957229614,-0.37845176458358765
-0.2973449230194092,1.6620105504989624,-0.37924766540527344
-0.29214009642601013,1.701033115386963,-0.39036089181900024
-0.27155888080596924,1.6498451232910156,-0.38073042035102844
-0.2462051510810852,1.5647239685058594,-0.36283162236213684
-0.23979005217552185,1.5960530042648315,-0.3718601167201996
-0.22861160337924957,1.5972126722335815,-0.3739147186279297
-0.21231158077716827,1.560595154762268,-0.36709949374198914
-0.19703346490859985,1.5276997089385986,-0.3607410192489624
-0.18729810416698456,1.5362035036087036,-0.36414462327957153
-0.17204129695892334,1.49933660030365,-0.35681065917015076
-0.16849692165851593,1.5643600225448608,-0.37374064326286316
-0.15188437700271606,1.5084683895111084,-0.3614812195301056
-0.13925114274024963,1.4864994287490845,-0.3572581708431244
-0.1262751966714859,1.4568685293197632,-0.3511735498905182
-0.11834130436182022,1.4877201318740845,-0.35970672965049744
-0.10963666439056396,1.5110009908676147,-0.36615628004074097
-0.09813397377729416,1.4963643550872803,-0.36334025859832764
-0.08771774172782898,1.4968030452728271,-0.36419570446014404
-0.07731088250875473,1.4971686601638794,-0.36505013704299927
-0.06637977808713913,1.4899425506591797,-0.3638259470462799
-0.05546557530760765,1.4750853776931763,-0.36058521270751953
-0.045912712812423706,1.4980775117874146,-0.3666168451309204
-0.024801602587103844,1.483215093612671,-0.3636437952518463
-0.014522098936140537,1.5060945749282837,-0.36931124329566956
-0.004004255868494511,1.4909628629684448,-0.36567503213882446
0.006237559486180544,1.460584044456482,-0.3583143651485443
0.01690925657749176,1.5060451030731201,-0.3694111406803131
0.026973767206072807,1.4832055568695068,-0.3635280728340149
0.03767506405711174,1.4982274770736694,-0.36694392561912537
0.04778256639838219,1.482829213142395,-0.3629230558872223
0.05868707597255707,1.4977295398712158,-0.36621689796447754
0.06945917010307312,1.505035638809204,-0.3673763871192932
0.0791277289390564,1.4895247220993042,-0.36298704147338867
0.09131638705730438,1.5194180011749268,-0.3696741759777069
0.10691773891448975,1.590893030166626,-0.3863655626773834
0.11323468387126923,1.526010274887085,-0.36964207887649536
0.1324724704027176,1.6314326524734497,-0.39416515827178955
0.1438402533531189,1.6307497024536133,-0.39300569891929626
0.1552066057920456,1.6299926042556763,-0.39181965589523315
0.16253787279129028,1.5876473188400269,-0.38027316331863403
0.1814754158258438,1.6586222648620605,-0.3958887457847595
