X,Y,Z
0.2062913328409195,2.240051746368408,-0.045961398631334305
0.2202228605747223,2.223029613494873,-0.045529868453741074
0.23423677682876587,2.205889940261841,-0.04509766027331352
0.2486749142408371,2.196450710296631,-0.044827092438936234
0.26345959305763245,2.1907951831817627,-0.0446363165974617
0.277538537979126,2.181185483932495,-0.04433324560523033
0.29150745272636414,2.1714847087860107,-0.04402819648385048
0.30563488602638245,2.161656141281128,-0.04372145235538483
0.31950005888938904,2.151757001876831,-0.04341714829206467
0.333262175321579,2.1417670249938965,-0.04311370477080345
0.3467724621295929,2.13171124458313,-0.042791012674570084
0.3587838411331177,2.113882541656494,-0.042302366346120834
0.36922600865364075,2.088294744491577,-0.04166264086961746
0.38395169377326965,2.0856411457061768,-0.04148053377866745
0.39624834060668945,2.071415662765503,-0.04107282683253288
0.40903109312057495,2.0609705448150635,-0.04073233902454376
0.4215690791606903,2.0504727363586426,-0.04037357121706009
0.4356078505516052,2.0475404262542725,-0.040166225284338
0.45335108041763306,2.0596883296966553,-0.040251608937978745
0.4685211777687073,2.06030011177063,-0.04011385515332222
0.4917086064815521,2.095031261444092,-0.04063449800014496
0.5115037560462952,2.114407777786255,-0.040831245481967926
0.5315859317779541,2.1336112022399902,-0.041022688150405884
0.5533035397529602,2.1563239097595215,-0.041274771094322205
0.5802540183067322,2.197741746902466,-0.041881974786520004
0.5913922786712646,2.1785924434661865,-0.041332460939884186
1.2784929275512695,4.586058139801025,-0.08656191825866699
1.3096424341201782,4.577270984649658,-0.08595458418130875
1.3371566534042358,4.553041458129883,-0.08505108207464218
1.3620260953903198,4.521206378936768,-0.08401497453451157
1.3910702466964722,4.504191875457764,-0.08325663208961487
1.4168353080749512,4.479783058166504,-0.08231106400489807
1.444777250289917,4.462652683258057,-0.08150485157966614
1.4734110832214355,4.445064544677734,-0.08068182319402695
1.5005041360855103,4.423634052276611,-0.07979683578014374
1.5233664512634277,4.39102840423584,-0.07870710641145706
1.277627944946289,3.603914499282837,-0.0641501322388649
1.299310326576233,3.587858200073242,-0.06341823190450668
1.5990068912506104,4.322471618652344,-0.07585813105106354
1.624050259590149,4.296440124511719,-0.07484369724988937
1.6562652587890625,4.292511463165283,-0.07421661168336868
1.6908200979232788,4.295825481414795,-0.0736989825963974
1.7080689668655396,4.255358695983887,-0.07243485003709793
1.7331165075302124,4.23257303237915,-0.07146309316158295
1.7630457878112793,4.220208168029785,-0.0706602931022644
1.7991632223129272,4.226183891296387,-0.07013174146413803
1.8134703636169434,4.181790828704834,-0.06876428425312042
1.8450669050216675,4.176501750946045,-0.06803672760725021
1.8708347082138062,4.1564717292785645,-0.06705938279628754
1.8931903839111328,4.129169940948486,-0.06594604253768921
1.9206677675247192,4.1164751052856445,-0.06505769491195679
1.9380689859390259,4.082398414611816,-0.06383635848760605
1.9732213020324707,4.082897663116455,-0.06313133984804153
1.98768949508667,4.041094779968262,-0.061775900423526764
2.014963150024414,4.027579307556152,-0.06082554906606674
2.0416970252990723,4.014107704162598,-0.05989089235663414
2.0657553672790527,3.9930002689361572,-0.05881871283054352
2.093451738357544,3.9785637855529785,-0.05784356966614723
2.1178383827209473,3.9612226486206055,-0.0568045936524868
2.1438956260681152,3.9471945762634277,-0.05581654980778694
2.171552896499634,3.932061195373535,-0.05476395785808563
2.1911027431488037,3.9033079147338867,-0.053533196449279785
2.216655969619751,3.8888678550720215,-0.05249083787202835
2.242210865020752,3.874204158782959,-0.051444511860609055
2.261146306991577,3.845082998275757,-0.05016489326953888
2.295663833618164,3.8428006172180176,-0.04921581596136093
2.3246684074401855,3.8344767093658447,-0.04819580167531967
2.342160701751709,3.805497407913208,-0.04689112305641174
2.3602306842803955,3.7759180068969727,-0.045555874705314636
2.3889191150665283,3.767101287841797,-0.0444612018764019
2.413785219192505,3.7512307167053223,-0.0432567372918129
2.4440579414367676,3.7409274578094482,-0.04206538572907448
2.460017681121826,3.711735725402832,-0.04065922647714615
2.488043785095215,3.70243763923645,-0.03947218880057335
2.509317636489868,3.6786141395568848,-0.03803662583231926
2.524916887283325,3.648954153060913,-0.03651854395866394
2.5527472496032715,3.639099359512329,-0.03520448878407478
2.582475185394287,3.627671957015991,-0.0337715819478035
2.5916104316711426,3.5923047065734863,-0.03214115649461746
2.6244587898254395,3.5877673625946045,-0.03071778453886509
2.1758549213409424,2.9333770275115967,-0.0239095576107502
2.5850517749786377,3.6162948608398438,0.02690937928855419
2.56581974029541,3.649071216583252,0.028476212173700333
2.5307581424713135,3.6544742584228516,0.029724979773163795
2.5082528591156006,3.6794052124023438,0.031087039038538933
2.4802799224853516,3.6983087062835693,0.03237735480070114
2.445884943008423,3.702422857284546,0.03344310447573662
2.417806625366211,3.720808982849121,0.034632086753845215
2.390068531036377,3.7386763095855713,0.035776540637016296
2.359797716140747,3.74861741065979,0.036783959716558456
2.3279054164886475,3.759309768676758,0.037784066051244736
2.2997004985809326,3.776618480682373,0.03884177282452583
2.2809345722198486,3.8061983585357666,0.03998304158449173
2.253457546234131,3.8225197792053223,0.040954865515232086
2.2288424968719482,3.8459463119506836,0.041983798146247864
2.20526123046875,3.8685009479522705,0.042974233627319336
2.1744730472564697,3.876925468444824,0.04379258677363396
2.149092674255371,3.899963855743408,0.044782742857933044
2.12394118309021,3.922593832015991,0.045759715139865875
2.103928804397583,3.951064109802246,0.04676944762468338
2.0796618461608887,3.972700595855713,0.047697219997644424
2.0503997802734375,3.98787260055542,0.048520058393478394
2.0260205268859863,4.013433933258057,0.04947987198829651
2.0049901008605957,4.0414204597473145,0.050435349345207214
1.9970755577087402,4.0975341796875,0.05174209177494049
1.985616683959961,4.15077018737793,0.052991412580013275
1.9652494192123413,4.186347007751465,0.05402522534132004
1.9524375200271606,4.235376834869385,0.055216144770383835
1.9368833303451538,4.281116962432861,0.05638446286320686
1.9120557308197021,4.309351921081543,0.0572754368185997
1.8869199752807617,4.337450981140137,0.058171067386865616
1.8624365329742432,4.365002632141113,0.05904992297291756
1.8350220918655396,4.385058403015137,0.05982653424143791
1.813513994216919,4.423552513122559,0.060843534767627716
1.7785464525222778,4.429300785064697,0.06139003485441208
1.755279541015625,4.463756084442139,0.062335412949323654
1.721368432044983,4.468563556671143,0.06285704672336578
1.692959189414978,4.48774528503418,0.06358277052640915
1.3260912895202637,3.5949015617370605,0.05127309262752533
1.302812099456787,3.6117019653320312,0.051849115639925
1.2746533155441284,3.6134467124938965,0.05220531299710274
1.5819486379623413,4.58591890335083,0.06666954606771469
1.5472753047943115,4.589482307434082,0.0671197921037674
1.518676996231079,4.615467548370361,0.06786111742258072
1.4867656230926514,4.629940509796143,0.06843210011720657
1.4588762521743774,4.655171871185303,0.06915996968746185
1.4356003999710083,4.695079326629639,0.07010912895202637
1.4003260135650635,4.6975626945495605,0.07048655301332474
1.3667449951171875,4.707435607910156,0.07094420492649078
1.332503318786621,4.717235088348389,0.07140988111495972
1.3097293376922607,4.764122009277344,0.07243208587169647
1.2835936546325684,4.799530506134033,0.07328511774539948
0.5601234436035156,2.1547043323516846,0.033033885061740875
0.5323392152786255,2.1094043254852295,0.032450783997774124
0.5040552616119385,2.060086250305176,0.03180394321680069
0.47783902287483215,2.014172315597534,0.031202489510178566
0.4638145864009857,2.0174455642700195,0.03136079013347626
0.451432466506958,2.0282533168792725,0.031635381281375885
0.4436299800872803,2.0619444847106934,0.03224975988268852
0.4176127016544342,2.0115528106689453,0.031551387161016464
1.002444863319397,5.005468845367432,0.0787324383854866
0.39088186621665955,2.024869680404663,0.03193947300314903
0.3739241361618042,2.012179136276245,0.031829752027988434
0.36796703934669495,2.0609030723571777,0.03267218917608261
0.8900863528251648,5.201084136962891,0.08263041079044342
1.8063912391662598,11.023472785949707,0.1755058914422989
1.7054877281188965,10.881414413452148,0.17361530661582947
1.6078041791915894,10.746217727661133,0.17183224856853485
1.5154484510421753,10.637334823608398,0.17040790617465973
1.421425461769104,10.516311645507812,0.1687173843383789
1.328031063079834,10.374958992004395,0.16669803857803345
1.239532709121704,10.252145767211914,0.16497625410556793
0.8147551417350769,7.155968189239502,0.11533280462026596
0.5803771615028381,5.433229923248291,0.08770798146724701
0.7058286666870117,7.077252388000488,0.11434545367956161
0.6552783846855164,7.082108497619629,0.11452767252922058
0.36448225378990173,4.265148162841797,0.06903817504644394
0.3324010968208313,4.236425399780273,0.06864015758037567
0.30296432971954346,4.238630294799805,0.06874606758356094
0.2744443118572235,4.256226539611816,0.06907987594604492
0.24707674980163574,4.308761119842529,0.06995467841625214
0.21442200243473053,4.259670734405518,0.06918256729841232
0.18216785788536072,4.202530860900879,0.0682823657989502
0.15122804045677185,4.156857490539551,0.06757098436355591
0.12162157148122787,4.1343841552734375,0.0672394409775734
0.09245353937149048,4.1429524421691895,0.06736405193805695
0.06255082041025162,4.077106475830078,0.06627640873193741
0.015690302476286888,1.87468683719635,0.030468102544546127
0.002923143096268177,2.062225580215454,0.0335107296705246
-0.02139972895383835,3.8666181564331055,0.0628247782588005
-0.04886192828416824,3.874181032180786,0.06292907148599625
-0.0757751315832138,3.873748540878296,0.06287644058465958
-0.10175308585166931,3.8379905223846436,0.06225383281707764
-0.12632344663143158,3.77473521232605,0.06118924170732498
-0.1522284299135208,3.7659618854522705,0.06101148575544357
-0.17712977528572083,3.7375030517578125,0.060518018901348114
-0.1956252157688141,3.5918638706207275,0.05809228867292404
-0.21595583856105804,3.5163543224334717,0.05679447203874588
-0.24294152855873108,3.5537445545196533,0.05732377618551254
-0.2720615863800049,3.6103906631469727,0.05816403403878212
-0.2952492833137512,3.585056781768799,0.05768565833568573
-0.3192118704319,3.567318916320801,0.05732494592666626
-0.3460792601108551,3.5883591175079346,0.05755515769124031
-0.3684651553630829,3.562573194503784,0.05703688785433769
-0.39651253819465637,3.591000556945801,0.05738908797502518
-0.42146462202072144,3.5881600379943848,0.05724289268255234
-0.4439123272895813,3.5618395805358887,0.05672392249107361
-0.45422595739364624,3.450265884399414,0.05482836440205574
-0.47151055932044983,3.4006378650665283,0.053908832371234894
-0.4875710904598236,3.347072124481201,0.05293312296271324
-0.5012737512588501,3.2818470001220703,0.051779039204120636
-0.5201103687286377,3.251232147216797,0.05117436498403549
-0.5413227081298828,3.2398507595062256,0.050873324275016785
-0.5567684769630432,3.197597026824951,0.050054676830768585
-0.5758397579193115,3.178344964981079,0.049601029604673386
-0.5962082147598267,3.1666419506073,0.04926800727844238
-0.6159605383872986,3.15092396736145,0.04887394607067108
-0.6335769295692444,3.1235241889953613,0.0483001172542572
-0.6919447779655457,3.294933319091797,0.05077856034040451
-0.7161263823509216,3.297760009765625,0.05064230412244797
-0.7369288802146912,3.285172700881958,0.05027193948626518
-0.7799268364906311,3.3675129413604736,0.05134989693760872
-0.8455291986465454,3.5366532802581787,0.053735557943582535
-0.6746076345443726,2.738128662109375,0.04144494980573654
-0.7037938237190247,2.7751224040985107,0.04182134568691254
-0.7157680988311768,2.7438151836395264,0.04116935655474663
-0.734628438949585,2.7388298511505127,0.04091406986117363
-0.7560501098632812,2.7411019802093506,0.040763724595308304
-0.7750207185745239,2.73580265045166,0.04050334915518761
-0.7946568727493286,2.7342357635498047,0.04027855768799782
-0.9314060807228088,3.1255710124969482,0.04581446200609207
-0.9596047401428223,3.1415457725524902,0.045817628502845764
-0.9794501066207886,3.1272354125976562,0.04537249356508255
-1.0608352422714233,3.3063108921051025,0.04772602394223213
-1.0916996002197266,3.3250436782836914,0.04771735891699791
-1.1165976524353027,3.325012683868408,0.04743797704577446
-1.162042260169983,3.383833885192871,0.047991715371608734
-1.1868665218353271,3.3793528079986572,0.04763752594590187
-1.2292547225952148,3.4223320484161377,0.04794490709900856
-2.0594072341918945,5.614155292510986,0.07813739031553268
-2.088956832885742,5.578219890594482,0.07712765038013458
-2.117135524749756,5.538334369659424,0.0760655552148819
-2.144178867340088,5.494401454925537,0.07494661211967468
-2.185622215270996,5.486466884613037,0.07430686801671982
-2.078244924545288,5.117082118988037,0.06876179575920105
-2.2902143001556396,5.532539367675781,0.07375846058130264
-2.3569164276123047,5.585104942321777,0.07385346293449402
-2.389617443084717,5.554198741912842,0.07283174991607666
-2.417252540588379,5.512396335601807,0.07164929807186127
-2.4747724533081055,5.542481422424316,0.07139412313699722
-2.5247201919555664,5.554261684417725,0.07089761644601822
-2.5500903129577637,5.508255958557129,0.0696423202753067
-2.5699055194854736,5.451587200164795,0.06826446205377579
-2.615143060684204,5.451711177825928,0.06756702810525894
-2.6323914527893066,5.39564847946167,0.06618870794773102
-2.2818405628204346,4.597374439239502,0.05579642578959465
-2.5408987998962402,5.0311808586120605,0.06038985773921013
-2.089401960372925,4.068850517272949,0.04828035086393356
-2.074664354324341,3.9753258228302,0.046614982187747955
-2.1018686294555664,3.9610178470611572,0.04587067291140556
-2.121994733810425,3.9325366020202637,0.04495707154273987
-2.1259706020355225,3.8770241737365723,0.043729446828365326
-2.158987522125244,3.8766376972198486,0.0431152768433094
-2.16959547996521,3.8348569869995117,0.04203080013394356
-2.1947433948516846,3.816023826599121,0.041171394288539886
-1.2214032411575317,2.091210126876831,0.022204816341400146
-2.2329859733581543,3.7665693759918213,0.03934383764863014
-2.2383484840393066,3.7178735733032227,0.03816375508904457
-1.2634674310684204,2.066082239151001,0.02082514762878418
-2.3007113933563232,3.7072367668151855,0.036649417132139206
-2.2997782230377197,3.6525514125823975,0.03540375083684921
-2.346132755279541,3.6694083213806152,0.03480531647801399
-2.3747382164001465,3.660285234451294,0.033948611468076706
-2.402435302734375,3.651529550552368,0.033089738339185715
-2.4104063510894775,3.6087629795074463,0.031862422823905945
-2.4389572143554688,3.5989785194396973,0.030936745926737785
-2.4661622047424316,3.589881658554077,0.03001983091235161
-2.4302000999450684,3.4865212440490723,0.028275996446609497
-2.448768138885498,3.4639499187469482,0.027185756713151932
-2.6414220333099365,3.6864280700683594,0.02793283574283123
-2.6853251457214355,3.6932873725891113,0.026885218918323517
-2.64603853225708,3.591352939605713,0.02507944032549858
-2.7581465244293213,3.8623344898223877,-0.02014254219830036
-2.4501845836639404,3.482125759124756,-0.019062230363488197
-2.452440023422241,3.5424718856811523,-0.02030930668115616
-2.609222173690796,3.8281052112579346,-0.02287343144416809
-2.54919171333313,3.7979660034179688,-0.02355463244020939
-2.548274278640747,3.8595733642578125,-0.02478126250207424
-2.5161495208740234,3.8712728023529053,-0.025653904303908348
-2.4649651050567627,3.8531458377838135,-0.02629290148615837
-2.4275074005126953,3.8584001064300537,-0.027080053463578224
-2.4311301708221436,3.925204277038574,-0.028257232159376144
-1.2564406394958496,2.061267375946045,-0.01519964449107647
-2.3650612831115723,3.947147846221924,-0.029788054525852203
-1.214024305343628,2.0593643188476562,-0.01587420515716076
-1.2271087169647217,2.115060567855835,-0.016634324565529823
-2.2989654541015625,4.0310187339782715,-0.03230997174978256
-2.2807650566101074,4.0682291984558105,-0.03321237489581108
-2.2613654136657715,4.101355075836182,-0.034066420048475266
-2.235785961151123,4.12423849105835,-0.03481857478618622
-2.2090864181518555,4.147448539733887,-0.03556060045957565
-2.190122365951538,4.183959484100342,-0.03640948235988617
-2.164517402648926,4.206045150756836,-0.03712192922830582
-2.137213706970215,4.228734493255615,-0.03783678263425827
-2.121809959411621,4.275760173797607,-0.03875887021422386
-2.0913567543029785,4.290732383728027,-0.03938141092658043
-2.0715670585632324,4.326314926147461,-0.04018714278936386
-2.0405187606811523,4.341040134429932,-0.04078212007880211
-1.9990869760513306,4.334473609924316,-0.04116472601890564
-1.9627543687820435,4.33818244934082,-0.041642915457487106
-1.9167085886001587,4.316011905670166,-0.041851479560136795
-1.892322063446045,4.343802452087402,-0.042526062577962875
-1.8608591556549072,4.357368469238281,-0.04304180666804314
-1.8355021476745605,4.385047912597656,-0.04369840398430824
-1.8044281005859375,4.397921085357666,-0.044204697012901306
-1.783888578414917,4.435771942138672,-0.04495830088853836
-1.751852035522461,4.448516368865967,-0.0454416386783123
-1.7310007810592651,4.49017333984375,-0.046224597841501236
-1.7076493501663208,4.524159908294678,-0.04692654311656952
-1.6809773445129395,4.550792217254639,-0.047559820115566254
-1.6553877592086792,4.580930709838867,-0.04820336401462555
-1.6302578449249268,4.614792346954346,-0.04887089505791664
-1.6048425436019897,4.6484880447387695,-0.04954107478260994
-1.5749293565750122,4.666949272155762,-0.05004493147134781
-1.544290542602539,4.685398578643799,-0.05055726692080498
-1.7357683181762695,5.395326614379883,-0.05854079872369766
-0.9719592332839966,3.0969789028167725,-0.03378601372241974
-0.9568247199058533,3.1262030601501465,-0.03428884223103523
-0.921674370765686,3.0878586769104004,-0.03404717892408371
-0.7998353838920593,2.7491297721862793,-0.03047218918800354
-0.7703434824943542,2.7210190296173096,-0.03029382787644863
-0.7530378699302673,2.7339608669281006,-0.03057030960917473
-0.7357558012008667,2.746748208999634,-0.030846185982227325
-0.7146111726760864,2.744251251220703,-0.030950436368584633
-0.7021715044975281,2.775670289993286,-0.03143869712948799
-1.099833607673645,4.483992576599121,-0.05096794292330742
-1.0678852796554565,4.491705417633057,-0.05123468488454819
-0.7135964632034302,3.0983760356903076,-0.0354652963578701
-0.6988232135772705,3.133762836456299,-0.03599514439702034
-0.6827964782714844,3.1652681827545166,-0.036484282463788986
-0.6552674770355225,3.1471450328826904,-0.036380477249622345
-0.6345130801200867,3.1593613624572754,-0.036626044660806656
-0.6137340664863586,3.171419143676758,-0.036871567368507385
-0.794863224029541,4.266140937805176,-0.049741461873054504
-0.7507278919219971,4.190820217132568,-0.04900515079498291
-0.5607011318206787,3.264476776123047,-0.03826187178492546
-0.5402083992958069,3.2837636470794678,-0.03857053816318512
-0.5182577967643738,3.295206308364868,-0.03878956288099289
-0.5040180087089539,3.35667085647583,-0.039599910378456116
-0.48510730266571045,3.391023635864258,-0.04009450599551201
-0.46410781145095825,3.417612314224243,-0.040484216064214706
-0.4420497417449951,3.4362876415252686,-0.04076583683490753
-0.4211651384830475,3.4664533138275146,-0.04118654876947403
-0.39874178171157837,3.4848291873931885,-0.04146948084235191
-0.37945088744163513,3.534125804901123,-0.042123474180698395
-0.35402852296829224,3.5289108753204346,-0.042122386395931244
-0.3310135006904602,3.5546810626983643,-0.042461980134248734
-0.31043094396591187,3.6075050830841064,-0.04312698170542717
-0.2882695496082306,3.6485257148742676,-0.04365375638008118
-0.25474652647972107,3.537461042404175,-0.04236200451850891
-0.22712457180023193,3.4923720359802246,-0.041860613971948624
-0.2045501470565796,3.5328922271728516,-0.04235906898975372
-0.19020110368728638,3.7370822429656982,-0.04481660574674606
-0.16629356145858765,3.789048910140991,-0.045451484620571136
-0.1411294788122177,3.821338653564453,-0.045852724462747574
-0.11587600409984589,3.865172863006592,-0.04639498516917229
-0.0890684425830841,3.889324903488159,-0.04668618366122246
-0.0629347562789917,3.9484329223632812,-0.047375354915857315
-0.03594763204455376,4.003457069396973,-0.048017263412475586
-0.008174051530659199,4.046576023101807,-0.04851829260587692
0.020062871277332306,4.062158584594727,-0.0486912839114666
0.027023544535040855,2.24967622756958,-0.026959411799907684
0.04480750486254692,2.362687110900879,-0.028285948559641838
0.06062149628996849,2.33889102935791,-0.02797490544617176
0.07739030569791794,2.3540289402008057,-0.028130991384387016
0.08986372500658035,2.2558627128601074,-0.02693524956703186
0.10864552110433578,2.3215129375457764,-0.027697144076228142
0.12461020797491074,2.3128879070281982,-0.027561640366911888
0.13967467844486237,2.296375274658203,-0.027325289323925972
0.15557296574115753,2.295353412628174,-0.027274852618575096
0.1700512021780014,2.27474308013916,-0.026993172243237495
0.1851840764284134,2.265723705291748,-0.026850823312997818
0.2004833221435547,2.2565793991088867,-0.02670465037226677
0.2130625694990158,2.2240383625030518,-0.026264717802405357
0.22839701175689697,2.2225165367126465,-0.026193125173449516
0.24203689396381378,2.2053563594818115,-0.025938767939805984
0.2560063898563385,2.1919820308685303,-0.025730473920702934
0.27150866389274597,2.1901166439056396,-0.025657933205366135
0.2856065034866333,2.180445432662964,-0.025482121855020523
0.30061429738998413,2.1784281730651855,-0.025392331182956696
0.31336548924446106,2.1608452796936035,-0.02512276917695999
0.3271830379962921,2.150895833969116,-0.024943333119153976
0.3423851430416107,2.148529529571533,-0.024852106347680092
0.35467013716697693,2.130699396133423,-0.02457711473107338
0.3679652512073517,2.120516777038574,-0.024380426853895187
0.3783411383628845,2.0948801040649414,-0.024008454754948616
0.39136049151420593,2.084540367126465,-0.02381354570388794
0.4021078646183014,2.062601089477539,-0.023487746715545654
0.4166616201400757,2.059711456298828,-0.0233775544911623
0.43233340978622437,2.064462661743164,-0.023339901119470596
0.44314759969711304,2.0461862087249756,-0.02304321527481079
0.4606107175350189,2.0583410263061523,-0.023089967668056488
0.4775502681732178,2.066506862640381,-0.023090848699212074
0.5030068755149841,2.108677864074707,-0.023468904197216034
0.5136804580688477,2.0900192260742188,-0.023160556331276894
0.5441927909851074,2.1508469581604004,-0.023730501532554626
0.570676326751709,2.1924426555633545,-0.024083781987428665
0.5879471302032471,2.1959643363952637,-0.024015367031097412
1.2598693370819092,4.575549125671387,-0.049813345074653625
1.2890238761901855,4.559308052062988,-0.0493873693048954
1.3178459405899048,4.542930603027344,-0.04895372688770294
1.350999116897583,4.541337013244629,-0.04868132993578911
1.3779420852661133,4.516906261444092,-0.04816201329231262
1.4098583459854126,4.507050037384033,-0.047796525061130524
1.4357935190200806,4.482455253601074,-0.04725806042551994
1.461219072341919,4.457796096801758,-0.046715036034584045
1.4914565086364746,4.447774887084961,-0.04632744938135147
1.5109273195266724,4.404053211212158,-0.04558652266860008
1.263432264328003,3.6010172367095947,-0.03704177960753441
1.2882331609725952,3.5922229290008545,-0.036695655435323715
1.3178097009658813,3.598125696182251,-0.03650054708123207
1.611803412437439,4.309823989868164,-0.0434122160077095
1.6417540311813354,4.298508167266846,-0.04298444464802742
1.6772356033325195,4.301567077636719,-0.042699702084064484
1.697943091392517,4.2682271003723145,-0.042026128619909286
1.7266141176223755,4.2567138671875,-0.04157669097185135
1.752791404724121,4.237553596496582,-0.04104835167527199
1.7822235822677612,4.225263595581055,-0.04058438912034035
1.8095216751098633,4.20939826965332,-0.040081869810819626
1.838160753250122,4.1969757080078125,-0.039600055664777756
1.8630868196487427,4.177422046661377,-0.03905906900763512
1.8888767957687378,4.157249927520752,-0.038502003997564316
1.9111547470092773,4.129850387573242,-0.037882000207901
1.9319719076156616,4.102894306182861,-0.03724930062890053
1.9597418308258057,4.089707374572754,-0.03673788532614708
1.9911425113677979,4.08320951461792,-0.03628336265683174
2.009040594100952,4.048290252685547,-0.03557392954826355
2.0290775299072266,4.020795822143555,-0.034927431493997574
2.0663206577301025,4.028146743774414,-0.03458165377378464
2.086357593536377,4.0001959800720215,-0.033923350274562836
2.1109023094177246,3.9784610271453857,-0.03330400958657265
2.1319851875305176,3.953899621963501,-0.03265363723039627
2.1598105430603027,3.943227767944336,-0.032110877335071564
2.1769657135009766,3.9114508628845215,-0.03138565272092819
2.204120397567749,3.8962180614471436,-0.030783990398049355
2.2343268394470215,3.8879928588867188,-0.03023078292608261
2.2479279041290283,3.853039503097534,-0.02948174998164177
2.278256893157959,3.844273090362549,-0.028913889080286026
2.300732135772705,3.8217532634735107,-0.028236065059900284
2.329578161239624,3.813401222229004,-0.02765783667564392
2.355087995529175,3.7977044582366943,-0.027010034769773483
2.377246856689453,3.774648427963257,-0.02629271149635315
2.397952079772949,3.752264976501465,-0.025584954768419266
2.42631196975708,3.74330735206604,-0.024970775470137596
2.452003240585327,3.726533889770508,-0.024266710504889488
2.4773151874542236,3.7097599506378174,-0.023542918264865875
2.4921531677246094,3.6809589862823486,-0.022751154378056526
2.5261099338531494,3.6767165660858154,-0.022067660465836525
2.537061929702759,3.640641927719116,-0.02118881605565548
2.564481019973755,3.630953073501587,-0.02047157473862171
2.585491180419922,3.6064186096191406,-0.019592758268117905
2.599233388900757,3.577235698699951,-0.01869332604110241
2.191619396209717,2.975217342376709,-0.014892706647515297
2.576470375061035,3.632075548171997,0.01225929893553257
2.5483791828155518,3.6518375873565674,0.012964515946805477
2.5130808353424072,3.657273292541504,0.013574179261922836
2.499157667160034,3.6951279640197754,0.014290395192801952
2.4751572608947754,3.7206318378448486,0.014947806484997272
2.449232816696167,3.737746000289917,0.015522739849984646
2.4218192100524902,3.755563735961914,0.01608971133828163
2.3976614475250244,3.780284881591797,0.01667901873588562
2.374905824661255,3.803832769393921,0.017238149419426918
2.3390300273895264,3.8076698780059814,0.017694689333438873
2.3184404373168945,3.8385047912597656,0.018273737281560898
2.291351318359375,3.854734182357788,0.018758591264486313
2.2641115188598633,3.8707945346832275,0.019234612584114075
2.2309186458587646,3.8810088634490967,0.019677206873893738
2.210458755493164,3.910653591156006,0.0202037263661623
2.175562858581543,3.9123032093048096,0.020572682842612267
2.139660596847534,3.9142532348632812,0.02092684991657734
2.114360809326172,3.936844825744629,0.021385058760643005
2.096893072128296,3.9726951122283936,0.0219100434333086
2.0656349658966064,3.9802355766296387,0.022269604727625847
2.036585807800293,3.9951751232147217,0.02265225537121296
2.010756254196167,4.016973495483398,0.023073140531778336
1.982430100440979,4.0310258865356445,0.02343958616256714
1.9538310766220093,4.044963359832764,0.023808281868696213
1.9294129610061646,4.069637298583984,0.024218609556555748
1.9029632806777954,4.090688228607178,0.024607067927718163
1.88375985622406,4.1253437995910645,0.025071991607546806
1.8518178462982178,4.131218910217285,0.025360286235809326
1.8222171068191528,4.144358158111572,0.02568335458636284
1.8039435148239136,4.186391830444336,0.026187103241682053
1.7709438800811768,4.191976547241211,0.02645772323012352
1.7477519512176514,4.21861457824707,0.0268564373254776
1.7210466861724854,4.238010883331299,0.027205010876059532
1.6976324319839478,4.268467903137207,0.0276079922914505
1.6718895435333252,4.295385837554932,0.027994904667139053
1.6501774787902832,4.328863143920898,0.028417348861694336
1.6378188133239746,4.387796401977539,0.029010355472564697
1.3144944906234741,3.5994436740875244,0.02395026385784149
1.2859776020050049,3.6014342308044434,0.024107567965984344
1.2571957111358643,3.6033079624176025,0.024266451597213745
1.5536086559295654,4.554723739624023,0.030851857736706734
1.5292640924453735,4.587664604187012,0.03125481307506561
1.4988300800323486,4.605912208557129,0.0315471775829792
1.478729248046875,4.657505035400391,0.032070279121398926
1.4450533390045166,4.668061256408691,0.03231499344110489
1.4170384407043457,4.69296407699585,0.032654955983161926
1.3887327909469604,4.717705726623535,0.032995957881212234
1.357210397720337,4.734997272491455,0.03325695917010307
1.3212714195251465,4.737039566040039,0.03341272845864296
0.5932281613349915,2.186526298522949,0.015487900003790855
0.5697702765464783,2.1604530811309814,0.015368180349469185
0.5489174723625183,2.141658306121826,0.015298258513212204
0.5251882672309875,2.111391067504883,0.015129533596336842
0.502845287322998,2.084690809249878,0.014985243789851665
0.486317902803421,2.0805857181549072,0.015003022737801075
0.46382009983062744,2.049686908721924,0.014827444218099117
0.4512336254119873,2.0604920387268066,0.01495281420648098
0.4334331750869751,2.0483412742614746,0.01490040123462677
0.42205050587654114,2.0666663646698,0.015067693777382374
0.4081666171550751,2.0734338760375977,0.015151796862483025
0.3949160575866699,2.0839500427246094,0.015264292247593403
0.3804076910018921,2.086646795272827,0.015319738537073135
0.3610469102859497,2.0623297691345215,0.015171856619417667
0.3477497398853302,2.0725350379943848,0.01527413260191679
0.333107590675354,2.0749385356903076,0.015319733880460262
0.32249316573143005,2.104280710220337,0.015565565787255764
0.30558615922927856,2.091012716293335,0.015496508218348026
0.2920739948749542,2.100830316543579,0.015596585348248482
0.28034767508506775,2.1260690689086914,0.01580175571143627
0.2653801441192627,2.1279890537261963,0.015834588557481766
0.2541100084781647,2.1608316898345947,0.016098503023386
0.23881617188453674,2.1625750064849854,0.016131995245814323
0.22897998988628387,2.214695453643799,0.01654222421348095
0.21273291110992432,2.2084665298461914,0.016505377367138863
0.1913261115550995,2.143763303756714,0.01602845825254917
0.34747564792633057,4.227814674377441,0.03162510693073273
0.3175128102302551,4.230169773101807,0.031659096479415894
0.2912864089012146,4.279040336608887,0.03204263374209404
0.260062575340271,4.257570266723633,0.031892839819192886
0.2290419489145279,4.235881328582764,0.031723011285066605
0.19778622686862946,4.202261924743652,0.031465474516153336
0.1708947718143463,4.2777180671691895,0.03202611953020096
0.13549886643886566,4.107025623321533,0.030745606869459152
0.1063077449798584,4.084439754486084,0.03057543747127056
0.07799424976110458,4.092892646789551,0.030625343322753906
0.04893507808446884,4.046465873718262,0.030262259766459465
0.02008199132978916,4.011556625366211,0.02998684160411358
-0.007774136494845152,3.9569132328033447,0.02956591174006462
-0.03507382050156593,3.9294214248657227,0.02934955433011055
-0.06179618835449219,3.8900258541107178,0.029039353132247925
-0.08749831467866898,3.830925941467285,0.0285633597522974
-0.11459223181009293,3.8458425998687744,0.02864101156592369
-0.1424889713525772,3.864454507827759,0.02874673716723919
-0.1681518405675888,3.8360543251037598,0.028504744172096252
-0.19438080489635468,3.8269927501678467,0.028408145532011986
-0.20446203649044037,3.540879964828491,0.026244686916470528
-0.22792381048202515,3.523790121078491,0.02607397548854351
-0.2580617368221283,3.596123456954956,0.026564637199044228
-0.28945544362068176,3.6760220527648926,0.02711125835776329
-0.3086244761943817,3.5999789237976074,0.02650897391140461
-0.33216461539268494,3.5821926593780518,0.026334242895245552
-0.3541542887687683,3.5526084899902344,0.026056600734591484
-0.37076371908187866,3.4723570346832275,0.025409378111362457
-0.3916494846343994,3.4425456523895264,0.025135116651654243
-0.4137096107006073,3.424226999282837,0.024946285411715508
-0.43454301357269287,3.398020029067993,0.024701803922653198
-0.45329639315605164,3.3600990772247314,0.024364972487092018
-0.4691273272037506,3.3027000427246094,0.023884106427431107
-0.4964176416397095,3.3303067684173584,0.024020809680223465
-0.5110721588134766,3.272752046585083,0.02354423701763153
-0.532536506652832,3.261413335800171,0.023402351886034012
-0.5465801358222961,3.2075893878936768,0.022953348234295845
-0.5610392689704895,3.1614625453948975,0.02254747413098812
-0.5922932028770447,3.2074098587036133,0.022797828540205956
-0.6055184006690979,3.1572248935699463,0.022366883233189583
-0.6190752387046814,3.1107962131500244,0.021964896470308304
-0.7968880534172058,3.8638997077941895,0.02719288505613804
-0.8103001117706299,3.7972278594970703,0.026618337258696556
-0.8290677666664124,3.7571821212768555,0.026229338720440865
-0.8512493968009949,3.7361960411071777,0.025977764278650284
-0.8682935833930969,3.692157030105591,0.025566687807440758
-0.892098069190979,3.678440570831299,0.025368252769112587
-0.6892310380935669,2.758897542953491,0.018941858783364296
-0.7044604420661926,2.7389190196990967,0.018713312223553658
-0.7250974774360657,2.741610527038574,0.018642447888851166
-0.7399253845214844,2.7214579582214355,0.018416088074445724
-0.7661424875259399,2.742595672607422,0.01846930757164955
-0.7892939448356628,2.752281904220581,0.018440568819642067
-0.8291917443275452,2.817976951599121,0.018774915486574173
-0.9441256523132324,3.1301803588867188,0.02074003405869007
-0.9656462073326111,3.123610019683838,0.02058035135269165
-1.860306978225708,5.8724188804626465,0.038471341133117676
-1.9032471179962158,5.86685848236084,0.03821033611893654
-1.925145149230957,5.798006057739258,0.03752110153436661
-1.8889849185943604,5.562920093536377,0.03577335923910141
-1.1711593866348267,3.372692108154297,0.021549737080931664
-1.2037092447280884,3.3902437686920166,0.02152100019156933
-2.0502750873565674,5.651182651519775,0.035632435232400894
-2.0746400356292725,5.600648403167725,0.03506110981106758
-2.1004867553710938,5.553438186645508,0.034510720521211624
-2.133047103881836,5.524269104003906,0.03407473489642143
-2.1212656497955322,5.382116794586182,0.03294762223958969
-2.0078649520874023,4.9942193031311035,0.030333586037158966
-2.0382943153381348,4.973437786102295,0.02996223233640194
-2.3055977821350098,5.518074035644531,0.03296622633934021
-2.3684279918670654,5.559401035308838,0.032928332686424255
-2.385221481323242,5.492648601531982,0.03225181996822357
-2.4347054958343506,5.505082607269287,0.0320357121527195
-1.895674705505371,4.210017681121826,0.024277232587337494
-1.9182407855987549,4.1826019287109375,0.023890400305390358
-1.935654640197754,4.14441442489624,0.023444566875696182
-1.9672479629516602,4.13816499710083,0.02317880652844906
-1.9844759702682495,4.103914737701416,0.02275439165532589
-2.008291006088257,4.083610534667969,0.02240939810872078
-2.023179054260254,4.041339874267578,0.021931979805231094
-2.044024705886841,4.013311862945557,0.021537544205784798
-2.066929817199707,3.992769956588745,0.0211716927587986
-2.080559492111206,3.9548161029815674,0.020716436207294464
-2.096813917160034,3.919663906097412,0.020268036052584648
-2.1277031898498535,3.911879539489746,0.019961614161729813
-2.1386947631835938,3.8702173233032227,0.019475920125842094
-2.16789174079895,3.8629016876220703,0.019170206040143967
-2.1868340969085693,3.8342342376708984,0.018745431676506996
-1.206459403038025,2.081920623779297,0.010023895651102066
-1.2279267311096191,2.0874807834625244,0.009895802475512028
-2.279494047164917,3.8163325786590576,0.0177986491471529
-1.2441620826721191,2.0504815578460693,0.009399212896823883
-1.253769874572754,2.035451889038086,0.009165186434984207
-2.3909924030303955,3.82602596282959,0.016912899911403656
-2.4336180686950684,3.8361167907714844,0.01662478968501091
-2.456162214279175,3.8124332427978516,0.016176430508494377
-2.4720194339752197,3.7835216522216797,0.01571996696293354
-2.473233461380005,3.7312862873077393,0.015161504037678242
-2.414048910140991,3.5876224040985107,0.014230252243578434
-2.445687770843506,3.5850608348846436,0.013860552571713924
-2.4361863136291504,3.520500421524048,0.013236899860203266
-2.442518949508667,3.4779937267303467,0.012688849121332169
-2.5820841789245605,3.628084659576416,0.012830192223191261
-2.773014545440674,3.842073440551758,0.013128053396940231
-2.6784238815307617,3.6597189903259277,0.012047885917127132
-2.656857490539551,3.5834262371063232,0.011345733888447285
-2.462519645690918,3.4734621047973633,-0.0048783221282064915
-2.432663917541504,3.4849131107330322,-0.00520023237913847
-2.465818166732788,3.5902388095855713,-0.005665434990078211
-2.4315507411956787,3.594686508178711,-0.005957530811429024
-2.47583270072937,3.7202064990997314,-0.006434792652726173
-2.4847917556762695,3.7938642501831055,-0.006822402589023113
-2.4667747020721436,3.824209690093994,-0.007123197894543409
-2.4462478160858154,3.855889320373535,-0.007409647107124329
-2.4134578704833984,3.86729097366333,-0.007654197979718447
-1.2515548467636108,2.0368311405181885,-0.004140382166951895
-1.248559594154358,2.0661020278930664,-0.004307609051465988
-2.3468587398529053,3.9490151405334473,-0.008435036987066269
-1.2227747440338135,2.0905213356018066,-0.004565507639199495
-2.2901980876922607,3.9821417331695557,-0.0088845519348979
-2.2548511028289795,3.9888057708740234,-0.009079149924218655
-2.218899965286255,3.9910478591918945,-0.009255453944206238
-2.183572769165039,3.9926846027374268,-0.009426386095583439
-2.143049955368042,3.987992763519287,-0.009578727185726166
-2.109445571899414,3.997037172317505,-0.009766053408384323
-2.0851619243621826,4.018561840057373,-0.009972595609724522
-2.0569305419921875,4.033085346221924,-0.010159810073673725
-2.037825584411621,4.069001197814941,-0.010388415306806564
-2.011498212814331,4.090787410736084,-0.01058204285800457
-1.9892473220825195,4.119011402130127,-0.010789490304887295
-1.9653691053390503,4.143431663513184,-0.01098423358052969
-1.9384205341339111,4.1647257804870605,-0.01116231270134449
-1.9145108461380005,4.192953109741211,-0.011360187083482742
-1.8947917222976685,4.227597713470459,-0.011571858078241348
-1.877923607826233,4.269278526306152,-0.01180435623973608
-1.8542230129241943,4.300902366638184,-0.011997801251709461
-1.8260700702667236,4.321413516998291,-0.012158217839896679
-1.8014906644821167,4.348634243011475,-0.012336070649325848
-1.785952091217041,4.397229194641113,-0.012574637308716774
-1.7706788778305054,4.449680328369141,-0.01282455399632454
-1.7550188302993774,4.506221294403076,-0.013088654726743698
-2.112241506576538,5.540700912475586,-0.016215262934565544
-2.07641863822937,5.562563896179199,-0.01639789342880249
-2.055140495300293,5.624556064605713,-0.016700781881809235
-2.0227062702178955,5.661195755004883,-0.016900772228837013
-1.9143835306167603,5.484034061431885,-0.01646018773317337
-1.8780258893966675,5.50484561920166,-0.01660905033349991
-1.8964327573776245,5.688267707824707,-0.01725078746676445
-1.8685898780822754,5.738569736480713,-0.017490223050117493
-1.8546518087387085,5.837428569793701,-0.01787002570927143
-0.9672437310218811,3.123168706893921,-0.009604021906852722
-0.9475448131561279,3.1373631954193115,-0.009689642116427422
-0.8153708577156067,2.7691590785980225,-0.008589397184550762
-0.7873443961143494,2.7447619438171387,-0.008548921905457973
-0.7625174522399902,2.731489658355713,-0.008539695292711258
-0.7430370450019836,2.7368526458740234,-0.008588943630456924
-0.723494827747345,2.742083787918091,-0.008638253435492516
-0.7111936807632446,2.7735366821289062,-0.008770091459155083
-0.6775937080383301,2.7215921878814697,-0.008635081350803375
-0.8956891298294067,3.709792375564575,-0.01180174108594656
-0.8657558560371399,3.7008464336395264,-0.011804986745119095
-0.8427959084510803,3.7221646308898926,-0.01190548948943615
-0.8260713219642639,3.769912004470825,-0.012090825475752354
-0.8045804500579834,3.7985172271728516,-0.012213683687150478
-0.6337388753890991,3.0999300479888916,-0.009986121207475662
-0.621592104434967,3.1541624069213867,-0.010180292651057243
-0.600495457649231,3.16619873046875,-0.010239324532449245
-0.5784407258033752,3.170301914215088,-0.010272733867168427
-0.5502886176109314,3.1396231651306152,-0.010193712078034878
-0.545592188835144,3.24743914604187,-0.010550053790211678
-0.5294750332832336,3.293633460998535,-0.010706748813390732
-0.5046893358230591,3.2896182537078857,-0.010700937360525131
-0.4885790944099426,3.339430570602417,-0.010870628990232944
-0.4664454162120819,3.3504819869995117,-0.010914785787463188
-0.44755637645721436,3.388521909713745,-0.011042769998311996
-0.4256513714790344,3.407089948654175,-0.011105647310614586
-0.4044211506843567,3.4332756996154785,-0.01119393389672041
-0.38482797145843506,3.4787609577178955,-0.011345786973834038
-0.36547839641571045,3.5279760360717773,-0.011510390788316727
-0.3408980369567871,3.530435800552368,-0.01152061391621828
-0.31755751371383667,3.548299551010132,-0.01157601922750473
-0.296837717294693,3.601048469543457,-0.01174575462937355
-0.2712686061859131,3.603065013885498,-0.01175053883343935
-0.2400779128074646,3.515230178833008,-0.011462935246527195
-0.21514256298542023,3.5090172290802,-0.011442079208791256
-0.19596099853515625,3.6079442501068115,-0.011753194034099579
-0.178866907954216,3.78090763092041,-0.01230351347476244
-0.1538553684949875,3.82892107963562,-0.01244686171412468
-0.1324307918548584,3.986060857772827,-0.012945208698511124
-0.10550864040851593,4.018125057220459,-0.013037385419011116
-0.07959571480751038,4.124210357666016,-0.01336684264242649
-0.050743695348501205,4.1168532371521,-0.013324466533958912
-0.02148560620844364,4.101484775543213,-0.013256624341011047
0.0034690294414758682,2.023423910140991,-0.00653157290071249
0.035785891115665436,4.128729820251465,-0.013310877606272697
0.035732071846723557,2.288771629333496,-0.0073700943030416965
0.051780782639980316,2.2962794303894043,-0.007378759328275919
0.06804918497800827,2.3075788021087646,-0.007399334106594324
0.08105447143316269,2.217257499694824,-0.0070946733467280865
0.09562188386917114,2.1971278190612793,-0.007015911862254143
0.11424678564071655,2.2627313137054443,-0.007210960146039724
0.1312924325466156,2.2852823734283447,-0.0072667584754526615
0.1461077183485031,2.268726110458374,-0.007196265272796154
0.16209258139133453,2.2676401138305664,-0.007175001315772533
0.17658860981464386,2.250884771347046,-0.007104913238435984
0.19156783819198608,2.24181866645813,-0.007059568539261818
0.2042718082666397,2.2093160152435303,-0.006941046565771103
0.22106359899044037,2.2234015464782715,-0.006962876301258802
0.23417365550994873,2.1984903812408447,-0.006862516049295664
0.24804119765758514,2.185175657272339,-0.006799365859478712
0.2641349136829376,2.191157817840576,-0.006796537898480892
0.2793554663658142,2.189269781112671,-0.0067695192992687225
0.2923933267593384,2.171801805496216,-0.006693157367408276
0.3075883388519287,2.1697018146514893,-0.0066628409549593925
0.3213350474834442,2.1598105430603027,-0.006609444040805101
0.33389773964881897,2.142091989517212,-0.006532437168061733
0.3475269377231598,2.1320080757141113,-0.006479213479906321
0.35379457473754883,2.0794837474823,-0.006297069601714611
0.3714573383331299,2.0962398052215576,-0.006320566404610872
0.38466084003448486,2.08591365814209,-0.006262085400521755
0.3975471258163452,2.075542449951172,-0.006204327568411827
0.4119650423526764,2.0727286338806152,-0.006169309839606285
0.42244142293930054,2.0506818294525146,-0.006077551748603582
0.43649008870124817,2.0477373600006104,-0.006039222236722708
0.44905540347099304,2.0370194911956787,-0.00597703130915761
0.4690384566783905,2.0605640411376953,-0.006015936844050884
0.4905031621456146,2.087674379348755,-0.006064179819077253
0.5086687207221985,2.0994033813476562,-0.006067402195185423
0.5306518077850342,2.1261777877807617,-0.006114175543189049
0.5560470819473267,2.1640713214874268,-0.006192053202539682
0.5787634253501892,2.1904451847076416,-0.006236715242266655
0.5939091444015503,2.186387538909912,-0.006194119341671467
1.2780680656433105,4.578864574432373,-0.012907135300338268
1.3030730485916138,4.547435760498047,-0.01274830847978592
1.3278777599334717,4.5158305168151855,-0.01258069183677435
1.3539788722991943,4.491756916046143,-0.012436782009899616
1.3826638460159302,4.474834442138672,-0.01231226697564125
1.4101941585540771,4.453944206237793,-0.012177267111837864
1.43593430519104,4.429290294647217,-0.01203447300940752
1.466381311416626,4.419304370880127,-0.011933102272450924
1.4861955642700195,4.379692554473877,-0.011754053644835949
1.5036033391952515,4.332420349121094,-0.01155457366257906
1.2789325714111328,3.6040101051330566,-0.009551298804581165
1.3036088943481445,3.595158338546753,-0.009465621784329414
1.5922675132751465,4.300625801086426,-0.011246430687606335
1.6175798177719116,4.278643608093262,-0.011111478321254253
1.651454210281372,4.278247356414795,-0.011032188311219215
1.676878809928894,4.255753040313721,-0.010896261781454086
1.7027982473373413,4.237030506134033,-0.010765963234007359
1.7312055826187134,4.225503444671631,-0.010652578435838223
1.7632784843444824,4.220688343048096,-0.010554284788668156
1.7864487171173096,4.19395637512207,-0.0104010459035635
1.818557858467102,4.188652038574219,-0.010301545262336731
1.8464970588684082,4.176411151885986,-0.010184764862060547
1.8679401874542236,4.149735927581787,-0.010033534839749336
1.8968743085861206,4.136590003967285,-0.009911864995956421
1.9255907535552979,4.1233015060424805,-0.009790723212063313
1.953395962715149,4.110201835632324,-0.00966596882790327
1.9772461652755737,4.09010648727417,-0.009523044340312481
2.0048062801361084,4.076668739318848,-0.009394645690917969
2.026637077331543,4.048394203186035,-0.009228045120835304
2.0506491661071777,4.027520179748535,-0.009083248674869537
2.073667526245117,4.006922245025635,-0.008942956104874611
2.100360155105591,3.9929957389831543,-0.00881732814013958
2.1317148208618164,3.9852075576782227,-0.008701672777533531
2.1476681232452393,3.9499757289886475,-0.008527543395757675
2.174018383026123,3.9355344772338867,-0.008399014361202717
2.1944096088409424,3.9107697010040283,-0.008249553851783276
2.225358724594116,3.902238130569458,-0.008130616508424282
2.247739553451538,3.8803634643554688,-0.007985265925526619
2.269012928009033,3.8589026927948,-0.007842876017093658
2.2873430252075195,3.829878091812134,-0.007681088987737894
2.3179824352264404,3.8205530643463135,-0.007557600736618042
2.3389322757720947,3.7985925674438477,-0.007411750499159098
2.363515615463257,3.7833456993103027,-0.007279993034899235
2.393799304962158,3.773513078689575,-0.0071520316414535046
2.41953706741333,3.7570619583129883,-0.007007981650531292
2.4393138885498047,3.7349250316619873,-0.006853779777884483
2.468852996826172,3.724841833114624,-0.006715736351907253
2.481034755706787,3.6885263919830322,-0.006529587786644697
2.5000271797180176,3.6662282943725586,-0.006374042481184006
2.529541254043579,3.6554324626922607,-0.006229636259377003
2.5585744380950928,3.6447196006774902,-0.006088512949645519
2.576925039291382,3.622184991836548,-0.005937934387475252
2.5879464149475098,3.585453748703003,-0.005755194928497076
