X,Y,Z
-2.277707815170288,3.7476069927215576,-0.10388454049825668
-2.256078004837036,3.774240255355835,-0.10711795091629028
-2.227534294128418,3.7865469455718994,-0.1098170131444931
-2.2013769149780273,3.806243896484375,-0.11269164085388184
-2.177215814590454,3.8290200233459473,-0.11565049737691879
-2.1504526138305664,3.8440349102020264,-0.11826993525028229
-2.1164145469665527,3.849435329437256,-0.1205880269408226
-2.0898711681365967,3.86826753616333,-0.12327685207128525
-2.069597005844116,3.89676570892334,-0.12622064352035522
-2.0422253608703613,3.911100149154663,-0.1286708265542984
-2.017122745513916,3.932804822921753,-0.13130231201648712
-1.9877846240997314,3.9476325511932373,-0.13374873995780945
-1.9635897874832153,3.9683589935302734,-0.13628709316253662
-1.9355937242507935,3.982011079788208,-0.1385548859834671
-1.9066390991210938,3.995877981185913,-0.14077280461788177
-1.880867600440979,4.016618728637695,-0.14324507117271423
-1.8561060428619385,4.036640167236328,-0.14563313126564026
-1.8271671533584595,4.04974365234375,-0.14777711033821106
-1.7978421449661255,4.062772274017334,-0.1498272866010666
-1.7715319395065308,4.08275032043457,-0.15214435756206512
-1.7460017204284668,4.102146148681641,-0.15440094470977783
-1.726327657699585,4.135783672332764,-0.1571916937828064
-1.6930229663848877,4.14102029800415,-0.15886065363883972
-1.666081190109253,4.160271167755127,-0.16104936599731445
-1.6337932348251343,4.16459846496582,-0.162642240524292
-1.6116814613342285,4.19404935836792,-0.16521093249320984
-1.584372639656067,4.212713718414307,-0.16727468371391296
-1.5562108755111694,4.231445789337158,-0.16935458779335022
-1.528566598892212,4.249737739562988,-0.17139990627765656
-1.4963693618774414,4.252837181091309,-0.17280606925487518
-1.4766398668289185,4.292695999145508,-0.17566858232021332
-1.4409559965133667,4.288272857666016,-0.1766461580991745
-1.4243494272232056,4.343071460723877,-0.1801004856824875
-1.13555109500885,3.5462496280670166,-0.1480039805173874
-1.1131776571273804,3.561462879180908,-0.14958475530147552
-1.3326044082641602,4.3719024658203125,-0.18468771874904633
-1.3047517538070679,4.39245080947876,-0.18660204112529755
-1.2777951955795288,4.416561603546143,-0.18868215382099152
-1.2486295700073242,4.432944297790527,-0.190440833568573
-1.219771146774292,4.449005603790283,-0.19217076897621155
-1.1901943683624268,4.465032577514648,-0.1937721222639084
-1.1643651723861694,4.495975494384766,-0.19603672623634338
-1.1391849517822266,4.5305399894714355,-0.19847697019577026
-0.5465748906135559,2.240788221359253,-0.09863188862800598
-0.5263736844062805,2.22554612159729,-0.09839807450771332
-0.46702471375465393,2.038991689682007,-0.09049766510725021
-0.44579288363456726,2.0117506980895996,-0.08963549137115479
-0.42669200897216797,1.9919264316558838,-0.08909693360328674
-0.4125843048095703,1.9948748350143433,-0.08957872539758682
-0.3970808684825897,1.9900403022766113,-0.08968302607536316
-0.3859730660915375,2.008103847503662,-0.09077873826026917
-0.37319323420524597,2.018437385559082,-0.0915331020951271
-0.3590282201766968,2.020986557006836,-0.09193794429302216
-0.34732502698898315,2.0388479232788086,-0.09304910153150558
-0.33182576298713684,2.0335030555725098,-0.09307263791561127
-0.3187045753002167,2.043485164642334,-0.0937543511390686
-0.3020322322845459,2.0302212238311768,-0.09337303787469864
-0.28997504711151123,2.047729015350342,-0.09441101551055908
-0.27963781356811523,2.080653429031372,-0.09617189317941666
-0.26215115189552307,2.0593152046203613,-0.09539946913719177
-0.24954430758953094,2.0765912532806396,-0.09636268019676208
-0.23628796637058258,2.0899112224578857,-0.09714899957180023
-0.22123101353645325,2.087623357772827,-0.0972149670124054
-0.2071169912815094,2.0929806232452393,-0.09764011949300766
-0.17660146951675415,1.9234130382537842,-0.08988213539123535
-0.17667271196842194,2.0840039253234863,-0.09748907387256622
-0.1648106575012207,2.1201934814453125,-0.0992911085486412
-0.12634071707725525,1.7865493297576904,-0.08376184105873108
-0.11489636451005936,1.8029552698135376,-0.0846313089132309
-0.10301345586776733,1.8192998170852661,-0.0855012983083725
-0.09128239005804062,1.8394567966461182,-0.08648785203695297
-0.07975661009550095,1.871233582496643,-0.08802618086338043
-0.07545071840286255,2.1174070835113525,-0.0996614545583725
-0.0616253986954689,2.1490793228149414,-0.10121247172355652
-0.0457393117249012,2.1182496547698975,-0.09982596337795258
-0.03087981976568699,2.110713481903076,-0.09946464002132416
-0.016723161563277245,2.18110990524292,-0.10277041792869568
-0.001557529321871698,2.208487033843994,-0.10405374318361282
0.014090102165937424,2.2552669048309326,-0.10625613480806351
0.030472273007035255,2.286323308944702,-0.10772301256656647
0.07941905409097672,3.9167301654815674,-0.18444491922855377
0.10576596856117249,3.8848884105682373,-0.18280856311321259
0.1314079463481903,3.845071315765381,-0.1808081567287445
0.15701770782470703,3.816781759262085,-0.1793605089187622
0.1809280514717102,3.7610414028167725,-0.17663390934467316
0.20557096600532532,3.7246155738830566,-0.17474810779094696
0.22992165386676788,3.69974946975708,-0.17334163188934326
0.2539377212524414,3.6747255325317383,-0.17193907499313354
0.276762992143631,3.6378729343414307,-0.16999459266662598
0.29941225051879883,3.6047701835632324,-0.16823744773864746
0.32272347807884216,3.5792675018310547,-0.16680102050304413
0.34328967332839966,3.5342516899108887,-0.16437962651252747
0.36122921109199524,3.4697182178497314,-0.16106776893138885
0.3838950991630554,3.4555249214172363,-0.16010703146457672
0.4069943428039551,3.4450416564941406,-0.15932559967041016
0.42939794063568115,3.4266116619110107,-0.1581626683473587
0.44891470670700073,3.3926475048065186,-0.156191885471344
0.47013798356056213,3.374037504196167,-0.1549409031867981
0.4899958074092865,3.347574472427368,-0.1533411145210266
0.5103395581245422,3.324819326400757,-0.15191949903964996
0.5313859581947327,3.3057374954223633,-0.1506681889295578
0.5476882457733154,3.263542890548706,-0.14826250076293945
0.5667678713798523,3.240506649017334,-0.1467432975769043
0.5862836837768555,3.2211971282958984,-0.14540423452854156
0.6028839349746704,3.1863927841186523,-0.14337465167045593
0.6220091581344604,3.166836977005005,-0.14204524457454681
0.6410204768180847,3.1471481323242188,-0.14060981571674347
0.6601917147636414,3.131251335144043,-0.1393575221300125
0.6783167719841003,3.1114327907562256,-0.13794249296188354
0.698238730430603,3.099055528640747,-0.13685981929302216
0.7162528038024902,3.078949213027954,-0.13544636964797974
0.7340860962867737,3.0587313175201416,-0.1339317411184311
0.7493818402290344,3.030940532684326,-0.1321028620004654
0.7672195434570312,3.014430522918701,-0.1307787150144577
0.7802544832229614,2.9788544178009033,-0.12863223254680634
0.7989228963851929,2.9658544063568115,-0.12747451663017273
0.8111777305603027,2.9301812648773193,-0.12525023519992828
0.8290078639984131,2.91711163520813,-0.1240178793668747
0.8434683084487915,2.892679452896118,-0.12231267243623734
0.8613255023956299,2.8793046474456787,-0.12107548117637634
0.8675544857978821,2.8285176753997803,-0.11827211081981659
0.8718844056129456,2.7740836143493652,-0.11526735872030258
0.8715829849243164,2.708685874938965,-0.11185337603092194
0.902309238910675,2.7397706508636475,-0.11242951452732086
0.9213506579399109,2.7334659099578857,-0.1114552766084671
0.9427245855331421,2.7344682216644287,-0.11075039207935333
0.945669949054718,2.6838791370391846,-0.10792329162359238
0.9853200316429138,2.7360968589782715,-0.1092170849442482
0.998733639717102,2.7146403789520264,-0.10756400972604752
1.0120917558670044,2.69305682182312,-0.10591137409210205
1.0275819301605225,2.6788675785064697,-0.10451177507638931
1.0399243831634521,2.657383441925049,-0.10282393544912338
1.0509225130081177,2.632091522216797,-0.10098753869533539
1.057446002960205,2.595829486846924,-0.09873896837234497
1.0783287286758423,2.595724582672119,-0.09786415845155716
1.0836036205291748,2.559690475463867,-0.0956006869673729
1.1038844585418701,2.559558868408203,-0.09469110518693924
1.1091892719268799,2.5232298374176025,-0.0924186185002327
1.126715064048767,2.5154964923858643,-0.09121355414390564
1.1387525796890259,2.4972476959228516,-0.08958902955055237
1.1521780490875244,2.4825210571289062,-0.08809425681829453
1.1689872741699219,2.474694013595581,-0.0868396908044815
1.1763153076171875,2.4452950954437256,-0.08479849994182587
1.1894011497497559,2.4303107261657715,-0.08326331526041031
1.2020840644836426,2.4153873920440674,-0.08172786980867386
1.2147694826126099,2.400327682495117,-0.08018789440393448
1.2314398288726807,2.3918628692626953,-0.0788390263915062
1.240341305732727,2.3696887493133545,-0.07702551037073135
1.25262451171875,2.354421615600586,-0.07541603595018387
1.268395185470581,2.3460071086883545,-0.07403817772865295
1.27903413772583,2.3269097805023193,-0.07229148596525192
1.2945644855499268,2.318350076675415,-0.0708581805229187
1.3020912408828735,2.2962353229522705,-0.06901349872350693
1.3100759983062744,2.27372407913208,-0.06711995601654053
1.3218789100646973,2.257880926132202,-0.0654231533408165
1.3326572179794312,2.2424986362457275,-0.06373148411512375
1.3352227210998535,2.213695764541626,-0.06167608126997948
1.3545945882797241,2.2111034393310547,-0.06029120832681656
1.3572442531585693,2.181974411010742,-0.058154068887233734
1.371384620666504,2.173156261444092,-0.056588608771562576
1.379715919494629,2.154017925262451,-0.05470923334360123
1.39006507396698,2.138085126876831,-0.05288043990731239
1.399512767791748,2.12260365486145,-0.051061682403087616
1.4182000160217285,2.119609832763672,-0.0494716539978981
1.4150135517120361,2.084120035171509,-0.047099675983190536
1.4326776266098022,2.081545829772949,-0.04548207297921181
1.442080020904541,2.065563201904297,-0.043495867401361465
1.4468036890029907,2.0431833267211914,-0.04132585972547531
1.4393901824951172,2.005336046218872,-0.03885185346007347
1.464644432067871,2.011214256286621,-0.03711383789777756
1.4657124280929565,1.9862538576126099,-0.03478224202990532
1.450265645980835,2.0502548217773438,0.043769389390945435
1.4439386129379272,2.0737385749816895,0.046000830829143524
1.428002119064331,2.0847008228302,0.04794301837682724
1.4306530952453613,2.120636224746704,0.050355345010757446
1.414416790008545,2.1314568519592285,0.052137166261672974
1.3942949771881104,2.1353087425231934,0.05370112881064415
1.3940768241882324,2.1679835319519043,0.05590840056538582
1.3818461894989014,2.185004472732544,0.057699210941791534
1.3695011138916016,2.2019236087799072,0.059493571519851685
1.3541043996810913,2.2113840579986572,0.060996636748313904
1.3375290632247925,2.221407175064087,0.06248409301042557
1.3407076597213745,2.2649476528167725,0.0649341344833374
1.3327183723449707,2.287712574005127,0.06673181802034378
1.3197499513626099,2.3041815757751465,0.0683499276638031
1.3025699853897095,2.3138954639434814,0.06973220407962799
1.2876564264297485,2.326651096343994,0.07118318974971771
1.275130271911621,2.342395305633545,0.07269379496574402
1.2652487754821777,2.3654353618621826,0.07440482825040817
1.2546720504760742,2.3886778354644775,0.07614964991807938
1.2340389490127563,2.390577554702759,0.07716724276542664
1.2208974361419678,2.406036615371704,0.078604556620121
1.2066717147827148,2.4218921661376953,0.08000826835632324
1.1991503238677979,2.4516921043395996,0.08188576251268387
1.1847532987594604,2.4673073291778564,0.08329137414693832
1.1675442457199097,2.475459098815918,0.08441818505525589
1.154466986656189,2.494460344314575,0.08586917072534561
1.142679214477539,2.5170059204101562,0.08744671195745468
1.1309001445770264,2.5393879413604736,0.08902017027139664
1.1194566488265991,2.5614688396453857,0.09057047218084335
1.1069998741149902,2.5838382244110107,0.09212400019168854
1.0882121324539185,2.591771125793457,0.09312671422958374
1.0782577991485596,2.6212387084960938,0.09491496533155441
1.0701028108596802,2.654031991958618,0.0968143492937088
1.0544768571853638,2.668640613555908,0.09805966913700104
1.0404739379882812,2.6908457279205322,0.09954310208559036
1.029293417930603,2.7201664447784424,0.10129119455814362
1.0097731351852417,2.727437973022461,0.10222341865301132
0.9974047541618347,2.752721071243286,0.10382141917943954
0.9584850072860718,2.704432249069214,0.10262013226747513
0.9412100911140442,2.7187247276306152,0.1037360206246376
0.92911297082901,2.7475874423980713,0.10540992766618729
0.912018358707428,2.761500835418701,0.10651419311761856
0.8712170720100403,2.7008750438690186,0.10472466051578522
0.8780016303062439,2.7888166904449463,0.10867683589458466
0.8748305439949036,2.8510890007019043,0.11161915212869644
0.8644281029701233,2.8909177780151367,0.11369650065898895
0.84611976146698,2.9044320583343506,0.11474552005529404
0.8322667479515076,2.932755470275879,0.11638201028108597
0.8178779482841492,2.961076021194458,0.11800510436296463
0.8068346381187439,3.004512310028076,0.12017933279275894
0.7859547138214111,3.0140483379364014,0.1210179552435875
0.7683822512626648,3.0346574783325195,0.1222991943359375
0.7528142333030701,3.062652111053467,0.12388148903846741
0.7350372672080994,3.082993268966675,0.1251562237739563
0.7165992856025696,3.103332996368408,0.12635394930839539
0.6975268125534058,3.1236507892608643,0.12756739556789398
0.676141083240509,3.1323184967041016,0.12830694019794464
0.6590657234191895,3.1598587036132812,0.12982194125652313
0.6401582360267639,3.1796467304229736,0.13102838397026062
0.6206650137901306,3.1993932723999023,0.13216157257556915
0.6018650531768799,3.22678804397583,0.1336027830839157
0.5824499130249023,3.2501566410064697,0.134882390499115
0.5662609338760376,3.2926058769226074,0.1369631141424179
0.5471575260162354,3.319550037384033,0.1384088695049286
0.5282033681869507,3.3502609729766846,0.13998600840568542
0.5064994692802429,3.36938214302063,0.14102253317832947
0.4838375747203827,3.380580425262451,0.14173229038715363
0.4642302095890045,3.414825439453125,0.14341777563095093
0.4434013068675995,3.441188335418701,0.14478082954883575
0.4217890799045563,3.4635467529296875,0.14598529040813446
0.4000887870788574,3.4896793365478516,0.14726416766643524
0.37674975395202637,3.507965564727783,0.14820386469364166
0.3570890724658966,3.5610039234161377,0.15061965584754944
0.335100919008255,3.594487190246582,0.1522182822227478
0.31276899576187134,3.627825975418091,0.15382063388824463
0.2902909815311432,3.664918899536133,0.15556363761425018
0.26585933566093445,3.6902427673339844,0.15672609210014343
0.24206510186195374,3.723160982131958,0.1582185924053192
0.21759732067584991,3.7520291805267334,0.15954826772212982
0.19304828345775604,3.784627676010132,0.16104555130004883
0.16929523646831512,3.844356060028076,0.16370762884616852
0.14319190382957458,3.8766555786132812,0.1651388555765152
0.11706630885601044,3.908766269683838,0.16652068495750427
0.09058903157711029,3.944600820541382,0.16806960105895996
0.06371907889842987,3.9841558933258057,0.16978566348552704
0.03644777089357376,4.035234451293945,0.17200174927711487
0.007974823005497456,4.082221031188965,0.17405372858047485
-0.020573744550347328,4.11730432510376,0.17548181116580963
-0.049977611750364304,4.179503917694092,0.17806461453437805
-0.07958386093378067,4.206372261047363,0.17914937436580658
-0.10942362248897552,4.229129314422607,0.18006710708141327
-0.1383029669523239,4.212667465209961,0.17932355403900146
-0.16762959957122803,4.19989013671875,0.17870743572711945
-0.2018309086561203,4.307794570922852,0.18312206864356995
-0.23548159003257751,4.376448631286621,0.1858695149421692
-0.26934027671813965,4.4331560134887695,0.18811385333538055
-0.3028099536895752,4.470123767852783,0.18952542543411255
-0.34112825989723206,4.5573930740356445,0.19307203590869904
-0.37555864453315735,4.589942932128906,0.1942186951637268
-0.41243240237236023,4.645568370819092,0.19628065824508667
-0.4537656307220459,4.739756107330322,0.19997209310531616
-0.4937206506729126,4.806404113769531,0.20250031352043152
-0.5993232727050781,5.454564094543457,0.22948981821537018
-0.6381080746650696,5.458042621612549,0.22933408617973328
-0.6703736186027527,5.410942554473877,0.2269141525030136
-0.6990069150924683,5.340437412261963,0.22351983189582825
-0.7415777444839478,5.3780598640441895,0.2246643453836441
-0.7760672569274902,5.349557399749756,0.22304563224315643
-0.8102625012397766,5.324772834777832,0.22160203754901886
-0.8396920561790466,5.272819519042969,0.21899068355560303
-0.8623409867286682,5.1861252784729,0.2148473560810089
-0.8811761140823364,5.083988189697266,0.2100927233695984
-0.9263684153556824,5.135480880737305,0.2117006778717041
-0.9604893326759338,5.117328643798828,0.2104266732931137
-0.9796271920204163,5.026275157928467,0.2061833292245865
-1.013269066810608,5.015656471252441,0.20514284074306488
-1.0499202013015747,5.020112991333008,0.20469339191913605
-1.0817286968231201,5.001412391662598,0.20330926775932312
-1.1116665601730347,4.970886707305908,0.20144225656986237
-1.1461269855499268,4.963092803955078,0.20051582157611847
-1.1749223470687866,4.932322025299072,0.19862377643585205
-1.2121634483337402,4.939423084259033,0.1981619894504547
-1.219917893409729,4.828927993774414,0.19300462305545807
-1.22000253200531,4.691945552825928,0.18681789934635162
-1.248500943183899,4.668323993682861,0.1851755976676941
-1.2829807996749878,4.6671037673950195,0.18443109095096588
-1.3124686479568481,4.650832176208496,0.1829812377691269
-1.337464451789856,4.619372367858887,0.1809416115283966
-1.371522068977356,4.617566108703613,0.1800607591867447
-1.115657091140747,3.6632702350616455,0.14220891892910004
-1.1201293468475342,3.5883991718292236,0.1386769562959671
-1.1421318054199219,3.5732996463775635,0.13740237057209015
-1.4769179821014404,4.5153632164001465,0.17272159457206726
-1.5053801536560059,4.497771739959717,0.17113669216632843
-1.5312985181808472,4.472561836242676,0.1692698746919632
-1.5597928762435913,4.454482078552246,0.16767750680446625
-1.587530255317688,4.436432838439941,0.16602735221385956
-1.6120418310165405,4.41101598739624,0.16407252848148346
-1.6417419910430908,4.400099754333496,0.1626678705215454
-1.6696641445159912,4.381279468536377,0.16094408929347992
-1.6972559690475464,4.362340927124023,0.15923213958740234
-1.7238789796829224,4.343544006347656,0.1574646383523941
-1.7500126361846924,4.324714183807373,0.1556713730096817
-1.7744828462600708,4.302119731903076,0.15375421941280365
-1.8076937198638916,4.296800136566162,0.15240886807441711
-1.831403374671936,4.269817352294922,0.15031516551971436
-1.856855869293213,4.250348091125488,0.14841356873512268
-1.885190486907959,4.237914085388184,0.14675749838352203
-1.9167951345443726,4.232345104217529,0.14533792436122894
-1.93690824508667,4.197452068328857,0.14285410940647125
-1.952363133430481,4.15585994720459,0.14016179740428925
-1.9445593357086182,4.068884372711182,0.1359233260154724
-1.9459295272827148,4.003265857696533,0.13244502246379852
-1.9628864526748657,3.9689178466796875,0.12999218702316284
-1.9839154481887817,3.9410297870635986,0.12772300839424133
-2.0064494609832764,3.920894145965576,0.12566423416137695
-2.028695821762085,3.9006881713867188,0.12360725551843643
-2.0585567951202393,3.893906831741333,0.12195392698049545
-2.0819027423858643,3.872670888900757,0.11980520188808441
-2.1077020168304443,3.858750820159912,0.11785240471363068
-2.1334261894226074,3.8446483612060547,0.11585792899131775
-2.1571640968322754,3.8269577026367188,0.11376029998064041
-2.189490556716919,3.8221232891082764,0.11198766529560089
-2.2107949256896973,3.8008692264556885,0.1096905842423439
-2.2354650497436523,3.7864725589752197,0.10758645087480545
-2.2653322219848633,3.7778520584106445,0.10556009411811829
-2.287449836730957,3.7554218769073486,0.1031203493475914
-2.3199312686920166,3.753880739212036,0.10120871663093567
-2.3400626182556152,3.732210159301758,0.09875357896089554
-2.361565351486206,3.709449291229248,0.09615952521562576
-2.386662244796753,3.693415880203247,0.09367062151432037
-2.4145689010620117,3.684636116027832,0.09138328582048416
-2.447949171066284,3.6813831329345703,0.0891232118010521
-2.4640941619873047,3.651829242706299,0.08615007251501083
-2.4872686862945557,3.6361465454101562,0.08350776135921478
-2.050870418548584,2.9551174640655518,0.0658876821398735
-2.045909881591797,2.9062204360961914,0.06277341395616531
-2.068613052368164,2.899754524230957,0.06058020889759064
-2.0881028175354004,2.88580322265625,0.05807309225201607
-1.0857031345367432,1.4802355766296387,0.02859923243522644
-1.0926676988601685,1.470263957977295,0.027195457369089127
-2.0400803089141846,2.881927967071533,-0.0478636771440506
-2.0512800216674805,2.9456064701080322,-0.051283255219459534
-2.4365875720977783,3.5528666973114014,-0.06447912752628326
-2.4403178691864014,3.6164095401763916,-0.06823951750993729
-2.425952672958374,3.654167890548706,-0.07148492336273193
-2.40047550201416,3.6709020137786865,-0.07414170354604721
-2.372891664505005,3.6887381076812744,-0.07679392397403717
-2.3455655574798584,3.7061190605163574,-0.07940004765987396
-2.319176435470581,3.72263503074646,-0.08190487325191498
-2.295339822769165,3.7464888095855713,-0.08450880646705627
-2.267528772354126,3.7633309364318848,-0.08694201707839966
-2.241283655166626,3.7789664268493652,-0.08922827243804932
-2.213590383529663,3.795201063156128,-0.09148803353309631
-2.1908042430877686,3.821854591369629,-0.09402897953987122
-2.160003900527954,3.830328941345215,-0.0960083082318306
-2.1364688873291016,3.852385997772217,-0.09829390048980713
-2.108032464981079,3.8679659366607666,-0.10039521753787994
-2.0799639225006104,3.883077383041382,-0.10246112197637558
-2.052474021911621,3.8976240158081055,-0.10447670519351959
-2.0278799533843994,3.919219732284546,-0.10661247372627258
-1.9992358684539795,3.9338555335998535,-0.10855362564325333
-1.9711631536483765,3.947944402694702,-0.11044909060001373
-1.9470291137695312,3.9685513973236084,-0.11250314116477966
-1.920988917350769,3.989838123321533,-0.11455599963665009
-1.8918535709381104,4.003683090209961,-0.11637558788061142
-1.8667118549346924,4.024026393890381,-0.11835338920354843
-1.8418692350387573,4.043989181518555,-0.12030684947967529
-1.8157600164413452,4.064284324645996,-0.12219511717557907
-1.7894004583358765,4.08443546295166,-0.12408579140901566
-1.7567410469055176,4.0900397300720215,-0.12553836405277252
-1.7342592477798462,4.1165266036987305,-0.12759403884410858
-1.7077317237854004,4.136003494262695,-0.1293758898973465
-1.6778312921524048,4.14817476272583,-0.1309206187725067
-1.6481010913848877,4.160027980804443,-0.1324521005153656
-1.6214665174484253,4.178810119628906,-0.13419915735721588
-1.5961360931396484,4.2010369300842285,-0.1360059529542923
-1.5713907480239868,4.226975440979004,-0.13789622485637665
-1.5410521030426025,4.238083839416504,-0.1393122524023056
-1.5139628648757935,4.25607967376709,-0.14093880355358124
-1.4914860725402832,4.288771629333496,-0.1430780589580536
-1.4708369970321655,4.328855514526367,-0.14535586535930634
-1.432449221611023,4.316991329193115,-0.14589473605155945
-1.152673363685608,3.558182954788208,-0.12102010101079941
-1.1255031824111938,3.5586469173431396,-0.12179304659366608
-1.1058175563812256,3.5852115154266357,-0.12344872951507568
-1.3162946701049805,4.37811279296875,-0.1515786498785019
-1.2927415370941162,4.41356897354126,-0.15364526212215424
-1.2638049125671387,4.4300217628479,-0.15505351126194
-1.237126350402832,4.453715801239014,-0.15671801567077637
-1.205718994140625,4.462283134460449,-0.15778131783008575
-1.1753968000411987,4.478402137756348,-0.1590796262025833
-1.1474101543426514,4.501735210418701,-0.16063301265239716
-0.5326149463653564,2.152491807937622,-0.07715021818876266
-0.5458950996398926,2.2737998962402344,-0.08186161518096924
-0.5059649348258972,2.1749141216278076,-0.07860878109931946
-0.45599550008773804,2.026146173477173,-0.07351179420948029
-0.4350089132785797,1.9987910985946655,-0.07279331237077713
-0.4178358018398285,1.9864835739135742,-0.07261643558740616
-0.4055691063404083,1.9969778060913086,-0.07327454537153244
-0.39151084423065186,1.9997693300247192,-0.07360728830099106
-0.3814786672592163,2.02553391456604,-0.07478390634059906
-0.36717820167541504,2.028162956237793,-0.07510877400636673
-0.34633535146713257,1.9922034740447998,-0.07400135695934296
-0.34145084023475647,2.0484602451324463,-0.07632419466972351
-0.3258107602596283,2.043090343475342,-0.07631053775548935
-0.3146836459636688,2.0685176849365234,-0.07744041085243225
-0.2978721261024475,2.0552196502685547,-0.07712187618017197
-0.28672102093696594,2.0804405212402344,-0.07825163751840591
-0.2727585732936859,2.0862441062927246,-0.07865652441978455
-0.255745530128479,2.0687248706817627,-0.07814013212919235
-0.24348391592502594,2.0898475646972656,-0.07906528562307358
-0.23024716973304749,2.1070473194122314,-0.07985049486160278
-0.21474112570285797,2.1008293628692627,-0.07974960654973984
-0.19754034280776978,2.0750629901885986,-0.07890770584344864
-0.1854596883058548,2.1036031246185303,-0.08010068535804749
-0.171366348862648,2.11262583732605,-0.08052466064691544
-0.15632900595664978,2.1137866973876953,-0.08065467327833176
-0.1415724903345108,2.114821434020996,-0.08078218996524811
-0.12731485068798065,2.1235437393188477,-0.08120737969875336
-0.11253087967634201,2.1243746280670166,-0.08131192624568939
-0.0966087132692337,2.1017110347747803,-0.08047269284725189
-0.08381212502717972,2.1569478511810303,-0.08262120187282562
-0.07037459313869476,2.2081964015960693,-0.08462215214967728
-0.055218346416950226,2.2164342403411865,-0.0849798172712326
-0.039808738976716995,2.2167627811431885,-0.08503151684999466
-0.02439870312809944,2.2169861793518066,-0.08501964062452316
-0.008805614896118641,2.248330593109131,-0.08620481193065643
0.006894184276461601,2.2717583179473877,-0.08709061145782471
0.022685382515192032,2.271656036376953,-0.08707842975854874
0.03779398277401924,2.2324159145355225,-0.08557029813528061
0.09299074858427048,3.894472122192383,-0.14917488396167755
0.11955065280199051,3.878131866455078,-0.1484355330467224
0.1452770084142685,3.834291458129883,-0.1466507911682129
0.16983504593372345,3.7863998413085938,-0.14472216367721558
0.1939362734556198,3.7422523498535156,-0.14294587075710297
0.2185170203447342,3.7174453735351562,-0.141840398311615
0.24272462725639343,3.6924824714660645,-0.1406891942024231
0.2658969759941101,3.651759386062622,-0.1389443576335907
0.2896987497806549,3.6303791999816895,-0.13794800639152527
0.31223663687705994,3.5971758365631104,-0.13651134073734283
0.33429786562919617,3.563840389251709,-0.13503578305244446
0.3553887605667114,3.526505470275879,-0.13334961235523224
0.3734906017780304,3.4618358612060547,-0.13063888251781464
0.3974611163139343,3.459178924560547,-0.13028348982334137
0.4200578033924103,3.4447243213653564,-0.1294901818037033
0.440969318151474,3.4185097217559814,-0.12824563682079315
0.4613395035266876,3.3922019004821777,-0.12692630290985107
0.48179081082344055,3.365715980529785,-0.1256050020456314
0.5020841360092163,3.343029499053955,-0.12444110214710236
0.5216598510742188,3.3163399696350098,-0.12313569337129593
0.5421831011772156,3.2972395420074463,-0.12212055176496506
0.5582113862037659,3.25498366355896,-0.12017107754945755
0.5771163702011108,3.2318789958953857,-0.11894110590219498
0.5925631523132324,3.1894049644470215,-0.11700399965047836
0.6147587299346924,3.185220241546631,-0.11648312956094742
0.632326066493988,3.157914400100708,-0.11512499302625656
0.6524616479873657,3.145864248275757,-0.11424803733825684
0.6715819239616394,3.129883050918579,-0.11322709918022156
0.6883572936058044,3.1022701263427734,-0.11178787052631378
0.7063897848129272,3.0822176933288574,-0.11063457280397415
0.7260278463363647,3.0696499347686768,-0.1097574308514595
0.7414851784706116,3.04187273979187,-0.10827525705099106
0.7622447609901428,3.036761522293091,-0.10759621858596802
0.7794522643089294,3.0162887573242188,-0.10637117922306061
0.7913457751274109,2.976872682571411,-0.10449256002902985
0.8079261779785156,2.9562535285949707,-0.10328561067581177
0.8218003511428833,2.9281303882598877,-0.1017623096704483
0.8352546095848083,2.899977684020996,-0.10024319589138031
0.8542582392692566,2.8903915882110596,-0.09936554729938507
0.8675304651260376,2.861992597579956,-0.09785022586584091
0.8653848767280579,2.7850823402404785,-0.09469787776470184
0.8819215297698975,2.771723747253418,-0.09365732967853546
0.8958985805511475,2.7508444786071777,-0.09237168729305267
0.9124830365180969,2.737184524536133,-0.09132567793130875
0.9365288019180298,2.7455835342407227,-0.09101706743240356
0.9554663896560669,2.7390778064727783,-0.09020105749368668
0.9739654660224915,2.7325828075408936,-0.08934354782104492
0.9924203157424927,2.7259626388549805,-0.08848602324724197
1.0083472728729248,2.7118093967437744,-0.087381511926651
1.0219780206680298,2.690030097961426,-0.08601902425289154
1.0318903923034668,2.661160945892334,-0.08442352712154388
1.0440750122070312,2.639644145965576,-0.0830545723438263
1.0603982210159302,2.6289479732513428,-0.08203456550836563
1.0696622133255005,2.5999057292938232,-0.08043462038040161
1.0849508047103882,2.5851247310638428,-0.07926938682794571
1.0930569171905518,2.5562760829925537,-0.07765471190214157
1.1101998090744019,2.5489065647125244,-0.07670138031244278
1.1212049722671509,2.527035713195801,-0.07530878484249115
1.1355175971984863,2.5120980739593506,-0.07411812990903854
1.1495198011398315,2.4971566200256348,-0.07288917899131775
1.1578865051269531,2.471773862838745,-0.07136654853820801
1.1711117029190063,2.4569153785705566,-0.07015380263328552
1.1847856044769287,2.441702365875244,-0.06891030073165894
1.1979544162750244,2.426591157913208,-0.06766270101070404
1.2073628902435303,2.404487371444702,-0.06619929522275925
1.2233840227127075,2.39640474319458,-0.06514273583889008
1.2328239679336548,2.374004364013672,-0.06366980075836182
1.252602458000183,2.3724935054779053,-0.06274806708097458
1.2608915567398071,2.3504159450531006,-0.06126925349235535
1.2708730697631836,2.33172869682312,-0.05988716706633568
1.2873233556747437,2.3227174282073975,-0.05870305001735687
1.295264482498169,2.300417184829712,-0.057197023183107376
1.3064693212509155,2.2851078510284424,-0.05586938187479973
1.317837119102478,2.2695720195770264,-0.05452469736337662
1.333581566810608,2.260385751724243,-0.05330232158303261
1.3446459770202637,2.244750499725342,-0.051900364458560944
1.3470981121063232,2.2159295082092285,-0.05022462084889412
1.3581867218017578,2.2000043392181396,-0.048802699893713
1.368830919265747,2.184213161468506,-0.04737171158194542
1.374579668045044,2.162137746810913,-0.04580673575401306
1.3871595859527588,2.1494693756103516,-0.04439600929617882
1.3975056409835815,2.133453369140625,-0.042900893837213516
1.4025065898895264,2.1114656925201416,-0.041292715817689896
1.4164308309555054,2.1021769046783447,-0.039905350655317307
1.4263547658920288,2.086027145385742,-0.03832950443029404
1.43537437915802,2.070359468460083,-0.036746375262737274
1.444625973701477,2.054398536682129,-0.0351310670375824
1.4015368223190308,1.965286374092102,-0.03226674720644951
1.4527250528335571,2.0103023052215576,-0.03162025660276413
1.4664591550827026,2.000331401824951,-0.02994467504322529
1.474252700805664,1.9848964214324951,-0.028172561898827553
1.4100476503372192,1.9784101247787476,0.03225354477763176
1.4471843242645264,2.0621509552001953,0.035053055733442307
1.436320424079895,2.079207181930542,0.0366966649889946
1.4335216283798218,2.1095051765441895,0.03857282176613808
1.4187979698181152,2.1194100379943848,0.03996876999735832
1.407028317451477,2.1365749835968018,0.04149153083562851
1.397155523300171,2.1569902896881104,0.043083444237709045
1.3904446363449097,2.17984938621521,0.04464356601238251
1.3780533075332642,2.196903944015503,0.04606756940484047
1.365753412246704,2.2137277126312256,0.047478433698415756
1.3503406047821045,2.223137140274048,0.04866499453783035
1.3456368446350098,2.253298759460449,0.050314050167798996
1.3327410221099854,2.2699856758117676,0.051655445247888565
1.3245357275009155,2.292816400527954,0.05309339985251427
1.308109998703003,2.302201509475708,0.05420331284403801
1.2966989278793335,2.3220505714416504,0.055542442947626114
1.283170461654663,2.3384406566619873,0.056809067726135254
1.270584225654602,2.3541572093963623,0.05801161006093025
1.2571355104446411,2.3701860904693604,0.05919739231467247
1.246854305267334,2.3932132720947266,0.060555506497621536
1.2296104431152344,2.4020934104919434,0.06154465302824974
1.2160851955413818,2.417689800262451,0.06269919127225876
1.2019461393356323,2.4334394931793213,0.06382139772176743
1.190897822380066,2.4562125205993652,0.06512924283742905
1.1799300909042358,2.4787864685058594,0.06642960757017136
1.162623643875122,2.486926555633545,0.06732941418886185
1.146339774131775,2.4987478256225586,0.06829869002103806
1.1373679637908936,2.528533935546875,0.0697627142071724
1.1284748315811157,2.5581209659576416,0.07122017443180084
1.1137330532073975,2.5730624198913574,0.07225576043128967
1.1016380786895752,2.5952179431915283,0.07348666340112686
1.085775375366211,2.6103320121765137,0.07449483871459961
1.069431185722351,2.6254818439483643,0.07552099972963333
1.061017394065857,2.6583240032196045,0.07704097777605057
1.0481663942337036,2.680172920227051,0.07824745029211044
1.034501314163208,2.702186346054077,0.07941988110542297
1.0177148580551147,2.716872453689575,0.08037234842777252
1.0004249811172485,2.7315824031829834,0.08134174346923828
0.9840373992919922,2.745804786682129,0.08227533847093582
0.9467835426330566,2.700990676879883,0.08143071830272675
0.9425407648086548,2.7520298957824707,0.08342026174068451
0.9202486872673035,2.7513108253479004,0.08385176956653595
0.9002476334571838,2.757899761199951,0.08451356738805771
0.88341224193573,2.7715163230895996,0.08537682145833969
0.8744165897369385,2.811171531677246,0.08704124391078949
0.8746445178985596,2.8846044540405273,0.08971943706274033
0.8550851345062256,2.8945155143737793,0.09043595939874649
0.8409300446510315,2.9230258464813232,0.09173987060785294
0.8286496996879578,2.9589622020721436,0.09328629821538925
0.8161713480949402,2.9947969913482666,0.09482362866401672
0.797797679901123,3.011845827102661,0.095710888504982
0.7821406126022339,3.040128231048584,0.09696393460035324
0.7586095929145813,3.038020372390747,0.09725344181060791
0.7443938851356506,3.073664903640747,0.09875817596912384
0.7283240556716919,3.1015634536743164,0.10001855343580246
0.7062644362449646,3.1066462993621826,0.10047544538974762
0.6883537769317627,3.1306397914886475,0.10154953598976135
0.6693261861801147,3.1507155895233154,0.10250495374202728
0.6500774621963501,3.1706717014312744,0.10346422344446182
0.6310563087463379,3.190418243408203,0.10441816598176956
0.6144214272499084,3.225451707839966,0.10582412034273148
0.5929833650588989,3.2373881340026855,0.10645434260368347
0.5748193264007568,3.268402338027954,0.10771948099136353
0.5566437244415283,3.3032124042510986,0.10912220925092697
0.5373910069465637,3.3301165103912354,0.11026651412248611
0.5170720219612122,3.3530731201171875,0.11126431822776794
0.4956988990306854,3.372074604034424,0.11207844316959381
0.4762459099292755,3.4064064025878906,0.11341024190187454
0.45282527804374695,3.4174652099609375,0.11397857964038849
0.4309692084789276,3.4360191822052,0.11479794234037399
0.41117122769355774,3.4738192558288574,0.11626885831356049
0.38940858840942383,3.4998884201049805,0.11728332191705704
0.3664112389087677,3.518064260482788,0.11802387982606888
0.3480800688266754,3.586604595184326,0.1204630434513092
0.3239748775959015,3.604534387588501,0.1212131455540657
0.30209586024284363,3.645602226257324,0.12274651974439621
0.2781752049922943,3.6670751571655273,0.12360221147537231
0.25461265444755554,3.7000889778137207,0.12478126585483551
0.2306375503540039,3.7329490184783936,0.1259623020887375
0.2055221050977707,3.7617805004119873,0.12701629102230072
0.18193985521793365,3.8177096843719482,0.12899135053157806
0.1564781218767166,3.8461849689483643,0.13004697859287262
0.13123026490211487,3.8940017223358154,0.1316954791545868
0.10512487590312958,3.933847427368164,0.1330467164516449
0.0775405690073967,3.954010486602783,0.13373909890651703
0.050468601286411285,3.99349045753479,0.13509145379066467
0.022951439023017883,4.03668737411499,0.13657639920711517
-0.0052186958491802216,4.091404914855957,0.13845369219779968
-0.03404852747917175,4.134214878082275,0.1398266702890396
-0.06414658576250076,4.1885223388671875,0.14159247279167175
-0.09386451542377472,4.215299606323242,0.14243444800376892
-0.1232009083032608,4.214547157287598,0.14235259592533112
-0.15220755338668823,4.205789089202881,0.14200739562511444
-0.18122582137584686,4.200735092163086,0.14175212383270264
-0.21773740649223328,4.347553253173828,0.14656203985214233
-0.2506256401538849,4.384892463684082,0.14767968654632568
-0.2847806215286255,4.441495895385742,0.14945265650749207
-0.320330411195755,4.505619049072266,0.1514820009469986
-0.35622134804725647,4.561672210693359,0.15324369072914124
-0.3937203884124756,4.629129409790039,0.15529601275920868
-0.43020308017730713,4.669021129608154,0.15639342367649078
-0.4712449908256531,4.755311012268066,0.1590505689382553
-0.5083301663398743,4.790762901306152,0.16000741720199585
-0.6157596707344055,5.442740440368652,0.18153086304664612
-0.6470065116882324,5.3840813636779785,0.1793086975812912
-0.6793031692504883,5.336830139160156,0.17735907435417175
-0.7159721851348877,5.332052707672119,0.1768396496772766
-0.7586668133735657,5.369538307189941,0.17772699892520905
-0.7907117605209351,5.329411029815674,0.17605087161064148
-0.8378822803497314,5.389394283294678,0.1776878535747528
-0.32465559244155884,1.996143102645874,0.06565327942371368
-0.34353742003440857,2.0246756076812744,0.0664156973361969
-0.36146602034568787,2.0453526973724365,0.06691889464855194
-0.3804582953453064,2.0697073936462402,0.06754058599472046
-0.3867757022380829,2.0248377323150635,0.06590588390827179
-0.40081143379211426,2.0221145153045654,0.06564436107873917
-0.414866179227829,2.0192878246307373,0.0653386041522026
-0.4270138144493103,2.0087811946868896,0.06479223817586899
-0.4323529899120331,1.9676921367645264,0.06326685100793839
-1.102879285812378,4.858333110809326,0.15571364760398865
-1.112504482269287,4.747951984405518,0.15169741213321686
-1.141865849494934,4.7249369621276855,0.15039339661598206
-1.1711421012878418,4.705722332000732,0.1491943895816803
-1.2030733823776245,4.697687149047852,0.14835888147354126
-1.2313992977142334,4.674219608306885,0.147037073969841
-1.263883113861084,4.665567874908447,0.1461840718984604
-1.2965819835662842,4.656614303588867,0.14528077840805054
-1.328166127204895,4.647733688354492,0.14434359967708588
-1.3552958965301514,4.623651504516602,0.14294306933879852
-1.382365345954895,4.599353790283203,0.1415424644947052
-1.1072262525558472,3.5933916568756104,0.11007305234670639
-1.1300543546676636,3.5781126022338867,0.10907302051782608
-1.1457664966583252,3.5444235801696777,0.10747051239013672
-1.4920717477798462,4.511632919311523,0.1360686719417572
-1.5150926113128662,4.479260444641113,0.1343681812286377
-1.5436608791351318,4.461264610290527,0.13309067487716675
-1.5719186067581177,4.4431352615356445,0.13180600106716156
-1.5996755361557007,4.424948215484619,0.13043755292892456
-1.6267386674880981,4.406780242919922,0.12909260392189026
-1.648305892944336,4.3737640380859375,0.12731893360614777
-1.6814855337142944,4.369518280029297,0.12637048959732056
-1.7015876770019531,4.332409381866455,0.12446274608373642
-1.713692545890808,4.277232646942139,0.12197788059711456
-1.7172287702560425,4.204226970672607,0.11902803927659988
-1.7247350215911865,4.142029285430908,0.11640136688947678
-1.742819905281067,4.104806423187256,0.11447735875844955
-1.7676678895950317,4.085693836212158,0.11303707957267761
-1.7922557592391968,4.066470146179199,0.11154905706644058
-1.8129318952560425,4.040214538574219,0.10989675670862198
-1.8374571800231934,4.020569324493408,0.10840388387441635
-1.868669033050537,4.014810085296631,0.10728083550930023
-1.8853673934936523,3.981121063232422,0.10536780953407288
-1.915637493133545,3.9753527641296387,0.10417959094047546
-1.9423598051071167,3.962400436401367,0.1028105691075325
-1.9733601808547974,3.955820083618164,0.10157571732997894
-2.0000598430633545,3.942424774169922,0.1001342236995697
-2.026052236557007,3.9291670322418213,0.09867285937070847
-2.055582046508789,3.9226560592651367,0.09738322347402573
-2.083343505859375,3.9080214500427246,0.09581144154071808
-2.1062171459198,3.8868980407714844,0.09408489614725113
-2.1354901790618896,3.8798487186431885,0.09266902506351471
-2.160975456237793,3.8657495975494385,0.09108529984951019
-2.1838674545288086,3.8439218997955322,0.08925899863243103
-2.2102134227752686,3.8288731575012207,0.08755433559417725
-2.2311246395111084,3.807713747024536,0.08571777492761612
-2.2521615028381348,3.7862613201141357,0.08386620134115219
-2.278390884399414,3.7705750465393066,0.08207449316978455
-2.3073477745056152,3.7621302604675293,0.08042119443416595
-2.327953577041626,3.7402563095092773,0.07844999432563782
-2.35317063331604,3.7244815826416016,0.07657429575920105
-2.382805824279785,3.7149152755737305,0.07477208226919174
-2.4023663997650146,3.693019151687622,0.07270436733961105
-2.4265389442443848,3.6772196292877197,0.07072856277227402
-2.452495574951172,3.6600000858306885,0.06859439611434937
-2.4713594913482666,3.637887954711914,0.06638406962156296
-2.508138418197632,3.641159772872925,0.06460398435592651
-2.040940761566162,2.919494152069092,0.0502031110227108
-2.04567813873291,2.8875346183776855,0.04804407060146332
-2.060235023498535,2.867584466934204,0.04600897431373596
-2.097727060317993,2.879058599472046,0.04439026489853859
-1.0786150693893433,1.4613194465637207,0.021606771275401115
-2.055011510848999,2.8810677528381348,-0.03659897670149803
-2.037597894668579,2.90293288230896,-0.03870680183172226
-2.4712088108062744,3.5766966342926025,-0.04983057826757431
-2.4234495162963867,3.5620510578155518,-0.05160752683877945
-2.4179646968841553,3.612839698791504,-0.05432344600558281
-2.4180469512939453,3.6690192222595215,-0.057026442140340805
-2.392777681350708,3.690171241760254,-0.05918755382299423
-2.3586037158966064,3.698183059692383,-0.0610973946750164
-2.3388307094573975,3.7245306968688965,-0.06319078803062439
-2.3053207397460938,3.731565475463867,-0.06492429226636887
-2.281357526779175,3.755373954772949,-0.06693832576274872
-2.2503786087036133,3.7648887634277344,-0.06863214075565338
-2.227247953414917,3.7876508235931396,-0.07051059603691101
-2.201075315475464,3.807399272918701,-0.07232560962438583
-2.173701047897339,3.823061227798462,-0.07402234524488449
-2.1469860076904297,3.8380954265594482,-0.07566315680742264
-2.118220567703247,3.854012966156006,-0.07730863988399506
-2.093555450439453,3.876314640045166,-0.07906550914049149
-2.066389799118042,3.89083194732666,-0.08060716837644577
-2.0421302318573,3.9124011993408203,-0.0822770968079567
-2.0133516788482666,3.9272563457489014,-0.08378325402736664
-1.9843297004699707,3.941967487335205,-0.08529645949602127
-1.9568604230880737,3.9556446075439453,-0.08672353625297546
-1.9353142976760864,3.983574867248535,-0.08843245357275009
-1.909636378288269,4.00457239151001,-0.08997540920972824
-1.8808200359344482,4.018156051635742,-0.09134454280138016
-1.85609769821167,4.038203716278076,-0.09283293038606644
-1.823573350906372,4.044397830963135,-0.09398876875638962
-1.8005565404891968,4.07175350189209,-0.09560398012399673
-1.7743154764175415,4.091741561889648,-0.09705022722482681
-1.742751121520996,4.096768856048584,-0.09811399132013321
-1.7258085012435913,4.137777328491211,-0.10002028197050095
-1.692460298538208,4.143063545227051,-0.10104674845933914
-1.6654460430145264,4.162381649017334,-0.10240551829338074
-1.6376926898956299,4.17754602432251,-0.1036437377333641
-1.614084005355835,4.203433036804199,-0.10514868050813675
-1.5810774564743042,4.207589626312256,-0.10604486614465714
-1.55563485622406,4.233680248260498,-0.10751502960920334
-1.5282102823257446,4.251929759979248,-0.10877086967229843
-1.5089584589004517,4.2919020652771,-0.11057929694652557
-1.4786009788513184,4.30242919921875,-0.11159302294254303
-1.4477880001068115,4.312869548797607,-0.11257191747426987
-1.4163663387298584,4.3232645988464355,-0.11356773227453232
-1.1350431442260742,3.548259973526001,-0.09378283470869064
-1.1172916889190674,3.5784220695495605,-0.09515789896249771
-1.33516526222229,4.38570499420166,-0.11725344508886337
-1.306056022644043,4.402584552764893,-0.11832966655492783
-1.2768110036849976,4.419261455535889,-0.11940781772136688
-1.2497715950012207,4.443188667297363,-0.12068586051464081
-1.2208366394042969,4.459300518035889,-0.12173739075660706
-1.1911535263061523,4.475382328033447,-0.12271081656217575
-1.1652132272720337,4.506389141082764,-0.12410327047109604
-1.1352462768554688,4.5220627784729,-0.12508070468902588
-0.5211230516433716,2.139779567718506,-0.05944713205099106
-0.49090996384620667,2.078752279281616,-0.057992108166217804
-0.4631205201148987,2.0250699520111084,-0.056698694825172424
-0.44539567828178406,2.0130398273468018,-0.05656702071428299
-0.4263015687465668,1.9932091236114502,-0.05621405690908432
-0.413756787776947,2.003817558288574,-0.05672182887792587
-0.3982078731060028,1.9989954233169556,-0.05678024888038635
-0.3870217502117157,2.017090320587158,-0.05745751038193703
-0.368512898683548,1.996727466583252,-0.05704149976372719
-0.3571805953979492,2.0146431922912598,-0.0577206015586853
-0.3468323051929474,2.0402116775512695,-0.058626141399145126
-0.33260101079940796,2.0425734519958496,-0.05885787308216095
-0.317013680934906,2.037142038345337,-0.0588286928832531
-0.30608659982681274,2.0624945163726807,-0.05969255790114403
-0.2915792465209961,2.064589738845825,-0.059887420386075974
-0.27905768156051636,2.0820729732513428,-0.060533344745635986
-0.266033411026001,2.0955801010131836,-0.06106408312916756
-0.24899934232234955,2.0780065059661865,-0.06064094975590706
-0.2365793138742447,2.0991008281707764,-0.06134935840964317
-0.22184407711029053,2.100705146789551,-0.06149190291762352
-0.21029669046401978,2.1332786083221436,-0.06254454702138901
-0.18775731325149536,2.053050994873047,-0.06029215455055237
-0.1802968978881836,2.1360158920288086,-0.06279271841049194
-0.16656890511512756,2.1527929306030273,-0.06334544718265533
-0.15151916444301605,2.1539015769958496,-0.06344066560268402
-0.1369953155517578,2.162696123123169,-0.06376542150974274
-0.12297378480434418,2.1870005130767822,-0.06455276906490326
-0.10615392029285431,2.1566059589385986,-0.06369345635175705
-0.09107758849859238,2.157294273376465,-0.06373145431280136
-0.07831253856420517,2.2242138385772705,-0.06572987139225006
-0.06302572786808014,2.2325103282928467,-0.06599970906972885
-0.047399770468473434,2.240706443786621,-0.0662703886628151
-0.031280819326639175,2.201939582824707,-0.0651380866765976
-0.01635168120265007,2.2567667961120605,-0.06674274802207947
-0.0006684030522592366,2.2646350860595703,-0.06696142256259918
0.015196478925645351,2.280202865600586,-0.06741085648536682
0.031231503933668137,2.272230386734009,-0.06716746836900711
0.08115431666374207,3.919323682785034,-0.11584504693746567
0.10770624130964279,3.8952512741088867,-0.11503159254789352
0.13315339386463165,3.847585678100586,-0.11352860927581787
0.15907840430736542,3.8270649909973145,-0.1128336638212204
0.18222957849502563,3.7556724548339844,-0.11064641922712326
